ply
format ascii 1.0
element vertex 830
property float x
property float y
property float z
end_header
0.6020347476005554 0.04381275549530983 0.6457979083061218
0.6040323376655579 0.041825130581855774 0.6464936137199402
0.6062163710594177 0.040221139788627625 0.6469544768333435
0.6068778038024902 0.03956349194049835 0.6471850872039795
0.6081972122192383 0.038250524550676346 0.64764404296875
0.6090520024299622 0.037965744733810425 0.64764404296875
0.5931723117828369 0.05219234526157379 0.641893744468689
0.5960789918899536 0.0498790368437767 0.642604649066925
0.5981066823005676 0.0478639118373394 0.6433118581771851
0.6003174185752869 0.046238094568252563 0.6437816023826599
0.6025208830833435 0.04461704194545746 0.6442497372627258
0.6045230031013489 0.0426245778799057 0.6449494361877441
0.6051880121231079 0.04196116328239441 0.6451833844184875
0.606047511100769 0.0416746586561203 0.6451833844184875
0.6080352663993835 0.0396946556866169 0.6458790302276611
0.6102117896080017 0.038093842566013336 0.6463412046432495
0.6108697652816772 0.037437859922647476 0.6465723514556885
0.5950049161911011 0.0516715832054615 0.6407971978187561
0.5965535044670105 0.05070407688617706 0.641036868095398
0.5979093909263611 0.04935572296380997 0.6415117383003235
0.5985857844352722 0.048682693392038345 0.64174884557724
0.6001273393630981 0.04772241413593292 0.6419854164123535
0.6021449565887451 0.04571342095732689 0.6426940560340881
0.6043477654457092 0.04409179091453552 0.6431640982627869
0.6050156354904175 0.04342638701200485 0.6433992385864258
0.6065430641174316 0.04247346147894859 0.6436339616775513
0.607208251953125 0.04181063920259476 0.6438682079315186
0.60853511095047 0.04048673436045647 0.6443352699279785
0.6100560426712036 0.03953995555639267 0.6445688605308533
0.597711443901062 0.05085931345820427 0.6396986842155457
0.598389744758606 0.050181761384010315 0.6399392485618591
0.6006119251251221 0.048542387783527374 0.6404165029525757
0.6026340126991272 0.046526677906513214 0.6411307454109192
0.6041715145111084 0.04556827247142792 0.6413678526878357
0.6083732843399048 0.04194646701216698 0.6425492763519287
0.6105614304542542 0.040332987904548645 0.6430188417434692
0.6004223227500916 0.05004361271858215 0.6385987401008606
0.6010997295379639 0.0493675135076046 0.6388394832611084
0.6024508476257324 0.048017118126153946 0.6393195390701294
0.6031249165534973 0.04734381288290024 0.6395594477653503
0.6046659350395203 0.046382222324609756 0.6397983431816101
0.6060076951980591 0.04504138231277466 0.6402750015258789
0.6082103848457336 0.043415747582912445 0.6407510638237
0.6015890836715698 0.05019495636224747 0.6372551918029785
0.6022665500640869 0.04951737821102142 0.637497067451477
0.604489803314209 0.047875478863716125 0.6379795074462891
0.6065072417259216 0.04585528001189232 0.6387010216712952
0.6080459356307983 0.04489464312791824 0.6389406323432922
0.6093825101852417 0.043555017560720444 0.6394197344779968
0.6124663352966309 0.04746824875473976 0.6367740035057068
0.602760374546051 0.05034783482551575 0.6359063386917114
0.604114830493927 0.04899081960320473 0.6363925337791443
0.6063368916511536 0.04734744131565094 0.6368772983551025
0.6076816320419312 0.045999396592378616 0.6373611092567444
0.6085519790649414 0.045709289610385895 0.6373611092567444
0.6111304759979248 0.046722717583179474 0.6363546848297119
0.6123384237289429 0.04706673324108124 0.6359535455703735
0.6144368052482605 0.047141898423433304 0.635537326335907
0.6046134233474731 0.04982072487473488 0.6347970962524414
0.6061649322509766 0.048849917948246 0.6350414752960205
0.607513964176178 0.04749361798167229 0.6355306506156921
0.6081866025924683 0.04681653529405594 0.6357747912406921
0.611021101474762 0.04635695740580559 0.6355129480361938
0.6066697239875793 0.04968028515577316 0.6334406137466431
0.6080212593078613 0.04831956699490547 0.633932888507843
0.6109158992767334 0.04599865525960922 0.634666383266449
0.6133074164390564 0.04663240164518356 0.6338919997215271
0.6141827702522278 0.046340715140104294 0.6338919997215271
0.6100835800170898 0.04817628115415573 0.6325742602348328
0.6107574701309204 0.04749627411365509 0.6328213214874268
0.6140773296356201 0.04598112031817436 0.6330428123474121
0.6097210049629211 0.04930127412080765 0.6309614777565002
0.6106000542640686 0.04900836944580078 0.6309614777565002
0.61194908618927 0.047644488513469696 0.6314597725868225
0.6126216650009155 0.04696420207619667 0.6317075490951538
0.6141701340675354 0.045992862433195114 0.6319559812545776
0.61522376537323 0.04603182524442673 0.6317435503005981
0.6117952466011047 0.049159254878759384 0.6295923590660095
0.6124703288078308 0.04847552254796028 0.6298424005508423
0.614345133304596 0.04794284701347351 0.6287206411361694
0.6141982674598694 0.04946327209472656 0.6268380880355835
0.550205409526825 0.06832695007324219 0.6819165349006653
0.5568103790283203 0.05405367165803909 0.6757487654685974
0.5479097366333008 0.07213371247053146 0.682218074798584
0.5525256395339966 0.0682782232761383 0.6819936633110046
0.5565188527107239 0.062318962067365646 0.6798377633094788
0.5480291247367859 0.0737374871969223 0.6819135546684265
0.5491959452629089 0.07406873255968094 0.6822161674499512
0.5588242411613464 0.06229187175631523 0.6799232959747314
0.5458546280860901 0.07550492882728577 0.6800969839096069
0.5473410487174988 0.07609806954860687 0.6808164715766907
0.545488715171814 0.07594111561775208 0.6793801784515381
0.5630577802658081 0.05408015474677086 0.675534725189209
0.5620232224464417 0.05854162946343422 0.6779912710189819
0.5502662658691406 0.07580764591693878 0.6819406151771545
0.548920214176178 0.07606533169746399 0.681160569190979
0.5620070099830627 0.06239028647542 0.6799743175506592
0.5514478087425232 0.07615599781274796 0.6822795271873474
0.5456967353820801 0.07690083235502243 0.6786803603172302
0.5529916286468506 0.07611437141895294 0.6826025247573853
0.5485197305679321 0.07795139402151108 0.6799388527870178
0.546464741230011 0.07833202928304672 0.6787282228469849
0.5452540516853333 0.07802151888608932 0.6776285171508789
0.5648854374885559 0.06221085414290428 0.6796259880065918
0.5523139238357544 0.07771115750074387 0.681749701499939
0.5505168437957764 0.07828033715486526 0.6808593273162842
0.5497540235519409 0.07833271473646164 0.6803441643714905
0.5489881634712219 0.07838527113199234 0.6798269748687744
0.5579099655151367 0.07629695534706116 0.6840296387672424
0.5534796118736267 0.0780491977930069 0.6820822954177856
0.5528427362442017 0.07820159196853638 0.6817301511764526
0.5463639497756958 0.07902839034795761 0.6776204705238342
0.561012864112854 0.07412916421890259 0.6839576363563538
0.5550191402435303 0.07801130414009094 0.6824178099632263
0.5658285617828369 0.06771278381347656 0.682033121585846
0.5584311485290527 0.0775245875120163 0.6837987303733826
0.5574766397476196 0.07808966189622879 0.683513879776001
0.551092267036438 0.07957868278026581 0.6799342036247253
0.5484586954116821 0.07945376634597778 0.6779172420501709
0.5458563566207886 0.07938625663518906 0.6759650111198425
0.5549805164337158 0.07944807410240173 0.6819247603416443
0.5484187006950378 0.0801616832613945 0.6776362657546997
0.5474063754081726 0.08001574873924255 0.6767869591712952
0.5462819933891296 0.07978031784296036 0.6757897138595581
0.5527549386024475 0.08036656677722931 0.6802045106887817
0.5519014000892639 0.08033771067857742 0.6795555353164673
0.546602725982666 0.08008670806884766 0.6754745244979858
0.5566262602806091 0.08024169504642487 0.6822035908699036
0.555898129940033 0.08030783385038376 0.6817153692245483
0.5523046851158142 0.08071614056825638 0.6793665289878845
0.5504862666130066 0.08057302981615067 0.6779199242591858
0.5666465759277344 0.07370902597904205 0.6840251088142395
0.5604609251022339 0.07944224029779434 0.6836904287338257
0.5588439702987671 0.08011411130428314 0.682991623878479
0.5563499927520752 0.0807313546538353 0.6816036105155945
0.5483025908470154 0.08087991178035736 0.6757619976997375
0.5453776717185974 0.0798516720533371 0.6728384494781494
0.5751911401748657 0.05245616286993027 0.6738477349281311
0.5747247934341431 0.0559992678463459 0.6761294007301331
0.554341197013855 0.08112534880638123 0.6796467900276184
0.5456863045692444 0.08014786243438721 0.6725029945373535
0.5627052187919617 0.08010037243366241 0.6843405365943909
0.5620735287666321 0.08023421466350555 0.6839703321456909
0.5583586692810059 0.08114428073167801 0.681884229183197
0.5524948239326477 0.08168181777000427 0.6779227256774902
0.5475510358810425 0.08103284239768982 0.6737632155418396
0.5547599196434021 0.0822509154677391 0.6792674660682678
0.5538145899772644 0.0821409523487091 0.6784804463386536
0.5528317093849182 0.08200293779373169 0.6776443719863892
0.5506322979927063 0.08154239505529404 0.6756604313850403
0.546410083770752 0.08082877099514008 0.6719790101051331
0.5588608384132385 0.08234156668186188 0.6816373467445374
0.5572121739387512 0.08230125904083252 0.680374026298523
0.5563990473747253 0.08229570835828781 0.6797616481781006
0.5504782795906067 0.08215232193470001 0.6752262115478516
0.5480061769485474 0.08148990571498871 0.6728816032409668
0.5786833167076111 0.04800957068800926 0.669995903968811
0.5726996064186096 0.07233037054538727 0.6837499737739563
0.5625444054603577 0.08213146030902863 0.6834843754768372
0.5618520975112915 0.08221324533224106 0.6830264925956726
0.5544843673706055 0.08278016746044159 0.6779254078865051
0.5523008704185486 0.08232280611991882 0.6759446859359741
0.5494741201400757 0.08205015957355499 0.6736198663711548
0.56800776720047 0.0808081179857254 0.685845673084259
0.5640507340431213 0.08210688084363937 0.6838462948799133
0.5608318448066711 0.08273228257894516 0.6818954348564148
0.548461377620697 0.08194709569215775 0.671999990940094
0.5799983143806458 0.046076808124780655 0.6679462194442749
0.5803269743919373 0.048175279051065445 0.6697770953178406
0.5663726329803467 0.08213247358798981 0.6848652958869934
0.5657738447189331 0.08228763937950134 0.6845307350158691
0.5583833456039429 0.08340854197740555 0.6798015832901001
0.5515372157096863 0.08245072513818741 0.6739149689674377
0.5486888885498047 0.08217568695545197 0.6715589761734009
0.5460030436515808 0.08136157691478729 0.668919026851654
0.5783087611198425 0.06758736073970795 0.6821433305740356
0.556816577911377 0.08348021656274796 0.6779078245162964
0.5541831254959106 0.08332433551549911 0.6757979393005371
0.5476683974266052 0.08207275718450546 0.6699231266975403
0.5823056101799011 0.05623302236199379 0.6758061647415161
0.5628016591072083 0.08385590463876724 0.6819650530815125
0.560857892036438 0.08423151820898056 0.6807754039764404
0.5599870681762695 0.08416633307933807 0.6800652146339417
0.5590779185295105 0.08407154679298401 0.6793038845062256
0.5567099452018738 0.08411885797977448 0.6775433421134949
0.5503808856010437 0.08296073228120804 0.6718639731407166
0.5665094256401062 0.08371637761592865 0.6839231252670288
0.5647599101066589 0.08423195034265518 0.6829844117164612
0.56399005651474 0.08424071222543716 0.6824054718017578
0.5631978511810303 0.08423280715942383 0.6817968487739563
0.5603488087654114 0.08451070636510849 0.6798408627510071
0.5558242201805115 0.08409149199724197 0.6760801076889038
0.5534279346466064 0.08345377445220947 0.6737721562385559
0.5482843518257141 0.08266366273164749 0.6692583560943604
0.5455420017242432 0.08252549916505814 0.6670671105384827
0.5790405869483948 0.07209362089633942 0.6838655471801758
0.5742874145507812 0.07972639054059982 0.6860623955726624
0.5704593062400818 0.08316467702388763 0.6857649683952332
0.5676253437995911 0.08405253291130066 0.6842803359031677
0.5669500231742859 0.08413656055927277 0.6838292479515076
0.5587005615234375 0.08450192213058472 0.6778148412704468
0.5560473203659058 0.0843154564499855 0.6756486296653748
0.5462338328361511 0.08313482999801636 0.6672617793083191
0.5690986514091492 0.08402270823717117 0.68463534116745
0.5640118718147278 0.08500536531209946 0.6814956665039062
0.5550792217254639 0.08422371745109558 0.674064040184021
0.552666187286377 0.08358427882194519 0.6717290282249451
0.5500398278236389 0.08349603414535522 0.6696522831916809
0.5480595827102661 0.08326505869626999 0.6679607629776001
0.5399330854415894 0.08447054028511047 0.6626661419868469
0.5714183449745178 0.08408693969249725 0.6857161521911621
0.5626388192176819 0.08520909398794174 0.6798414587974548
0.5580493211746216 0.0847000703215599 0.6759302616119385
0.555303156375885 0.08444858342409134 0.6736305356025696
0.5525317192077637 0.08421075344085693 0.6713219285011292
0.551453709602356 0.08401022851467133 0.6703411936759949
0.5481514930725098 0.08408728241920471 0.6678668856620789
0.5472614169120789 0.08406154811382294 0.6671642661094666
0.5728389024734497 0.0840294361114502 0.6860198974609375
0.5689364075660706 0.08530515432357788 0.6839990019798279
0.5605593323707581 0.085506871342659 0.6777094006538391
0.5507752299308777 0.0841863751411438 0.6691664457321167
0.5498973727226257 0.08416105061769485 0.6684715747833252
0.5878744125366211 0.05433041229844093 0.6739633083343506
0.5750447511672974 0.08402298390865326 0.6869728565216064
0.5733129382133484 0.08448737114667892 0.6859951615333557
0.5667456388473511 0.0861256793141365 0.6821924448013306
0.5659350752830505 0.08609502762556076 0.6815433502197266
0.5629056096076965 0.08619259297847748 0.6792814135551453
0.5618918538093567 0.08600060641765594 0.6783512830734253
0.5569397211074829 0.08521127700805664 0.6739217638969421
0.5546277165412903 0.08464638143777847 0.6717023253440857
0.5521182417869568 0.08464191108942032 0.6697626709938049
0.5463075041770935 0.0854821428656578 0.665928065776825
0.5418986082077026 0.08756571263074875 0.6641340255737305
0.5881160497665405 0.05787135288119316 0.6761121153831482
0.5840327143669128 0.07206255197525024 0.6839321851730347
0.5801457762718201 0.07834462076425552 0.6857852935791016
0.5704703330993652 0.08604852855205536 0.6842601299285889
0.5697759985923767 0.08610876649618149 0.6837694048881531
0.5662873387336731 0.08643309026956558 0.6813212037086487
0.5645346641540527 0.0862652137875557 0.6798354983329773
0.5621473789215088 0.08625227957963943 0.6779783964157104
0.5500709414482117 0.08508862555027008 0.6677350401878357
0.5377044677734375 0.0906262919306755 0.6624518632888794
0.587984025478363 0.058488838374614716 0.6757175326347351
0.5868605971336365 0.06201576068997383 0.6775822639465332
0.5874843001365662 0.06431730091571808 0.6798517107963562
0.5742536187171936 0.08539620786905289 0.6859408020973206
0.5701530575752258 0.08647151291370392 0.6835935115814209
0.5612599849700928 0.08620460331439972 0.6764869093894958
0.5601040720939636 0.0858997032046318 0.6753534078598022
0.5495644807815552 0.08611597865819931 0.6673442125320435
0.5883136987686157 0.058021076023578644 0.6748377680778503
0.5873433947563171 0.06013066694140434 0.6757242679595947
0.5822414755821228 0.07829270511865616 0.6858853697776794
0.5743182897567749 0.08616580814123154 0.6858464479446411
0.5736654996871948 0.08625196665525436 0.6854054927825928
0.5681933164596558 0.08679931610822678 0.6815738677978516
0.5603255033493042 0.08612186461687088 0.6749254465103149
0.5591608881950378 0.08581553399562836 0.6737809777259827
0.5587854981422424 0.08619093894958496 0.6737809777259827
0.5566466450691223 0.08576280623674393 0.6717838644981384
0.5519475936889648 0.08601942658424377 0.6683274507522583
0.5512433052062988 0.08613715320825577 0.6678711175918579
0.5457017421722412 0.08931408822536469 0.6660313606262207
0.537550687789917 0.09268268942832947 0.6623104214668274
0.5908570885658264 0.05019056797027588 0.6699382662773132
0.5896527171134949 0.056288305670022964 0.6737561821937561
0.5757484436035156 0.08613050729036331 0.6861913204193115
0.5720386505126953 0.08684670925140381 0.6838554739952087
0.5663967728614807 0.08729686588048935 0.6798048615455627
0.564344048500061 0.08687101304531097 0.6778711080551147
0.5569666624069214 0.08606904000043869 0.6714891791343689
0.5548428893089294 0.08637305349111557 0.6700693368911743
0.5539846420288086 0.08635365217924118 0.669384777545929
0.5459588170051575 0.09025435149669647 0.6661662459373474
0.5920076370239258 0.05411538481712341 0.6731210350990295
0.5885119438171387 0.05817133188247681 0.6735595464706421
0.5879061818122864 0.05908924713730812 0.6738036274909973
0.5868277549743652 0.06267458945512772 0.6757651567459106
0.5873387455940247 0.06484516710042953 0.6778630614280701
0.5556842684745789 0.08641806244850159 0.669975221157074
0.5509369969367981 0.08806096017360687 0.667546272277832
0.5358781218528748 0.09564681351184845 0.6616992354393005
0.5902721285820007 0.05611295998096466 0.6725476384162903
0.5875526070594788 0.06026093289256096 0.673668622970581
0.5798212885856628 0.08655017614364624 0.6882292628288269
0.5700672268867493 0.0878601223230362 0.6816039085388184
0.5688613653182983 0.08815783262252808 0.6808915138244629
0.5679387450218201 0.08802497386932373 0.6800633072853088
0.5632851719856262 0.08738849312067032 0.6759125590324402
0.56108158826828 0.08686772733926773 0.6737750172615051
0.5586791038513184 0.08689647167921066 0.6719125509262085
0.5561447739601135 0.0868421196937561 0.6698814630508423
0.5527085661888123 0.0881626084446907 0.6682215332984924
0.5521678328514099 0.08841352164745331 0.66799396276474
0.5361730456352234 0.096596360206604 0.6618645787239075
0.5862823128700256 0.07807700335979462 0.6859098076820374
0.5824993252754211 0.08427028357982635 0.6878063678741455
0.5728467106819153 0.08833237737417221 0.6834076046943665
0.5712361335754395 0.08824700117111206 0.6820731163024902
0.57041335105896 0.08819379657506943 0.6813837885856628
0.5682358741760254 0.08831382542848587 0.6797651648521423
0.5672010779380798 0.08808550983667374 0.6787711381912231
0.5661290287971497 0.08782964199781418 0.6777262687683105
0.5543089509010315 0.08813329041004181 0.6686649322509766
0.5509854555130005 0.09026125818490982 0.6677241921424866
0.5934431552886963 0.054050933569669724 0.671859860420227
0.5917516350746155 0.05531669780611992 0.671523928642273
0.5909845232963562 0.05604854226112366 0.6714960336685181
0.5898552536964417 0.05717282369732857 0.6714922189712524
0.5891854763031006 0.05802135169506073 0.6716331243515015
0.5868752002716064 0.06262847036123276 0.673445463180542
0.5770156979560852 0.08806540071964264 0.6857367157936096
0.5758959054946899 0.08840074390172958 0.685117781162262
0.5743231773376465 0.08832534402608871 0.6838172674179077
0.566347062587738 0.08804827928543091 0.677305281162262
0.5648565292358398 0.0881238728761673 0.6761887669563293
0.5568991303443909 0.08824524283409119 0.6700057983398438
0.5562124252319336 0.08836513012647629 0.6695587038993835
0.5525716543197632 0.09020940959453583 0.6681411266326904
0.5520908236503601 0.09050844609737396 0.6679977774620056
0.593838632106781 0.044060688465833664 0.6634859442710876
0.5878388285636902 0.06048062443733215 0.6717310547828674
0.5845522284507751 0.08419919013977051 0.6878979802131653
0.5654454231262207 0.08797461539506912 0.6757668256759644
0.5650759935379028 0.08834398537874222 0.6757668256759644
0.5630369186401367 0.08795541524887085 0.6738457679748535
0.5608646869659424 0.08816725015640259 0.6722946166992188
0.5600342750549316 0.08815255761146545 0.6716259717941284
0.5592026710510254 0.08814002573490143 0.6709580421447754
0.5542477965354919 0.0902387872338295 0.6686981916427612
0.551952064037323 0.09181240946054459 0.6681268215179443
0.551472544670105 0.09211262315511703 0.6679849028587341
0.5943141579627991 0.05418192222714424 0.6710889339447021
0.588169515132904 0.06001449376344681 0.6708412766456604
0.5871496796607971 0.062071945518255234 0.6716645956039429
0.592499315738678 0.07209983468055725 0.6838664412498474
0.572259783744812 0.08923584967851639 0.6814036965370178
0.5703752636909485 0.08891601860523224 0.6796546578407288
0.5633484721183777 0.0882556363940239 0.6735550761222839
0.5531512498855591 0.09213563799858093 0.6685425043106079
0.5517199039459229 0.0930369645357132 0.6681219935417175
0.5918732285499573 0.05614738166332245 0.6699267625808716
0.5899760723114014 0.05800750106573105 0.6698973774909973
0.5924928188323975 0.07433858513832092 0.6848946213722229
0.5864853262901306 0.08402097970247269 0.6878188848495483
0.5778971910476685 0.09435514360666275 0.6892082691192627
0.5681108236312866 0.08899300545454025 0.6771542429924011
0.5660302639007568 0.08854281157255173 0.6751406192779541
0.5580556392669678 0.09001605957746506 0.6699672937393188
0.5575265288352966 0.09026502072811127 0.6697445511817932
0.554721474647522 0.09208030253648758 0.6689569354057312
0.5515879988670349 0.09433597326278687 0.6682584285736084
0.5406979918479919 0.10017158091068268 0.6642365455627441
0.5937784314155579 0.05508694797754288 0.6698140501976013
0.5924919247627258 0.05601729825139046 0.6695297956466675
0.5901386141777039 0.05815676972270012 0.6693592071533203
0.5883967280387878 0.06020195037126541 0.6696012020111084
0.5921863913536072 0.07622308284044266 0.6854091286659241
0.5911130905151367 0.07801610976457596 0.6859832406044006
0.5650240182876587 0.08907674998044968 0.6739914417266846
0.5592429041862488 0.0903562530875206 0.6703993082046509
0.556378185749054 0.09210336208343506 0.6695075631141663
0.5531620979309082 0.0942741110920906 0.6686735153198242
0.5457289218902588 0.09861584007740021 0.6662067174911499
0.5963541269302368 0.05403532832860947 0.6702462434768677
0.5953525900840759 0.05446500703692436 0.6697887778282166
0.5877740383148193 0.06187892332673073 0.6696569919586182
0.5873986482620239 0.062254201620817184 0.6696569919586182
0.5931243896484375 0.07423945516347885 0.6838290691375732
0.5620919466018677 0.09003954380750656 0.6716404557228088
0.5614231824874878 0.09016113728284836 0.6712024807929993
0.5548233389854431 0.09428948909044266 0.6692248582839966
0.5375598669052124 0.10268660634756088 0.6621301174163818
0.5965753197669983 0.05425480380654335 0.6698142290115356
0.5909619927406311 0.08002205938100815 0.6859865188598633
0.5901103615760803 0.08202198892831802 0.6869078874588013
0.5892648100852966 0.08400806784629822 0.6878230571746826
0.5636767745018005 0.09004704654216766 0.6721362471580505
0.5595635771751404 0.09207132458686829 0.6704601645469666
0.5577860474586487 0.09333536773920059 0.6700480580329895
0.5563777685165405 0.09422820061445236 0.6696344017982483
0.5455837249755859 0.1006096675992012 0.6660937070846558
0.5416545271873474 0.10236407071352005 0.6643484830856323
0.5926290154457092 0.05686735734343529 0.6679542660713196
0.5917745232582092 0.05749671161174774 0.6677731871604919
0.5910133719444275 0.05824049934744835 0.667759120464325
0.5898933410644531 0.05938247963786125 0.6677767038345337
0.5891498327255249 0.06014760956168175 0.6677942276000977
0.5940446853637695 0.07217765599489212 0.6814134120941162
0.5939021706581116 0.07278142869472504 0.6817846894264221
0.5923988223075867 0.07639145851135254 0.6834797859191895
0.5642209649085999 0.09054601937532425 0.6721954941749573
0.5612026453018188 0.0921068862080574 0.6710227131843567
0.558017373085022 0.09424367547035217 0.6701788902282715
0.5575494170188904 0.09454087167978287 0.6700416803359985
0.5552613735198975 0.09607730060815811 0.6694366931915283
0.5980362892150879 0.040044769644737244 0.6579509377479553
0.5976471304893494 0.04043400660157204 0.6579509377479553
0.5997172594070435 0.04599672183394432 0.6641102433204651
0.6003879308700562 0.047799002379179 0.6661058664321899
0.5985409021377563 0.05408712476491928 0.6696894764900208
0.5941483974456787 0.056167539209127426 0.6678237915039062
0.5880687832832336 0.06211136281490326 0.6677141189575195
0.5876926779747009 0.06248754262924194 0.6677141189575195
0.5871058106422424 0.06423395872116089 0.6686499118804932
0.5933271646499634 0.07438821345567703 0.6818642020225525
0.5919601321220398 0.0781233161687851 0.6837751865386963
0.5902469158172607 0.08214366436004639 0.6856368780136108
0.5885574817657471 0.0861082598567009 0.6874727606773376
0.5627401471138 0.09206625819206238 0.6714473366737366
0.5569405555725098 0.09611593186855316 0.6700352430343628
0.5564448833465576 0.09639184176921844 0.669857919216156
0.5413775444030762 0.10425612330436707 0.664045512676239
0.5989482402801514 0.04213564470410347 0.659561038017273
0.6012488007545471 0.05411916598677635 0.6711199283599854
0.595361590385437 0.05593595281243324 0.6678261756896973
0.587188720703125 0.06429663300514221 0.667978048324585
0.5920307040214539 0.07818108052015305 0.6831316947937012
0.589983344078064 0.0832989364862442 0.6856163144111633
0.5894666910171509 0.084195576608181 0.6859238743782043
0.5611708164215088 0.09419840574264526 0.671120822429657
0.5584773421287537 0.09604968875646591 0.6704394221305847
0.5517467260360718 0.1001066341996193 0.6682758331298828
0.5354048609733582 0.10670014470815659 0.660387396812439
0.6023687124252319 0.052069392055273056 0.669582724571228
0.6002975106239319 0.0545194149017334 0.6698901057243347
0.5969740152359009 0.055365536361932755 0.6678797006607056
0.592310905456543 0.058000508695840836 0.6662339568138123
0.5900143384933472 0.06022205576300621 0.6661731600761414
0.5926121473312378 0.07656057178974152 0.6815395355224609
0.5912395119667053 0.08025950193405151 0.6834273934364319
0.5880395174026489 0.0883883684873581 0.6874270439147949
0.5876907110214233 0.08873723447322845 0.6874270439147949
0.5623171925544739 0.09450813382863998 0.671519935131073
0.5600977540016174 0.09605883806943893 0.6709771752357483
0.6018211245536804 0.05386849865317345 0.6698142290115356
0.5963062047958374 0.056159261614084244 0.667190670967102
0.5929642915725708 0.05791051313281059 0.6658961772918701
0.5925073623657227 0.05818984657526016 0.6657518148422241
0.591692328453064 0.05887061730027199 0.6656424403190613
0.5901773571968079 0.060372643172740936 0.6656318306922913
0.5898001194000244 0.06074990704655647 0.6656318306922913
0.5883923768997192 0.0623767115175724 0.6658101677894592
0.5935242772102356 0.07453030347824097 0.679876446723938
0.5921719670295715 0.07829692214727402 0.6818410754203796
0.591816246509552 0.07865267992019653 0.6818410754203796
0.5904525518417358 0.08232720196247101 0.683721661567688
0.5887570977210999 0.08630125224590302 0.6855757832527161
0.5872725248336792 0.09040435403585434 0.687706708908081
0.5841074585914612 0.09618791192770004 0.6898373961448669
0.5824800729751587 0.0980030968785286 0.6899902820587158
0.5818110108375549 0.09871164709329605 0.690022349357605
0.5579325556755066 0.09837745130062103 0.6703191995620728
0.551588237285614 0.10206740349531174 0.6681591868400574
0.5472100377082825 0.1040605828166008 0.6662182211875916
0.5427735447883606 0.10608324408531189 0.6642540693283081
0.5355088114738464 0.10820768773555756 0.6600711941719055
0.6033186912536621 0.050560690462589264 0.6675510406494141
0.5986060500144958 0.05561971291899681 0.6678338646888733
0.5945322513580322 0.05726679787039757 0.6658535599708557
0.587857186794281 0.06334829330444336 0.6653690934181213
0.5874385833740234 0.06448525935411453 0.6659552454948425
0.5929266810417175 0.07611094415187836 0.6799209117889404
0.5898352861404419 0.08383813500404358 0.6837038397789001
0.5865094661712646 0.09241002053022385 0.687984824180603
0.5839809775352478 0.09741335362195969 0.6900044083595276
0.5763070583343506 0.10427636653184891 0.6893428564071655
0.5390424728393555 0.10808748751878738 0.6620432138442993
0.6026455760002136 0.05220866575837135 0.6675565242767334
0.5867838859558105 0.06611926108598709 0.6659600138664246
0.5914490222930908 0.08043874055147171 0.6814955472946167
0.5875120759010315 0.07847290486097336 0.6766651272773743
0.589737594127655 0.08444726467132568 0.6833754181861877
0.5883999466896057 0.08804970234632492 0.6852288246154785
0.5878874659538269 0.08893676847219467 0.6855353116989136
0.5859084725379944 0.09388045221567154 0.6879613399505615
0.5841742157936096 0.09826761484146118 0.6901324391365051
0.6036827564239502 0.05000622197985649 0.6658082008361816
0.6021239757537842 0.0540497787296772 0.6678472757339478
0.6017511487007141 0.05442247539758682 0.6678472757339478
0.5997893810272217 0.05615868791937828 0.6676620244979858
0.5973925590515137 0.05650264769792557 0.6659775376319885
0.5945953130722046 0.05807854235172272 0.6649751663208008
0.5910346508026123 0.06043566018342972 0.6639876961708069
0.5937225222587585 0.07467328011989594 0.6778771877288818
0.5923848152160645 0.07847128808498383 0.6798960566520691
0.5889514684677124 0.078498475253582 0.6771008372306824
0.5868666768074036 0.07852499932050705 0.6754117012023926
0.5859964489936829 0.07835645973682404 0.6745592951774597
0.5852572321891785 0.07832915335893631 0.673930287361145
0.5893098711967468 0.08614382147789001 0.6836689114570618
0.5876292586326599 0.09007451683282852 0.6855154633522034
0.5858134627342224 0.09447652846574783 0.6876378655433655
0.5843701958656311 0.0984647125005722 0.6897261738777161
0.5475791096687317 0.10645230114459991 0.6660894155502319
0.5339900255203247 0.11064030975103378 0.6583744883537292
0.6010408401489258 0.0560029074549675 0.667772114276886
0.5981994271278381 0.0566151961684227 0.6659377813339233
0.5933285355567932 0.05899028852581978 0.6638837456703186
0.5897165536880493 0.06213340535759926 0.6634981036186218
0.5879228711128235 0.06413216143846512 0.663666844367981
0.5931429862976074 0.0762803703546524 0.6779597401618958
0.5919285416603088 0.07944536954164505 0.6795649528503418
0.591758668422699 0.08000271767377853 0.6798837780952454
0.5901923179626465 0.07906454056501389 0.6778225898742676
0.5839728116989136 0.07922074943780899 0.6728329658508301
0.5885329842567444 0.08818211406469345 0.6839603185653687
0.586862325668335 0.0920887142419815 0.6858002543449402
0.5860354900360107 0.09402182698249817 0.6867105960845947
0.5854028463363647 0.09611783176660538 0.6879149675369263
0.5836236476898193 0.1004258468747139 0.6899958848953247
0.5819419026374817 0.1021692156791687 0.6900466084480286
0.5437023043632507 0.10892435163259506 0.6641372442245483
0.6046212315559387 0.048444025218486786 0.6636977195739746
0.6028995513916016 0.05231626331806183 0.6654725670814514
0.5945401191711426 0.05874510109424591 0.66387939453125
0.5922059416770935 0.06008722633123398 0.6630606651306152
0.5880571603775024 0.06425253301858902 0.663074254989624
0.5870328545570374 0.06631304323673248 0.6639295220375061
0.5881707072257996 0.07913168519735336 0.6754466891288757
0.5879226326942444 0.08967439830303192 0.6839423179626465
0.5343559384346008 0.11230524629354477 0.6584129929542542
0.5299788117408752 0.1277921348810196 0.6675811409950256
0.5296636819839478 0.12819544970989227 0.6676538586616516
0.6052988767623901 0.046582456678152084 0.6619154810905457
0.603941023349762 0.05010772496461868 0.6637090444564819
0.6024085283279419 0.0542059950530529 0.6658325791358948
0.5961322784423828 0.05813399702310562 0.6638890504837036
0.5904110670089722 0.06204701215028763 0.6623929142951965
0.5927703976631165 0.07808555662631989 0.6776179075241089
0.5869624018669128 0.07933665812015533 0.6738468408584595
0.58477783203125 0.08003619313240051 0.6726179718971252
0.5837735533714294 0.08048521727323532 0.672158420085907
0.5878260731697083 0.09027794748544693 0.683616042137146
0.5861628651618958 0.09416356682777405 0.6854552030563354
0.5847114324569702 0.09816945344209671 0.6875690221786499
0.5829405784606934 0.10245423763990402 0.6896495223045349
0.5575181841850281 0.10425974428653717 0.6701052784919739
0.553412675857544 0.10635575652122498 0.6684424877166748
0.5379967093467712 0.11221884191036224 0.66053706407547
0.529823362827301 0.1295354962348938 0.6681035161018372
0.604027271270752 0.050141654908657074 0.6630065441131592
0.6019281148910522 0.0552326999604702 0.6654895544052124
0.6002568602561951 0.057353392243385315 0.6658623814582825
0.5974364280700684 0.058016881346702576 0.6640723943710327
0.5921445488929749 0.06075328588485718 0.6619517803192139
0.5917084813117981 0.06106238067150116 0.6618463397026062
0.5905746817588806 0.06219871714711189 0.6618484854698181
0.5898378491401672 0.06297875195741653 0.6618843078613281
0.5887230634689331 0.06413678824901581 0.6619203090667725
0.5937027335166931 0.07607147097587585 0.6759568452835083
0.5863413214683533 0.08016370981931686 0.6732438206672668
0.5888869762420654 0.08783005177974701 0.6817184090614319
0.5870565176010132 0.0922970399260521 0.6839063167572021
0.5859084725379944 0.09528741240501404 0.6854352951049805
0.583961009979248 0.10013880580663681 0.6878452301025391
0.5443198084831238 0.11082835495471954 0.6638191342353821
0.5320940017700195 0.11356090009212494 0.6559409499168396
0.532688558101654 0.12777042388916016 0.6682263612747192
0.5299369692802429 0.1308428794145584 0.6684926748275757
0.6064531207084656 0.04435119032859802 0.6594024300575256
0.6048833727836609 0.048541437834501266 0.6615831851959229
0.6031551957130432 0.05242443084716797 0.6633763313293457
0.5983026027679443 0.05820164084434509 0.6641457080841064
0.5878549218177795 0.06554332375526428 0.6615610122680664
0.5872832536697388 0.06650780886411667 0.6618878841400146
0.5908958911895752 0.07975637167692184 0.675919771194458
0.5883129239082336 0.07998913526535034 0.6739639639854431
0.5839257836341858 0.08210382610559464 0.6720728874206543
0.5887843370437622 0.08843214064836502 0.681382417678833
0.5856545567512512 0.09640805423259735 0.6854152679443359
0.5840222239494324 0.10021444410085678 0.6872245073318481
0.5432254672050476 0.11205350607633591 0.6631261110305786
0.5418187379837036 0.11237309873104095 0.6622214317321777
0.6073271632194519 0.04271294176578522 0.6579505801200867
0.605762779712677 0.046038560569286346 0.6594203114509583
0.6042008996009827 0.050209932029247284 0.6615979075431824
0.6026623249053955 0.0543195940554142 0.6637434959411621
0.5989571213722229 0.05812077224254608 0.663823664188385
0.5949251651763916 0.059849128127098083 0.6619013547897339
0.5944296717643738 0.06008177995681763 0.6616818904876709
0.5868220925331116 0.06836314499378204 0.6622443199157715
0.5929864048957825 0.07826060801744461 0.6756480932235718
0.5919581055641174 0.08013618737459183 0.676355242729187
0.589978039264679 0.0802503302693367 0.6747979521751404
0.5886712074279785 0.0803544819355011 0.6737943887710571
0.5848539471626282 0.08230836689472198 0.6722393035888672
0.5880239009857178 0.0904824435710907 0.6817061305046082
0.5867037773132324 0.09402842074632645 0.683563768863678
0.5848978757858276 0.09839215874671936 0.6856983304023743
0.5832749009132385 0.10217534750699997 0.687501072883606
0.5747591853141785 0.11205429583787918 0.6886387467384338
0.5579172968864441 0.10665576905012131 0.670078694820404
0.5535856485366821 0.10857943445444107 0.668069064617157
0.5497965812683105 0.11032195389270782 0.6663611531257629
0.5385279655456543 0.11405845731496811 0.6600753664970398
0.5279589295387268 0.13339956104755402 0.667395830154419
0.6066330671310425 0.04440852999687195 0.6579704880714417
0.6038974523544312 0.05149654671549797 0.6616127490997314
0.6033264994621277 0.05249695107340813 0.661972165107727
0.6019889116287231 0.055964212864637375 0.6637544631958008
0.6010034084320068 0.05811915919184685 0.6647330522537231
0.5965186357498169 0.059236254543066025 0.6619147658348083
0.5869051814079285 0.06842973828315735 0.6615633964538574
0.5921756029129028 0.0803537592291832 0.6759528517723083
0.5913404226303101 0.08020149171352386 0.675126314163208
0.5861408114433289 0.08214915543794632 0.6724050045013428
0.5879189968109131 0.09107933193445206 0.6813663840293884
0.5859400629997253 0.09602943062782288 0.6838528513908386
0.5841451287269592 0.10036613792181015 0.685979962348938
0.582531213760376 0.1041264459490776 0.6877762675285339
0.5726873874664307 0.11414134502410889 0.6879193186759949
0.5468610525131226 0.11214210093021393 0.6646332144737244
0.5339484810829163 0.1162271499633789 0.6572456955909729
0.5267986059188843 0.11307603865861893 0.648625373840332
0.5279623866081238 0.13407176733016968 0.6671696901321411
0.6059412360191345 0.0460992157459259 0.6579908132553101
0.6053448915481567 0.04800664633512497 0.6590909957885742
0.6026415824890137 0.04790142551064491 0.6567342281341553
0.6016032695770264 0.04738890379667282 0.6554326415061951
0.599636971950531 0.04744765907526016 0.6538318991661072
0.602073073387146 0.05600367859005928 0.6630563735961914
0.6018818020820618 0.05661773309111595 0.6634112596511841
0.6001098155975342 0.058613646775484085 0.6635991930961609
0.592502772808075 0.0618324801325798 0.6599165797233582
0.5920215845108032 0.06208918243646622 0.6597282290458679
0.5916427969932556 0.062468063086271286 0.6597282290458679
0.5897441506385803 0.06435781717300415 0.6597209572792053
0.5878902077674866 0.06629820168018341 0.6597934365272522
0.5900171995162964 0.0810079351067543 0.6739228963851929
0.5852739810943604 0.08418774604797363 0.6726109385490417
0.5888276696205139 0.08918031305074692 0.6797828078269958
0.5874547958374023 0.09201920032501221 0.6810131669044495
0.586003839969635 0.096102274954319 0.6832221150398254
0.5838953852653503 0.10147254914045334 0.6859593987464905
0.57362300157547 0.11430297791957855 0.6881061792373657
0.5538840889930725 0.11018511652946472 0.6680852770805359
0.5301262736320496 0.13418881595134735 0.6682916879653931
0.5295537114143372 0.13444919884204865 0.6680298447608948
0.6082120537757874 0.04084833711385727 0.6546650528907776
0.607804000377655 0.04214734956622124 0.6554149985313416
0.6060305237770081 0.04612961784005165 0.6572738289833069
0.6038365364074707 0.04854988679289818 0.6574640870094299
0.6026193499565125 0.04778432846069336 0.6557956337928772
0.6029171943664551 0.05443349853157997 0.6616419553756714
0.5981624722480774 0.059484172612428665 0.6618908643722534
0.5965971946716309 0.06006760895252228 0.6610647439956665
0.590286910533905 0.06413178145885468 0.6591744422912598
0.5884318351745605 0.06607302278280258 0.6592470407485962
0.5933462977409363 0.07783754914999008 0.6732833385467529
0.5931941866874695 0.0784262865781784 0.6736506223678589
0.5884236097335815 0.08228321373462677 0.6728817224502563
0.5861161947250366 0.08430860191583633 0.6726443767547607
0.5883700847625732 0.09013320505619049 0.6794430613517761
0.5868976712226868 0.09424220770597458 0.6816616654396057
0.5852433443069458 0.09809469431638718 0.6835116147994995
0.5834568738937378 0.10240782052278519 0.6856380105018616
0.5820406675338745 0.10631091892719269 0.6877307891845703
0.5816987156867981 0.10665274411439896 0.6877307891845703
0.5801186561584473 0.11033661663532257 0.6895011067390442
0.5394023656845093 0.11610788106918335 0.6600931286811829
0.6069044470787048 0.04449518397450447 0.6558122634887695
0.605522096157074 0.0480712428689003 0.6576637029647827
0.6028522253036499 0.04801717773079872 0.6553646326065063
0.6012836694717407 0.04769354313611984 0.6537678837776184
0.600898027420044 0.04807906970381737 0.6537678837776184
0.5995550155639648 0.04808247834444046 0.6526373028755188
0.5983262658119202 0.04825171083211899 0.6517431735992432
0.5979381203651428 0.04863991588354111 0.6517431735992432
0.6022416949272156 0.056083016097545624 0.661656379699707
0.5953109264373779 0.06095538288354874 0.6599194407463074
0.5922134518623352 0.08034534007310867 0.6736688017845154
0.5879195332527161 0.09178915619850159 0.6797026991844177
0.5875678062438965 0.09214093536138535 0.6797026991844177
0.5861315131187439 0.09624817222356796 0.6819567084312439
0.5844866633415222 0.10007699579000473 0.6837999224662781
0.5830544233322144 0.10401976853609085 0.6859183311462402
0.5741340517997742 0.11539497971534729 0.687990128993988
0.5300566554069519 0.13548488914966583 0.6677467226982117
0.5281575918197632 0.13617795705795288 0.6667290925979614
0.6079882979393005 0.042200833559036255 0.6539642810821533
0.6062101125717163 0.04619074985384941 0.6558359265327454
0.6019425392150879 0.05735252797603607 0.6616703271865845
0.5987101793289185 0.06005537137389183 0.6612222194671631
0.596528947353363 0.060717642307281494 0.6599366664886475
0.5941612124443054 0.062019988894462585 0.6590350866317749
0.5911673903465271 0.08218610286712646 0.673567533493042
0.5881527066230774 0.08418872207403183 0.672711193561554
0.5871860980987549 0.08682753890752792 0.674126386642456
0.5890337824821472 0.08938735723495483 0.6778562068939209
0.5856869220733643 0.09719612449407578 0.6816323399543762
0.581362247467041 0.10832350701093674 0.6873891949653625
0.5742729306221008 0.11615078896284103 0.6880136132240295
0.5699525475502014 0.11888863891363144 0.6866744756698608
0.5387452244758606 0.11832454055547714 0.6597871780395508
0.5278584361076355 0.13669177889823914 0.6661177277565002
0.6080806255340576 0.04222764074802399 0.6532365679740906
0.6058999300003052 0.04749972000718117 0.6558599472045898
0.6040944457054138 0.04864192381501198 0.6552971601486206
0.6025368571281433 0.0483226478099823 0.6537043452262878
0.601460874080658 0.05838123336434364 0.6613274812698364
0.6001949310302734 0.060174182057380676 0.6617745757102966
0.5928876399993896 0.06294506043195724 0.6579248905181885
0.5915213823318481 0.06381266564130783 0.6575016379356384
0.5911483764648438 0.0642000138759613 0.6575139164924622
0.5878713726997375 0.08607587218284607 0.673297643661499
0.5880894064903259 0.08773230016231537 0.6748883724212646
0.5885733366012573 0.09034126996994019 0.6775132417678833
0.5870108604431152 0.09437910467386246 0.6796137094497681
0.5854325890541077 0.09831858426332474 0.6816176772117615
0.5837952494621277 0.10212696343660355 0.6834601759910583
0.5823706984519958 0.10604701936244965 0.6855778694152832
0.5818753838539124 0.10689569264650345 0.6858777403831482
0.5806286334991455 0.11024585366249084 0.6876627802848816
0.5785529613494873 0.11409319192171097 0.6891663670539856
0.5742768049240112 0.11680218577384949 0.6878362894058228
0.5556919574737549 0.11235499382019043 0.6682903170585632
0.5447738170623779 0.11610511690378189 0.6622072458267212
0.531792938709259 0.1360454559326172 0.6681133508682251
0.5310261845588684 0.13620290160179138 0.6675962209701538
0.608789324760437 0.040295906364917755 0.6513650417327881
0.607177734375 0.044582612812519073 0.6536415815353394
0.6000241637229919 0.04937661439180374 0.651633620262146
0.5985661149024963 0.05014317110180855 0.6510451436042786
0.6023032665252686 0.05681925639510155 0.6599069833755493
0.598021924495697 0.06077185645699501 0.6596271991729736
0.5941054224967957 0.06269296258687973 0.6579290628433228
0.5941480994224548 0.08014009892940521 0.6728132367134094
0.5931161642074585 0.08201032131910324 0.6735267043113708
0.5902977585792542 0.08419539779424667 0.6729876399040222
0.588702380657196 0.08619275689125061 0.6733297109603882
0.5881223678588867 0.09200241416692734 0.6777803301811218
0.5877696871757507 0.0923551470041275 0.6777803301811218
0.5862888097763062 0.09643498808145523 0.679992139339447
0.5846734046936035 0.1003057211637497 0.6819114089012146
0.5798985362052917 0.1121586486697197 0.6879349946975708
0.569905161857605 0.12014833092689514 0.6862298250198364
0.539283037185669 0.1317797601222992 0.6700684428215027
0.5378705263137817 0.13325180113315582 0.670119047164917
0.5330281853675842 0.1362411379814148 0.6685420870780945
0.5288007855415344 0.1373913437128067 0.6659233570098877
0.6096855401992798 0.038617268204689026 0.6498616337776184
0.6082659959793091 0.04228174686431885 0.651777446269989
0.6064808368682861 0.04628314450383186 0.6536687016487122
0.6018198132514954 0.05785132944583893 0.6595633625984192
0.6016209125518799 0.05845542624592781 0.6599090695381165
0.589579701423645 0.08851321786642075 0.6752845048904419
0.585826575756073 0.09737054258584976 0.6796404719352722
0.5832964777946472 0.10433657467365265 0.6834259033203125
0.5816893577575684 0.10806762427091599 0.6852385401725769
0.5521855354309082 0.11502351611852646 0.6659961342811584
0.5491060614585876 0.11603260785341263 0.6642292141914368
0.534611701965332 0.1360677182674408 0.6689576506614685
0.532730758190155 0.1367468237876892 0.6679320931434631
0.527681827545166 0.13804568350315094 0.6647318005561829
0.6089771389961243 0.04034629091620445 0.6498950719833374
0.6077680587768555 0.043345313519239426 0.6514269709587097
0.6041486263275146 0.04936354607343674 0.6534796953201294
0.6019572019577026 0.05000569671392441 0.6521538496017456
0.6013508439064026 0.05009256303310394 0.6517094373703003
0.596413254737854 0.06204792112112045 0.6577150225639343
0.5947191119194031 0.0822165384888649 0.673525333404541
0.5924538969993591 0.08423159271478653 0.6733112335205078
0.5907139778137207 0.08606799691915512 0.6733938455581665
0.5901741981506348 0.08839709311723709 0.6749250888824463
0.5892607569694519 0.09032346308231354 0.6757919192314148
0.5872158408164978 0.09460378438234329 0.677704930305481
0.585590124130249 0.09851358830928802 0.6796595454216003
0.5843266248703003 0.10201399028301239 0.6815740466117859
0.5839798450469971 0.10236082971096039 0.6815740466117859
0.5825499892234802 0.10628940910100937 0.6837124228477478
0.5808017253875732 0.11049746721982956 0.6858175992965698
0.5800122022628784 0.11232917010784149 0.6867094039916992
0.5792281627655029 0.1141485869884491 0.6875954270362854
0.5785549879074097 0.11603830009698868 0.6886363625526428
0.5703176856040955 0.12114841490983963 0.6859604120254517
0.5517494678497314 0.11603277176618576 0.6656918525695801
0.5455608367919922 0.11808310449123383 0.6621503829956055
0.5421857237815857 0.12380431592464447 0.6641581654548645
0.5422487258911133 0.13024485111236572 0.6697238087654114
0.537757158279419 0.13506944477558136 0.6700087785720825
0.5297583341598511 0.13809767365455627 0.6657551527023315
0.5269680619239807 0.13835419714450836 0.6635867357254028
0.6076556444168091 0.04402186721563339 0.651075541973114
0.6060583591461182 0.048266369849443436 0.6533474922180176
0.6029170155525208 0.05031798779964447 0.6524122953414917
0.6023135781288147 0.05040515214204788 0.6519689559936523
0.5994988083839417 0.052044473588466644 0.6509604454040527
0.6013267636299133 0.06051680073142052 0.6597998738288879
0.5978379249572754 0.06206543371081352 0.658134937286377
0.5911237597465515 0.08792556822299957 0.6745655536651611
0.590452253818512 0.09009847790002823 0.6758541464805603
0.5864194631576538 0.09659717977046967 0.6779703497886658
0.585005521774292 0.10000190883874893 0.6796787977218628
0.58195960521698 0.10772766917943954 0.6836949586868286
0.5818072557449341 0.10823234915733337 0.6839972138404846
0.5568428039550781 0.11467047035694122 0.6680984497070312
0.5530165433883667 0.11634764075279236 0.6662539839744568
0.5374600291252136 0.13612329959869385 0.6698747873306274
0.531011700630188 0.13829156756401062 0.666201651096344
0.5302388072013855 0.1384512484073639 0.6656754612922668
0.6085361838340759 0.0423496812582016 0.6495579481124878
0.607944130897522 0.043388478457927704 0.6499423980712891
0.6067442893981934 0.04636339470744133 0.6514701247215271
0.6048539876937866 0.05015930160880089 0.6531098484992981
0.6004061102867126 0.05227253958582878 0.6511009335517883
0.599080502986908 0.054091375321149826 0.6515252590179443
0.6018874049186707 0.05860015004873276 0.6578211188316345
0.5987207293510437 0.06226207688450813 0.658247172832489
0.5981066823005676 0.06234366446733475 0.6577890515327454
0.5955315828323364 0.08379945158958435 0.674037516117096
0.5945926904678345 0.08426744490861893 0.6736321449279785
0.5923569202423096 0.08630023896694183 0.6734575033187866
0.5906637907028198 0.09101659059524536 0.6760593056678772
0.5880943536758423 0.0940844714641571 0.6764882802963257
0.5858818292617798 0.09746679663658142 0.6774949431419373
0.5857546925544739 0.0980251207947731 0.6778659224510193
0.583634614944458 0.10406285524368286 0.6812373995780945
0.5802760124206543 0.11200393736362457 0.6851810216903687
0.5799774527549744 0.11299549788236618 0.6857774257659912
0.5787518620491028 0.11628186702728271 0.6875508427619934
0.5552316904067993 0.11608677357435226 0.6671419143676758
0.5435810685157776 0.12184756994247437 0.6620733141899109
0.5383967757225037 0.13617278635501862 0.6699396967887878
0.5341489315032959 0.13780315220355988 0.6676872968673706
0.532622218132019 0.1381191909313202 0.6666454076766968
0.5282281041145325 0.13920845091342926 0.6638012528419495
