ply
format ascii 1.0
element vertex 810
property float x
property float y
property float z
end_header
0.49469906091690063 -0.07556198537349701 0.6614302396774292
0.49527642130851746 -0.0713539868593216 0.6638076901435852
0.4936619997024536 -0.06993874162435532 0.6637087464332581
0.490710586309433 -0.0678940862417221 0.6632583141326904
0.4868190586566925 -0.06583742797374725 0.6623467206954956
0.48131853342056274 -0.06788066029548645 0.6585990190505981
0.47972002625465393 -0.06750588864088058 0.6579909920692444
0.47779786586761475 -0.0663737878203392 0.6575983166694641
0.47751861810684204 -0.0655757263302803 0.6578563451766968
0.47582826018333435 -0.06194912642240524 0.6588180065155029
0.47391632199287415 -0.06190509349107742 0.657890260219574
0.4692728817462921 -0.06158178672194481 0.6557439565658569
0.4616084694862366 -0.06558803468942642 0.6499459743499756
0.5124561190605164 -0.095191091299057 0.6596108078956604
0.5069407224655151 -0.09303975850343704 0.657934308052063
0.5064200162887573 -0.09128115326166153 0.6585511565208435
0.5059031844139099 -0.09076417237520218 0.6585511565208435
0.5044007897377014 -0.07946550846099854 0.6634330153465271
0.5022425651550293 -0.07759758085012436 0.6632882952690125
0.49384742975234985 -0.07439882308244705 0.6606988310813904
0.487832635641098 -0.06580696254968643 0.6619831323623657
0.48563525080680847 -0.06506658345460892 0.6612569689750671
0.48092779517173767 -0.06726904958486557 0.6578136682510376
0.4770272672176361 -0.06395521014928818 0.6575210690498352
0.47602853178977966 -0.061764441430568695 0.6581152677536011
0.4753788113594055 -0.06139644980430603 0.657974898815155
0.4601603150367737 -0.06385111063718796 0.6491679549217224
0.5126134753227234 -0.09892309457063675 0.6569327116012573
0.5126368999481201 -0.09761018306016922 0.6576003432273865
0.5116369724273682 -0.09399496763944626 0.6589077115058899
0.5080950856208801 -0.09278695285320282 0.6577411890029907
0.5064774751663208 -0.09132665395736694 0.6576624512672424
0.5059600472450256 -0.09080912917852402 0.6576624512672424
0.508658766746521 -0.0858166441321373 0.661507248878479
0.5016925930976868 -0.07724176347255707 0.6623109579086304
0.5004081130027771 -0.07775057852268219 0.6614147424697876
0.49379676580429077 -0.07338353246450424 0.6602929830551147
0.49477654695510864 -0.07099351286888123 0.6619771718978882
0.49423182010650635 -0.0693805143237114 0.6625112891197205
0.49067792296409607 -0.06693903356790543 0.6619552969932556
0.4893548786640167 -0.0662870928645134 0.6616197228431702
0.48884448409080505 -0.06577669084072113 0.6616197228431702
0.4821314513683319 -0.06703423708677292 0.6576357483863831
0.4792173206806183 -0.06594862043857574 0.6567215919494629
0.4760648012161255 -0.06176680698990822 0.6572362780570984
0.471525639295578 -0.06025010719895363 0.6557252407073975
0.4699590802192688 -0.05978868901729584 0.6551730036735535
0.4621226191520691 -0.06508664041757584 0.6486077904701233
0.5091943144798279 -0.10803031176328659 0.6497531533241272
0.5126310586929321 -0.10162296891212463 0.6546887755393982
0.5123440623283386 -0.09946717321872711 0.6556257605552673
0.512472927570343 -0.09545071423053741 0.6577040553092957
0.5119566321372986 -0.09493441134691238 0.6577040553092957
0.5105198621749878 -0.09322445839643478 0.657841145992279
0.5057637095451355 -0.08996778726577759 0.6570892930030823
0.5078105926513672 -0.08345987647771835 0.6613786220550537
0.5065411925315857 -0.0815756693482399 0.6616867184638977
0.5057173371315002 -0.0802934393286705 0.6619167327880859
0.5052084922790527 -0.0797845795750618 0.6619167327880859
0.4998530447483063 -0.07739339768886566 0.6604306101799011
0.49864932894706726 -0.07778432220220566 0.6596307158470154
0.4975343942642212 -0.07687381654977798 0.6595284342765808
0.4964696168899536 -0.07589685916900635 0.6594844460487366
0.4959340989589691 -0.07541189342737198 0.6594589948654175
0.4943499267101288 -0.07392817735671997 0.6594085693359375
0.4937971532344818 -0.07346463203430176 0.6593639254570007
0.49363788962364197 -0.07135036587715149 0.6603442430496216
0.49444159865379333 -0.06919556856155396 0.6618275046348572
0.493913859128952 -0.06870954483747482 0.6618066430091858
0.4927065968513489 -0.06792502105236053 0.6615946888923645
0.4859409034252167 -0.06369969993829727 0.660321056842804
0.4788191616535187 -0.06533997505903244 0.6559276580810547
0.4779846668243408 -0.06518572568893433 0.655586838722229
0.477159321308136 -0.06389806419610977 0.6558186411857605
0.4749157428741455 -0.05979451537132263 0.6567510366439819
0.47395893931388855 -0.059769000858068466 0.6562842130661011
0.47299879789352417 -0.05974368005990982 0.6558154225349426
0.4710693359375 -0.05969221517443657 0.6548739671707153
0.4683362543582916 -0.05941227450966835 0.653643786907196
0.4672167897224426 -0.05954105779528618 0.6530182361602783
0.46179527044296265 -0.06435766071081161 0.6478849053382874
0.4612613618373871 -0.0638238862156868 0.6478849053382874
0.4589143693447113 -0.061916518956422806 0.6476642489433289
0.5093827843666077 -0.10790685564279556 0.6489900350570679
0.5088818073272705 -0.09193411469459534 0.6567710638046265
0.5065997838973999 -0.09140819311141968 0.6558879017829895
0.5040605068206787 -0.0778556615114212 0.661426842212677
0.5036172270774841 -0.07725965976715088 0.6615035533905029
0.49064522981643677 -0.0659831166267395 0.6606510281562805
0.4874677360057831 -0.06418219953775406 0.6599583625793457
0.4867856800556183 -0.06387422233819962 0.6597704887390137
0.48556679487228394 -0.06308228522539139 0.6595555543899536
0.4813521206378937 -0.0658087506890297 0.6560648679733276
0.48055315017700195 -0.06561923027038574 0.6557585000991821
0.4761485755443573 -0.06175826117396355 0.6554849743843079
0.4758988916873932 -0.06093306466937065 0.6557742953300476
0.4744652211666107 -0.05923944711685181 0.6559051871299744
0.4700552523136139 -0.058650512248277664 0.653983473777771
0.45789071917533875 -0.06082127243280411 0.6467738747596741
0.5120380520820618 -0.09892811626195908 0.6539375185966492
0.5122725963592529 -0.09730305522680283 0.6548753976821899
0.5122988820075989 -0.09598968178033829 0.655551552772522
0.5117807984352112 -0.09547150880098343 0.655551552772522
0.510031521320343 -0.09168294817209244 0.6565801501274109
0.5085159540176392 -0.09133299440145493 0.6559920907020569
0.5058693885803223 -0.09006738662719727 0.6552953720092773
0.5056241750717163 -0.08916948735713959 0.6556246280670166
0.5083267688751221 -0.08419797569513321 0.6594961285591125
0.5080933570861816 -0.08330404758453369 0.6598291397094727
0.5075826048851013 -0.08279339969158173 0.6598291397094727
0.5023890733718872 -0.075439453125 0.6609191298484802
0.5013207197189331 -0.07566369324922562 0.6602671146392822
0.5000336170196533 -0.07616815716028214 0.6593632698059082
0.49952206015586853 -0.0756566971540451 0.6593632698059082
0.4929800033569336 -0.07117622345685959 0.6583230495452881
0.49393925070762634 -0.06882958859205246 0.6599907279014587
0.4903188645839691 -0.06531615555286407 0.6599370241165161
0.4898082911968231 -0.06480570137500763 0.6599370241165161
0.46678873896598816 -0.05787190794944763 0.6518220901489258
0.4600164294242859 -0.06188885495066643 0.6463795304298401
0.5083231329917908 -0.1058349460363388 0.6476574540138245
0.5117663145065308 -0.09947434067726135 0.6526180505752563
0.5120022892951965 -0.09784375131130219 0.6535625457763672
0.5116186738014221 -0.09331482648849487 0.6556601524353027
0.5061078071594238 -0.08985898643732071 0.6546201705932617
0.506962776184082 -0.08133798092603683 0.6593645215034485
0.5062028169631958 -0.07996392250061035 0.659675121307373
0.5056930184364319 -0.07945401966571808 0.659675121307373
0.504424512386322 -0.07757625728845596 0.6599834561347961
0.5007678270339966 -0.07530422508716583 0.6592829823493958
0.49777495861053467 -0.0756593644618988 0.6575888395309448
0.4956083595752716 -0.07374848425388336 0.6574593186378479
0.49348652362823486 -0.07177729904651642 0.657383382320404
0.494114488363266 -0.06754304468631744 0.6598434448242188
0.49356281757354736 -0.06708575785160065 0.6597957015037537
0.4888130724430084 -0.06381648033857346 0.6590467691421509
0.48480796813964844 -0.061855498701334 0.658012330532074
0.4792492389678955 -0.06387030333280563 0.6541799306869507
0.47843584418296814 -0.06369030475616455 0.653859555721283
0.4776000380516052 -0.06353398412466049 0.6535159349441528
0.4762793779373169 -0.061697039753198624 0.6537771224975586
0.47259968519210815 -0.058097559958696365 0.6537364721298218
0.47207948565483093 -0.0575772225856781 0.6537364721298218
0.47111374139785767 -0.05754820257425308 0.6532623767852783
0.469038188457489 -0.05763731151819229 0.6521672010421753
0.4608612060546875 -0.06211354210972786 0.6457645297050476
0.4602739214897156 -0.06163601577281952 0.6457087993621826
0.45968639850616455 -0.06115862354636192 0.6456531882286072
0.5119668841362 -0.09676097333431244 0.6531882286071777
0.5115669965744019 -0.09479404240846634 0.6539838314056396
0.5112708806991577 -0.09143488109111786 0.6555381417274475
0.505739152431488 -0.08925449848175049 0.653837263584137
0.5052310824394226 -0.08748532086610794 0.6544774770736694
0.5036532878875732 -0.07632990181446075 0.6593384146690369
0.5032098293304443 -0.07573354989290237 0.6594160795211792
0.5009904503822327 -0.07393337786197662 0.6592034101486206
0.4984530508518219 -0.07487449049949646 0.6574376225471497
0.49273425340652466 -0.06590281426906586 0.6590887904167175
0.4865899682044983 -0.06204208359122276 0.6579296588897705
0.4859066307544708 -0.061732664704322815 0.6577398777008057
0.48124295473098755 -0.06384744495153427 0.6542996764183044
0.47578808665275574 -0.060076840221881866 0.6534448266029358
0.4752683937549591 -0.05955701693892479 0.6534448266029358
0.47477421164512634 -0.05790727213025093 0.6540313363075256
0.47406888008117676 -0.05759653449058533 0.6538310647010803
0.4696432650089264 -0.057005029171705246 0.6518850922584534
0.5077268481254578 -0.10439012944698334 0.6462392807006836
0.5116950869560242 -0.09730122983455658 0.6518685817718506
0.5114415287971497 -0.09384728223085403 0.6534978747367859
0.508936882019043 -0.08987894654273987 0.6542431116104126
0.5081773400306702 -0.08970200270414352 0.6539464592933655
0.5076593160629272 -0.08918408304452896 0.6539464592933655
0.5052874088287354 -0.08752657473087311 0.653582751750946
0.5074824094772339 -0.08206434547901154 0.6574811935424805
0.5072447061538696 -0.08117891848087311 0.6578106880187988
0.5020419955253601 -0.07383005321025848 0.6589033007621765
0.4966094493865967 -0.0738125741481781 0.6561465859413147
0.4944821000099182 -0.0718463584780693 0.6560646295547485
0.49287813901901245 -0.07038034498691559 0.6559942364692688
0.4926759600639343 -0.06947875022888184 0.6563505530357361
0.4906896650791168 -0.06393472105264664 0.6581616401672363
0.4894477427005768 -0.06317902356386185 0.6579142808914185
0.48692312836647034 -0.06170517951250076 0.6573792695999146
0.4808601438999176 -0.06322334706783295 0.6535195708274841
0.47019943594932556 -0.05642610415816307 0.6515526175498962
0.4686115086078644 -0.05597348511219025 0.6509748101234436
0.45553550124168396 -0.05897437781095505 0.6427900195121765
0.5079815983772278 -0.10416684299707413 0.6455570459365845
0.5111384987831116 -0.09569574892520905 0.6514948010444641
0.511279821395874 -0.09169217944145203 0.653611421585083
0.5100873708724976 -0.0896303802728653 0.6540552973747253
0.506624162197113 -0.07972250878810883 0.6573463678359985
0.5057332515716553 -0.07852456718683243 0.6575032472610474
0.5053534507751465 -0.0778384804725647 0.657659649848938
0.5035735964775085 -0.07545142620801926 0.6579696536064148
0.4998829662799835 -0.07320848852396011 0.6572303771972656
0.4974129796028137 -0.07404374331235886 0.6555423736572266
0.49689874053001404 -0.07352974265813828 0.6555423736572266
0.4957961440086365 -0.07259617000818253 0.6554561853408813
0.49472305178642273 -0.07162374258041382 0.655404806137085
0.49257346987724304 -0.06968124955892563 0.6552988886833191
0.49303296208381653 -0.06796176731586456 0.6564115881919861
0.49327680468559265 -0.06537727266550064 0.6578559875488281
0.4914896488189697 -0.06415979564189911 0.6575651168823242
0.4909791648387909 -0.06364920735359192 0.6575651168823242
0.4846765697002411 -0.05994206666946411 0.6562395095825195
0.4839150607585907 -0.05971880257129669 0.6559646725654602
0.4783519208431244 -0.061692655086517334 0.6521159410476685
0.47753089666366577 -0.06151643395423889 0.651786744594574
0.47591814398765564 -0.0600123330950737 0.6517312526702881
0.4753972291946411 -0.059491679072380066 0.6517312526702881
0.473604291677475 -0.05599057301878929 0.6526035070419312
0.471679151058197 -0.05592718720436096 0.6516527533531189
0.46698102355003357 -0.05558311194181442 0.649429202079773
0.46585527062416077 -0.055704984813928604 0.6487922668457031
0.46045994758605957 -0.06039958447217941 0.6436399221420288
0.45992517471313477 -0.05986480787396431 0.6436399221420288
0.45757198333740234 -0.05795038864016533 0.6434157490730286
0.5081621408462524 -0.10405240207910538 0.6447803378105164
0.507683277130127 -0.1034432202577591 0.6448470950126648
0.5112270712852478 -0.09316640347242355 0.6519259810447693
0.510418176651001 -0.0892927497625351 0.6534957885742188
0.506924569606781 -0.08797512948513031 0.6523812413215637
0.50539630651474 -0.0876157283782959 0.6517824530601501
0.5043755173683167 -0.0853222981095314 0.6524342894554138
0.504200279712677 -0.07590741664171219 0.6571670174598694
0.5024240016937256 -0.07352042198181152 0.6574797034263611
0.5019141435623169 -0.07301068305969238 0.6574797034263611
0.49809181690216064 -0.07326065748929977 0.6553937792778015
0.4917536675930023 -0.06846699863672256 0.6546027660369873
0.488781601190567 -0.06185260787606239 0.6564683318138123
0.4862229824066162 -0.060410112142562866 0.6558966636657715
0.48553892970085144 -0.06009921804070473 0.6557056903839111
0.48502597212791443 -0.05958651006221771 0.6557056903839111
0.4800834059715271 -0.0619828924536705 0.6519466042518616
0.4792814552783966 -0.06178894266486168 0.6516349911689758
0.47490647435188293 -0.05787165090441704 0.6514003872871399
0.47388532757759094 -0.055713336914777756 0.6519829034805298
0.4687073230743408 -0.05483262240886688 0.6497818231582642
0.5108294486999512 -0.09514886885881424 0.649795413017273
0.5105819702148438 -0.0917002335190773 0.6514400243759155
0.5088402628898621 -0.08790747821331024 0.652493953704834
0.5073192119598389 -0.0875493586063385 0.6518964767456055
0.5044311881065369 -0.08536147326231003 0.6515368223190308
0.5071485638618469 -0.08043886721134186 0.6554619073867798
0.5069058537483215 -0.07956115156412125 0.6557883024215698
0.5011842846870422 -0.07170766592025757 0.6568834781646729
0.4982569217681885 -0.0719669759273529 0.655246376991272
0.4925222396850586 -0.06874191015958786 0.653957188129425
0.4918569326400757 -0.06726440787315369 0.6543742418289185
0.49266669154167175 -0.06399351358413696 0.6564704775810242
0.48908644914627075 -0.0615488663315773 0.6558870673179626
0.47604864835739136 -0.05994773656129837 0.6500114798545837
0.4707660675048828 -0.05480271577835083 0.6499409675598145
0.4586760103702545 -0.05792156234383583 0.6421270966529846
0.5071074366569519 -0.10196305811405182 0.643452525138855
0.5104225873947144 -0.08954799175262451 0.6515588760375977
0.5084741711616516 -0.08730322867631912 0.6517115235328674
0.5057734251022339 -0.07759246230125427 0.6553239822387695
0.5045023560523987 -0.07570871710777283 0.6556398272514343
0.5036755204200745 -0.07442986220121384 0.6558727622032166
0.503231406211853 -0.07383263856172562 0.6559513807296753
0.49773725867271423 -0.07154873758554459 0.6542972922325134
0.49653518199920654 -0.07191038131713867 0.6534913778305054
0.49596941471099854 -0.07146035879850388 0.65343177318573
0.49439552426338196 -0.06995348632335663 0.6533973217010498
0.49226120114326477 -0.06798675656318665 0.6533107757568359
0.4917021691799164 -0.06752625107765198 0.6532602906227112
0.4921644330024719 -0.06581403315067291 0.6543805599212646
0.4929487109184265 -0.06371793150901794 0.6558650732040405
0.49183663725852966 -0.06280731409788132 0.6557612419128418
0.4900023937225342 -0.06163710355758667 0.655419111251831
0.4868895709514618 -0.05973566323518753 0.6547946333885193
0.4835343062877655 -0.058091554790735245 0.6539129018783569
0.47714537382125854 -0.059859130531549454 0.6497097611427307
0.4757843315601349 -0.059176135808229446 0.6493600606918335
0.47503527998924255 -0.057803038507699966 0.6496819257736206
0.47075608372688293 -0.0537518635392189 0.6495643854141235
0.4697860777378082 -0.053716644644737244 0.6490825414657593
0.4676852822303772 -0.05380868539214134 0.6479524374008179
0.46490922570228577 -0.0535171777009964 0.6466723084449768
0.4595224857330322 -0.05814666301012039 0.6415106058120728
0.45893368124961853 -0.05766758322715759 0.6414541006088257
0.45663079619407654 -0.05569309741258621 0.6412848234176636
0.453691691160202 -0.05765272676944733 0.6387601494789124
0.5107598304748535 -0.09298256039619446 0.6490506529808044
0.5103665590286255 -0.0910157635807991 0.6498640179634094
0.5100807547569275 -0.08766324818134308 0.6514493823051453
0.506064236164093 -0.085817851126194 0.6503269076347351
0.5045329332351685 -0.0854535773396492 0.6497235894203186
0.5040373802185059 -0.08367399871349335 0.6503873467445374
0.5035184621810913 -0.0831550732254982 0.6503873467445374
0.5020144581794739 -0.07198615372180939 0.6553832292556763
0.5015704035758972 -0.07138990610837936 0.655461847782135
0.4853422939777374 -0.058261752128601074 0.6538593769073486
0.4846564829349518 -0.05794922634959221 0.6536664962768555
0.4839159846305847 -0.05769879370927811 0.6534131169319153
0.4791870415210724 -0.059804100543260574 0.6498806476593018
0.47402337193489075 -0.05566214770078659 0.649352490901947
0.4737509489059448 -0.05486702546477318 0.6496226787567139
0.4727526903152466 -0.05377999320626259 0.6496687531471252
0.46829313039779663 -0.05317877233028412 0.6476742625236511
0.5104847550392151 -0.09351464360952377 0.647718071937561
0.5099619626998901 -0.09299199283123016 0.647718071937561
0.5102067589759827 -0.0888625979423523 0.6499858498573303
0.5069786906242371 -0.08591105043888092 0.6498425006866455
0.504092812538147 -0.08371146768331528 0.649486780166626
0.5035732984542847 -0.0831918716430664 0.649486780166626
0.5063014030456543 -0.07829733192920685 0.6534389853477478
0.5060542225837708 -0.07742788642644882 0.653761625289917
0.505673348903656 -0.07674021273851395 0.653920590877533
0.5003250241279602 -0.06958091259002686 0.6548595428466797
0.4991767108440399 -0.06988444924354553 0.6541064977645874
0.4932659864425659 -0.06804440915584564 0.6519962549209595
0.4927508533000946 -0.06752914935350418 0.6519962549209595
0.4916505813598633 -0.06658440828323364 0.6519157886505127
0.4915512204170227 -0.06556085497140884 0.652394711971283
0.4888353645801544 -0.05978381633758545 0.6539820432662964
0.48755592107772827 -0.05906138941645622 0.6536931395530701
0.4751642942428589 -0.05773429572582245 0.6479566097259521
0.45773571729660034 -0.055663615465164185 0.6399939656257629
0.4538545608520508 -0.055310700088739395 0.638164758682251
0.5067639946937561 -0.10028759390115738 0.6413437724113464
0.5102080702781677 -0.09404903650283813 0.6463789939880371
0.5099275708198547 -0.09190843999385834 0.6473463773727417
0.5100817680358887 -0.08791788667440414 0.6495017409324646
0.5095633268356323 -0.08739932626485825 0.6495017409324646
0.5088953971862793 -0.08584825694561005 0.6499611139297485
0.5054329037666321 -0.0759698823094368 0.6532975435256958
0.5037782192230225 -0.0734056681394577 0.6537706851959229
0.502377450466156 -0.07169981300830841 0.6539291739463806
0.4986191391944885 -0.06951558589935303 0.6531108617782593
0.4973751902580261 -0.06992977112531662 0.6522485017776489
0.49617108702659607 -0.07028726488351822 0.6514363884925842
0.49565574526786804 -0.0697721615433693 0.6514363884925842
0.49134477972984314 -0.0658823624253273 0.6512174010276794
0.49127575755119324 -0.06368473172187805 0.6523241400718689
0.4920884668827057 -0.061568792909383774 0.6538470983505249
0.4914819300174713 -0.061172522604465485 0.6537379622459412
0.4866936206817627 -0.057899679988622665 0.6529496908187866
0.48263782262802124 -0.05594639107584953 0.6518561244010925
0.4775937795639038 -0.058365944772958755 0.647974967956543
0.47707247734069824 -0.057844869792461395 0.647974967956543
0.4741504192352295 -0.05558953806757927 0.6476280689239502
0.4738733172416687 -0.0547979399561882 0.6478956937789917
0.4713217616081238 -0.052131880074739456 0.6479551792144775
0.46786561608314514 -0.05151275917887688 0.6464800238609314
0.46674424409866333 -0.051625464111566544 0.6458380818367004
0.4656195342540741 -0.05173689126968384 0.6451951265335083
0.45911896228790283 -0.05642487853765488 0.6393767595291138
0.4585830569267273 -0.05588884651660919 0.6393767595291138
0.45622363686561584 -0.053967732936143875 0.639149010181427
0.4556873142719269 -0.05343130603432655 0.639149010181427
0.5064643621444702 -0.09956100583076477 0.6406305432319641
0.5059316158294678 -0.09902829676866531 0.6406305432319641
0.5100246667861938 -0.08938094228506088 0.6477976441383362
0.5099905729293823 -0.08817525953054428 0.648408830165863
0.5049558281898499 -0.08399172872304916 0.6479650735855103
0.5036672949790955 -0.08328695595264435 0.6476603746414185
0.5031789541244507 -0.08150296658277512 0.6483362317085266
0.5016700625419617 -0.0703624039888382 0.6533604860305786
0.5012258887290955 -0.06976597756147385 0.6534397006034851
0.49685320258140564 -0.06950797885656357 0.6512934565544128
0.4900425374507904 -0.059586044400930405 0.6529162526130676
0.4849732518196106 -0.05662240460515022 0.6518178582191467
0.4788093864917755 -0.05814092978835106 0.6478105187416077
0.4780043959617615 -0.057942576706409454 0.6474941968917847
0.4736595153808594 -0.053969789296388626 0.6473000645637512
0.4726226329803467 -0.05183248594403267 0.6478741765022278
0.47183215618133545 -0.05160500854253769 0.6475804448127747
0.4698945879936218 -0.0515274815261364 0.6466101408004761
0.5067194104194641 -0.09933588653802872 0.6399446129798889
0.5056315660476685 -0.09830120205879211 0.6399165987968445
0.5096160173416138 -0.09135378152132034 0.6456364393234253
0.5098592638969421 -0.08974621444940567 0.6466047763824463
0.5093788504600525 -0.08791282027959824 0.6473124623298645
0.5068817734718323 -0.08393363654613495 0.6480881571769714
0.506117582321167 -0.08374996483325958 0.6477842330932617
0.5032334923744202 -0.08153805136680603 0.6474326252937317
0.5059656500816345 -0.07666483521461487 0.6514115333557129
0.5057137608528137 -0.0758029893040657 0.6517307758331299
0.504439651966095 -0.07391658425331116 0.6520512104034424
0.4999747574329376 -0.06796056032180786 0.6528311371803284
0.49452173709869385 -0.06786727160215378 0.6500271558761597
0.49293631315231323 -0.06636789441108704 0.6499820947647095
0.49239814281463623 -0.06587981432676315 0.6499559879302979
0.49185293912887573 -0.06540030241012573 0.6499215364456177
0.4907301366329193 -0.06333979219198227 0.6504120230674744
0.4884728491306305 -0.05814744904637337 0.6519476771354675
0.4878491163253784 -0.05776597931981087 0.6518208980560303
0.4846211373806 -0.05597037449479103 0.6510714292526245
0.47480058670043945 -0.056039318442344666 0.6458975672721863
0.47427794337272644 -0.05551669001579285 0.6458975672721863
0.4694356918334961 -0.0509600006043911 0.6457479596138
0.4585095942020416 -0.05489877238869667 0.6379706263542175
0.4579198360443115 -0.054418280720710754 0.6379134058952332
0.5092214941978455 -0.08576534688472748 0.6474409103393555
0.5080386996269226 -0.08369220048189163 0.647908091545105
0.5045791864395142 -0.0738316997885704 0.6512670516967773
0.503818929195404 -0.0724601075053215 0.6515877842903137
0.5033068060874939 -0.07194812595844269 0.6515877842903137
0.5015884041786194 -0.06947685033082962 0.6519829630851746
0.5001884698867798 -0.06777285784482956 0.6521424651145935
0.4995379149913788 -0.0674390196800232 0.6519761681556702
0.49772828817367554 -0.06740636378526688 0.6510437726974487
0.495290070772171 -0.06814497709274292 0.649376392364502
0.49474912881851196 -0.06766097992658615 0.6493468284606934
0.49047017097473145 -0.0637189969420433 0.6491698622703552
0.4917337894439697 -0.05993182584643364 0.6518203616142273
0.48876744508743286 -0.05785577371716499 0.6513534188270569
0.48225483298301697 -0.05431137606501579 0.649795413017273
0.4766903221607208 -0.056177202612161636 0.6458963751792908
0.47378602623939514 -0.053894028067588806 0.6455704569816589
0.4709194302558899 -0.05047282576560974 0.6458614468574524
0.46942684054374695 -0.04990953207015991 0.6453738212585449
0.46744972467422485 -0.049853116273880005 0.6443656086921692
0.46632620692253113 -0.04996243491768837 0.6437187194824219
0.46467307209968567 -0.04954402521252632 0.6430708765983582
0.4635379910469055 -0.0496540367603302 0.6424173712730408
0.5060547590255737 -0.09797370433807373 0.6384328007698059
0.5055862665176392 -0.09734749794006348 0.6385157108306885
0.5093030333518982 -0.09079711139202118 0.6439201235771179
0.5095479488372803 -0.08918832242488861 0.6448957920074463
0.5091613531112671 -0.08722162246704102 0.6457275152206421
0.5040908455848694 -0.08182357251644135 0.6458998322486877
0.5033215284347534 -0.08163706958293915 0.6455932855606079
0.5028389692306519 -0.079847551882267 0.646280825138092
0.5022150278091431 -0.0699295625090599 0.6511729955673218
0.5003695487976074 -0.06762729585170746 0.65141361951828
0.49108606576919556 -0.06077146902680397 0.6501356959342957
0.48666027188301086 -0.055923864245414734 0.6503576636314392
0.4852897822856903 -0.05529468506574631 0.6499675512313843
0.4826379418373108 -0.053918614983558655 0.6492960453033447
0.47790977358818054 -0.05595369264483452 0.6457359790802002
0.4727732241153717 -0.051752276718616486 0.6452438831329346
0.4714306890964508 -0.049946531653404236 0.6454874873161316
0.4584364891052246 -0.053907446563243866 0.6365630626678467
0.4561280608177185 -0.05192688852548599 0.6363903284072876
0.45398297905921936 -0.05194544792175293 0.635251522064209
0.5058416128158569 -0.0971212238073349 0.6378289461135864
0.5092688202857971 -0.08971194922924042 0.6435497999191284
0.5090035796165466 -0.08507345616817474 0.645858883857727
0.5057751536369324 -0.08210470527410507 0.6457216739654541
0.5028931498527527 -0.07988104224205017 0.6453741788864136
0.5051156282424927 -0.07451511919498444 0.6493805050849915
0.5048589110374451 -0.07366149872541428 0.6496957540512085
0.49911248683929443 -0.06582538783550262 0.6507988572120667
0.49791017174720764 -0.0661807581782341 0.6499766707420349
0.4946856200695038 -0.06673446297645569 0.6479816436767578
0.49365150928497314 -0.06570450961589813 0.6479795575141907
0.49152857065200806 -0.06371072679758072 0.6479113698005676
0.4904227554798126 -0.061630163341760635 0.6484261155128479
0.4875967800617218 -0.055994950234889984 0.6499091386795044
0.481739342212677 -0.05278099328279495 0.6485135555267334
0.47830110788345337 -0.05555300414562225 0.6452347040176392
0.4745055139064789 -0.05426478385925293 0.6439110636711121
0.4739130139350891 -0.05381783843040466 0.6438339352607727
0.4685068726539612 -0.04877040907740593 0.6436446905136108
0.464769572019577 -0.048395078629255295 0.6418696641921997
0.45810455083847046 -0.05317061021924019 0.6358296871185303
0.45751383900642395 -0.052689291536808014 0.6357719898223877
0.45638617873191833 -0.05167049542069435 0.6357144713401794
0.5083592534065247 -0.08360851556062698 0.64537513256073
0.5076985359191895 -0.08205056190490723 0.6458501815795898
0.5069356560707092 -0.0818651020526886 0.645544707775116
0.5037238001823425 -0.07168903946876526 0.6492325663566589
0.5025794506072998 -0.06964023411273956 0.649711549282074
0.5016219019889832 -0.06853023171424866 0.649791955947876
0.5011764764785767 -0.06793291866779327 0.6498725414276123
0.4986498951911926 -0.06533163040876389 0.6499121785163879
0.4973492920398712 -0.06580574810504913 0.6489723324775696
0.49440714716911316 -0.0659983828663826 0.6473121643066406
0.49005669355392456 -0.059867341071367264 0.6482552886009216
0.49086663126945496 -0.05777941271662712 0.6497897505760193
0.4896499514579773 -0.05698242783546448 0.6495675444602966
0.48475849628448486 -0.053789813071489334 0.6486680507659912
0.48135504126548767 -0.05215727910399437 0.6477301120758057
0.4763031303882599 -0.054510749876499176 0.6438084840774536
0.4757806956768036 -0.053988441824913025 0.6438084840774536
0.4728984832763672 -0.0516720712184906 0.6435087323188782
0.4720795154571533 -0.04929686337709427 0.6443329453468323
0.46650826930999756 -0.047665126621723175 0.6422467827796936
0.46538177132606506 -0.04776922985911369 0.6415948867797852
0.4631139934062958 -0.0479799322783947 0.6402828097343445
0.4541395604610443 -0.04962572827935219 0.6346585750579834
0.5052406787872314 -0.09566307812929153 0.6363967657089233
0.5084306001663208 -0.08862727135419846 0.6418282985687256
0.5086783170700073 -0.08702368289232254 0.64281165599823
0.5088174939155579 -0.08557946234941483 0.6436525583267212
0.5080268979072571 -0.08171755075454712 0.6452838778495789
0.5037454962730408 -0.08017216622829437 0.6438308954238892
0.502974808216095 -0.07998389005661011 0.6435213685035706
0.501977801322937 -0.07766825705766678 0.644221842288971
0.5000226497650146 -0.06599617749452591 0.6493829488754272
0.496815949678421 -0.065393827855587 0.6479998230934143
0.4925276041030884 -0.06377559900283813 0.64658123254776
0.4903649389743805 -0.06182534992694855 0.6464685201644897
0.48980361223220825 -0.061362262815237045 0.6464163661003113
0.48881077766418457 -0.055793143808841705 0.6488471627235413
0.48440617322921753 -0.053135454654693604 0.6479193568229675
0.48371803760528564 -0.05281880497932434 0.6477219462394714
0.4825059175491333 -0.05199620872735977 0.6475149989128113
0.48173901438713074 -0.051764681935310364 0.6472308039665222
0.4783056974411011 -0.0545194186270237 0.6439439058303833
0.4761999845504761 -0.05355815961956978 0.6433358192443848
0.47213178873062134 -0.049264922738075256 0.6434556841850281
0.47187620401382446 -0.04845709353685379 0.643748939037323
0.4713549017906189 -0.04793568328022957 0.643748939037323
0.4695352613925934 -0.047717466950416565 0.6428983211517334
0.4675835967063904 -0.047627002000808716 0.6419097185134888
0.45286911725997925 -0.049830079078674316 0.6329240798950195
0.5054959058761597 -0.09543626755475998 0.6357085108757019
0.5083971619606018 -0.08754264563322067 0.6414593458175659
0.5081401467323303 -0.08291279524564743 0.6437890529632568
0.5056779980659485 -0.08012306690216064 0.6439636945724487
0.5049110651016235 -0.07993517816066742 0.643655002117157
0.5020309090614319 -0.07769943028688431 0.6433117389678955
0.5047777891159058 -0.07287555187940598 0.647345244884491
0.5040026307106018 -0.07151581346988678 0.6476564407348633
0.5036218762397766 -0.07082924991846085 0.6478195190429688
0.4938146770000458 -0.06456833332777023 0.6459301114082336
0.49276936054229736 -0.06354984641075134 0.6459160447120667
0.4917132556438446 -0.06254376471042633 0.6458892226219177
0.490619421005249 -0.0615830160677433 0.6458184123039246
0.4895409345626831 -0.06060267612338066 0.6457659006118774
0.4896000921726227 -0.0594012588262558 0.6464375853538513
0.4904215931892395 -0.05730217695236206 0.6479934453964233
0.48785698413848877 -0.05473480373620987 0.6479950547218323
0.4866066575050354 -0.053967367857694626 0.6477378010749817
0.47411489486694336 -0.05259183049201965 0.6418155431747437
0.4735478460788727 -0.05211564525961876 0.6417672634124756
0.4730239510536194 -0.05159186199307442 0.6417672634124756
0.46809959411621094 -0.047100216150283813 0.6415366530418396
0.46434807777404785 -0.04672297090291977 0.6397390365600586
0.4571683704853058 -0.05089356750249863 0.6336919665336609
0.4560435712337494 -0.049869343638420105 0.6336383819580078
0.5080154538154602 -0.08196718245744705 0.6433051824569702
0.5079702138900757 -0.08079787343740463 0.6439059972763062
0.5068389177322388 -0.07988622039556503 0.6437888145446777
0.5018333196640015 -0.07685257494449615 0.6427348256111145
0.5029996633529663 -0.06937005370855331 0.6473565101623535
0.5017217993736267 -0.06749524921178818 0.6476755142211914
0.5003851056098938 -0.06570257246494293 0.6479192972183228
0.4998726546764374 -0.06519034504890442 0.6479192972183228
0.4989827871322632 -0.06399711966514587 0.6480813026428223
0.49827295541763306 -0.06373170018196106 0.6478437185287476
0.49646106362342834 -0.06368076056241989 0.6469027996063232
0.4940420687198639 -0.06436078995466232 0.6452468633651733
0.4892333447933197 -0.059896063059568405 0.6450628638267517
0.48990121483802795 -0.055735860019922256 0.6476427912712097
0.4817386865615845 -0.05074755847454071 0.6459468603134155
0.47253239154815674 -0.049969375133514404 0.6414430141448975
0.47197961807250977 -0.04839273542165756 0.6419903039932251
0.4714570939540863 -0.0478704497218132 0.6419903039932251
0.4660896062850952 -0.045997440814971924 0.6401227712631226
0.46330079436302185 -0.045671265572309494 0.6388067603111267
0.5043595433235168 -0.09344090521335602 0.6342735290527344
0.5080811977386475 -0.08697792887687683 0.6397320032119751
0.508330762386322 -0.08537795394659042 0.6407231688499451
0.5078070759773254 -0.08485452085733414 0.6407231688499451
0.5079511404037476 -0.0834118127822876 0.6415738463401794
0.507920503616333 -0.0822150856256485 0.6421987414360046
0.5028775334358215 -0.07799564301967621 0.6417573690414429
0.5018754601478577 -0.07689742743968964 0.6418088674545288
0.5011146664619446 -0.07548467814922333 0.6421584486961365
0.49593788385391235 -0.06325069069862366 0.6459406614303589
0.4899052679538727 -0.05690476670861244 0.6461085081100464
0.49018797278404236 -0.055453263223171234 0.647037923336029
0.48472318053245544 -0.05180443450808525 0.6460645794868469
0.4840352237224579 -0.05148652195930481 0.6458662748336792
0.4835204780101776 -0.05097179114818573 0.6458662748336792
0.47792333364486694 -0.05285067483782768 0.6418595314025879
0.47581756114959717 -0.051881417632102966 0.6412506103515625
0.4686068296432495 -0.04552502930164337 0.6407924890518188
0.46664953231811523 -0.04542737454175949 0.6397958993911743
0.4655740559101105 -0.0454741045832634 0.6391942501068115
0.4549553096294403 -0.047733720391988754 0.632291853427887
0.504615068435669 -0.09321306645870209 0.6335839033126831
0.5080482363700867 -0.08589337766170502 0.6393645405769348
0.5075234770774841 -0.08536864072084427 0.6393645405769348
0.5077956914901733 -0.08126848936080933 0.6417146325111389
0.5053344964981079 -0.07847218215465546 0.6418949365615845
0.5040456652641296 -0.07776136696338654 0.6415844559669495
0.5011667013168335 -0.07551372796297073 0.6412448287010193
0.5039248466491699 -0.0707177221775055 0.6453057527542114
0.5036587119102478 -0.06987988203763962 0.6456131339073181
0.5023831725120544 -0.06799404323101044 0.6459412574768066
0.5020033717155457 -0.06730929762125015 0.6461052298545837
0.49663788080215454 -0.0624602772295475 0.6458274722099304
0.4934593439102173 -0.06291500478982925 0.6438743472099304
0.492422878742218 -0.06188275292515755 0.6438719630241394
0.4918985366821289 -0.061374373733997345 0.6438634991645813
0.49030154943466187 -0.05987684056162834 0.643809974193573
0.48974186182022095 -0.05940977483987808 0.6437602043151855
0.48924002051353455 -0.05774642899632454 0.6443846225738525
0.4900883734226227 -0.05562543123960495 0.6459810137748718
0.4895748198032379 -0.055111754685640335 0.6459810137748718
0.4887427091598511 -0.053857140243053436 0.646207869052887
0.4874926805496216 -0.05308893322944641 0.6459493041038513
0.4824765920639038 -0.04999591410160065 0.6449152827262878
0.4817381501197815 -0.049729716032743454 0.644661545753479
0.4770135283470154 -0.05169320106506348 0.6410660147666931
0.4731990694999695 -0.050391003489494324 0.6397154927253723
0.47265705466270447 -0.04988592490553856 0.6396957635879517
0.47061586380004883 -0.045572035014629364 0.6409173607826233
0.4681459665298462 -0.04495101049542427 0.6399235725402832
0.45690110325813293 -0.04901452362537384 0.6316942572593689
0.45580536127090454 -0.04795951023697853 0.6316722631454468
0.5077645182609558 -0.08641116321086884 0.6379987001419067
0.507238507270813 -0.08588499575853348 0.6379987001419067
0.5077307224273682 -0.0827118381857872 0.6399754285812378
0.5071501135826111 -0.0798017680644989 0.6412312388420105
0.5017613172531128 -0.06653524935245514 0.6454790830612183
0.5013757944107056 -0.0658593475818634 0.6456354856491089
0.49997034668922424 -0.06415057182312012 0.6457990407943726
0.4995250403881073 -0.0635531023144722 0.6458809971809387
0.4981219470500946 -0.06184709072113037 0.6460446119308472
0.49738171696662903 -0.06161530315876007 0.6457700729370117
0.4896397888660431 -0.053974688053131104 0.6457156538963318
0.48664841055870056 -0.05189722031354904 0.6452227830886841
0.48135361075401306 -0.04910316318273544 0.6438745856285095
0.47583243250846863 -0.05083077773451805 0.6399661302566528
0.4716413617134094 -0.04773945361375809 0.6393730044364929
0.46567076444625854 -0.04432593658566475 0.6379944086074829
0.46514469385147095 -0.043799761682748795 0.6379944086074829
0.46287667751312256 -0.0439922995865345 0.6366676688194275
0.4560641050338745 -0.047701604664325714 0.6309943199157715
0.5040119886398315 -0.09174902737140656 0.632145881652832
0.5034770965576172 -0.09121400862932205 0.632145881652832
0.5076053142547607 -0.08176214247941971 0.6394901871681213
0.5068237781524658 -0.07790668308734894 0.6411527395248413
0.5033016800880432 -0.07652918994426727 0.6399927139282227
0.5017567276954651 -0.07614436745643616 0.639365553855896
0.5012339949607849 -0.07562149316072464 0.639365553855896
0.5007715821266174 -0.07381824404001236 0.6400906443595886
0.49830225110054016 -0.06169797107577324 0.6453100442886353
0.49557262659072876 -0.06161808967590332 0.6438770294189453
0.4891263544559479 -0.05799369886517525 0.6423507928848267
0.48452556133270264 -0.04995792359113693 0.6442087292671204
0.4831479787826538 -0.04931899532675743 0.6438090205192566
0.4804517924785614 -0.04795932397246361 0.6430863738059998
0.4770176410675049 -0.050656016916036606 0.6397705674171448
0.47491103410720825 -0.04967816546559334 0.6391602754592896
0.4708753824234009 -0.045334137976169586 0.6393269300460815
0.4691754877567291 -0.04390277341008186 0.6391817927360535
0.467221200466156 -0.04380010813474655 0.6381803750991821
0.46623945236206055 -0.04374845325946808 0.6376774311065674
0.46235427260398865 -0.04346423223614693 0.635729968547821
0.5042673945426941 -0.09152065217494965 0.6314550042152405
0.5037323832511902 -0.09098560363054276 0.6314550042152405
0.507173478603363 -0.08371533453464508 0.6372649669647217
0.5069289803504944 -0.0790993794798851 0.639636218547821
0.5044695138931274 -0.0762968361377716 0.6398224830627441
0.5029287338256836 -0.07591190189123154 0.6391953229904175
0.5008206367492676 -0.07384921610355377 0.6391708850860596
0.5035853385925293 -0.06907116621732712 0.6432623267173767
0.5027994513511658 -0.0677257776260376 0.6435655951499939
0.5003336071968079 -0.06385435909032822 0.644328236579895
0.49625664949417114 -0.06085065007209778 0.643746018409729
0.49258536100387573 -0.060740504413843155 0.6418144106864929
0.49154359102249146 -0.05971238389611244 0.6418068408966064
0.48994341492652893 -0.05821482464671135 0.6417510509490967
0.4893808364868164 -0.05774986743927002 0.6416981220245361
0.4883488118648529 -0.055587027221918106 0.6423118114471436
0.48924022912979126 -0.05343126505613327 0.6439645290374756
0.486613005399704 -0.050925225019454956 0.6438987255096436
0.4859864115715027 -0.05053924396634102 0.6437682509422302
0.4848442077636719 -0.04963834956288338 0.6436376571655273
0.473654180765152 -0.048885319381952286 0.6379761099815369
0.4717649817466736 -0.047651831060647964 0.6376204490661621
0.47013798356056213 -0.04398048296570778 0.6387293338775635
0.4560108184814453 -0.046680618077516556 0.6296015381813049
0.45547327399253845 -0.04614171385765076 0.6296024918556213
0.4549354612827301 -0.04560283198952675 0.6296029686927795
0.5068870782852173 -0.08422823250293732 0.6358927488327026
0.507384181022644 -0.0810592994093895 0.6378872394561768
0.5067664384841919 -0.0769825130701065 0.6397691965103149
0.5048666596412659 -0.07587255537509918 0.6393393874168396
0.501795768737793 -0.06557910889387131 0.6432691216468811
0.500515341758728 -0.06370612233877182 0.6435914635658264
0.4996226131916046 -0.06251029670238495 0.6437562108039856
0.4991764426231384 -0.06191280484199524 0.6438384652137756
0.4952172338962555 -0.05990219861268997 0.6427784562110901
0.4940038025379181 -0.060233209282159805 0.6419382691383362
0.49018654227256775 -0.05798501893877983 0.6410843729972839
0.48799118399620056 -0.05605723336338997 0.6409388780593872
0.4886707067489624 -0.05192164331674576 0.6435586214065552
0.48045095801353455 -0.04693824052810669 0.6417977213859558
0.477021723985672 -0.04961816221475601 0.6384742259979248
0.47492581605911255 -0.04862536862492561 0.6378738880157471
0.4709973633289337 -0.04524223878979683 0.6375774145126343
0.470198392868042 -0.043933186680078506 0.6378547549247742
0.46922990679740906 -0.04280470311641693 0.6379419565200806
0.46472376585006714 -0.04212396964430809 0.6358607411384583
0.46192219853401184 -0.04178067669272423 0.6345230937004089
0.45348048210144043 -0.04382706806063652 0.6288171410560608
0.5035809874534607 -0.09016751497983932 0.6299067735671997
0.5031277537345886 -0.08951827883720398 0.6300137042999268
0.5068546533584595 -0.08314274996519089 0.6355265378952026
0.5067356824874878 -0.07958599179983139 0.6374025344848633
0.5029548406600952 -0.07486904412508011 0.6379134058952332
0.5016589760780334 -0.07415212690830231 0.6375975012779236
0.5008839964866638 -0.07395701855421066 0.6372808814048767
0.499905526638031 -0.07162629067897797 0.6380189061164856
0.49750709533691406 -0.0594591423869133 0.6433494687080383
0.4946911334991455 -0.059466566890478134 0.6418088674545288
0.49347472190856934 -0.059796806424856186 0.640964686870575
0.4882456362247467 -0.055812884122133255 0.6402854323387146
0.4877854287624359 -0.05522724241018295 0.6403539180755615
0.4865777790546417 -0.049952324479818344 0.642573356628418
0.4834651052951813 -0.04798368364572525 0.6419492363929749
0.47663310170173645 -0.04897947236895561 0.6376775503158569
0.4745218753814697 -0.04799870401620865 0.6370606422424316
0.47367560863494873 -0.047822918742895126 0.6366947293281555
0.46726781129837036 -0.04164997115731239 0.636566698551178
0.4653018116950989 -0.04153957962989807 0.6355539560317993
0.46307042241096497 -0.04168543592095375 0.6342567801475525
0.4613873064517975 -0.041260529309511185 0.6335701942443848
0.45600447058677673 -0.04561091959476471 0.6282588243484497
0.503383219242096 -0.08928881585597992 0.6293213963508606
0.5062963962554932 -0.08153277635574341 0.6351609826087952
0.506582498550415 -0.07744752615690231 0.6375535726547241
0.5060347318649292 -0.07574155181646347 0.6381874084472656
0.5041238069534302 -0.07463867962360382 0.6377450823783875
0.5028313994407654 -0.07392237335443497 0.63742995262146
0.49994906783103943 -0.07166104763746262 0.6370898485183716
0.5027294754981995 -0.066905178129673 0.6412146687507629
0.5020725727081299 -0.06539683789014816 0.6416807770729065
0.5016916394233704 -0.06471168249845505 0.6418471932411194
0.4981329143047333 -0.0599055178463459 0.6425300240516663
0.49294450879096985 -0.059359144419431686 0.6399893164634705
0.4917093515396118 -0.05856165289878845 0.6397497057914734
0.49066922068595886 -0.0575295090675354 0.6397454738616943
0.48958227038383484 -0.056552257388830185 0.6396851539611816
0.4885006844997406 -0.055568329989910126 0.639631986618042
0.48793670535087585 -0.05510232597589493 0.6395782828330994
0.4880112111568451 -0.05389617756009102 0.6402794718742371
0.48890528082847595 -0.051747504621744156 0.6419446468353271
0.4868737757205963 -0.04965871199965477 0.6419760584831238
0.48573195934295654 -0.048757150769233704 0.6418444514274597
0.4844754636287689 -0.04798218235373497 0.6415808200836182
0.4804498553276062 -0.045916598290205 0.6405081748962402
0.479678213596344 -0.04567846283316612 0.6402161717414856
0.47326186299324036 -0.047203097492456436 0.6358698606491089
0.4718869924545288 -0.04650047421455383 0.6355019807815552
0.4713961184024811 -0.045938510447740555 0.635540783405304
0.46928438544273376 -0.04170602187514305 0.6367015242576599
0.4668044447898865 -0.041071273386478424 0.63569176197052
0.46368730068206787 -0.041063882410526276 0.633989691734314
0.4557289183139801 -0.0448099710047245 0.6275835037231445
0.4546404182910919 -0.043743763118982315 0.6275714039802551
0.5065351128578186 -0.08256796002388 0.6337823271751404
0.5065133571624756 -0.07887942343950272 0.6357950568199158
0.5009092092514038 -0.07291099429130554 0.6359952092170715
0.5009341835975647 -0.06342034041881561 0.6412186622619629
0.49972018599510193 -0.06146467477083206 0.6416259407997131
0.4983136057853699 -0.059755075722932816 0.6417921185493469
0.4978674650192261 -0.05915799364447594 0.641875147819519
0.4961072504520416 -0.05788230523467064 0.6416091918945312
0.48768141865730286 -0.05209730565547943 0.6401594877243042
0.4800635874271393 -0.04528625309467316 0.6397165656089783
0.47954630851745605 -0.04476886987686157 0.6397165656089783
0.4761142134666443 -0.047416750341653824 0.6363788843154907
0.4745408892631531 -0.04693951830267906 0.6357770562171936
0.4704008102416992 -0.04376905411481857 0.6352450251579285
0.46988943219184875 -0.042157791554927826 0.6358487606048584
0.4688239097595215 -0.04112885519862175 0.6358286142349243
0.4643018841743469 -0.040444184094667435 0.6337221264839172
0.4637746214866638 -0.039916928857564926 0.6337221264839172
0.45330125093460083 -0.041850745677948 0.6269111037254333
0.5032275915145874 -0.08847381919622421 0.6277644038200378
0.5027782320976257 -0.08781889081001282 0.6278775334358215
0.5059759020805359 -0.08095541596412659 0.6334171295166016
0.5063878297805786 -0.07792889326810837 0.6353104710578918
0.5058379173278809 -0.07621720433235168 0.6359502077102661
0.5049196481704712 -0.07379094511270523 0.6367804408073425
0.5020842552185059 -0.07268255949020386 0.635829508304596
0.5000097751617432 -0.07176519185304642 0.6351924538612366
0.49978429079055786 -0.07085834443569183 0.6355673670768738
0.49956029653549194 -0.06995274871587753 0.6359430551528931
0.5003117918968201 -0.06196017563343048 0.6407572627067566
0.4955426752567291 -0.05749426409602165 0.640590488910675
0.4943239688873291 -0.057826533913612366 0.6397364139556885
0.4925875663757324 -0.057634830474853516 0.6388859152793884
0.48747360706329346 -0.0534999817609787 0.6383467316627502
0.4878681004047394 -0.05081949010491371 0.6400399804115295
0.48808372020721436 -0.04946735128760338 0.640903115272522
0.4825762212276459 -0.04580918699502945 0.6398847699165344
0.4736063480377197 -0.0457925982773304 0.634955108165741
0.4668586254119873 -0.0399683453142643 0.6344468593597412
0.46587541699409485 -0.03991073742508888 0.6339371800422668
0.4608345627784729 -0.03969602659344673 0.6312798857688904
0.4595138132572174 -0.03995451703667641 0.6304102540016174
0.5019389390945435 -0.08654692769050598 0.6271547079086304
0.5059443712234497 -0.07987190783023834 0.6330527663230896
0.505713164806366 -0.07526963949203491 0.6354666352272034
0.5045481324195862 -0.07317256182432175 0.6359812617301941
0.5023879408836365 -0.06525135040283203 0.6391629576683044
0.5015915632247925 -0.06392018496990204 0.6394582390785217
0.5004491209983826 -0.06186636909842491 0.6399616003036499
0.4920556843280792 -0.05719394236803055 0.637906551361084
0.4913505017757416 -0.056897033005952835 0.637681245803833
0.49030929803848267 -0.05586377531290054 0.6376766562461853
0.4897903501987457 -0.05534493178129196 0.6376766562461853
0.4881373643875122 -0.05390102043747902 0.6375613808631897
0.4875729978084564 -0.05343425273895264 0.6375073194503784
0.4871549606323242 -0.05168440565466881 0.6382429599761963
0.488054484128952 -0.04954575374722481 0.6399206519126892
0.48661983013153076 -0.047875624150037766 0.6400507688522339
0.4859919846057892 -0.04748784378170967 0.6399182081222534
