ply
format ascii 1.0
element vertex 813
property float x
property float y
property float z
end_header
0.5472623109817505 0.019965022802352905 0.6592503190040588
0.5480655431747437 0.019697273150086403 0.6592503190040588
0.5487601161003113 0.017019320279359818 0.6605779528617859
0.5491062998771667 0.015692224726080894 0.661235511302948
0.5502457618713379 0.014103545807301998 0.6618916988372803
0.5505854487419128 0.012785927392542362 0.6625451445579529
0.5509240031242371 0.01147456280887127 0.663195788860321
0.5523855090141296 0.008608163334429264 0.664486825466156
0.5527179837226868 0.007315995637327433 0.665128231048584
0.5574789047241211 0.0018743225373327732 0.6672202348709106
0.5582601428031921 0.0016139132203534245 0.6672202348709106
0.5656195282936096 -4.405703293741681e-05 0.6667885184288025
0.5664019584655762 -0.0003048637881875038 0.6667885184288025
0.5746597647666931 -0.002047575544565916 0.6662406921386719
0.5763478875160217 -0.0023323337081819773 0.6660894155502319
0.5780298709869385 -0.002633394906297326 0.665949285030365
0.5804948806762695 -0.0032024236861616373 0.6658115983009338
0.5242874622344971 0.08321387320756912 0.6280021071434021
0.5247321128845215 0.08157136291265488 0.6288160085678101
0.5251742601394653 0.07993672788143158 0.6296256184577942
0.5260523557662964 0.07669252157211304 0.631233274936676
0.5282247066497803 0.0715959370136261 0.6336144208908081
0.5286518931388855 0.07001083344221115 0.6343995928764343
0.5295215845108032 0.06972093135118484 0.6343995928764343
0.5303648114204407 0.06657527387142181 0.6359593868255615
0.5307835936546326 0.06501392275094986 0.6367338299751282
0.5311998128890991 0.06346055865287781 0.6375038623809814
0.532060980796814 0.06317351013422012 0.6375038623809814
0.5324735045433044 0.06162816658616066 0.6382707357406616
0.5332920551300049 0.058560412377119064 0.6397926211357117
0.5345513224601746 0.05675334483385086 0.6405482888221741
0.534953773021698 0.05523894354701042 0.6413000822067261
0.5361490845680237 0.05073888227343559 0.6435331106185913
0.5377767086029053 0.047494933009147644 0.645004153251648
0.5381656885147095 0.04602444916963577 0.6457344889640808
0.5385526418685913 0.04456067457795143 0.646461546421051
0.539772093296051 0.04282569885253906 0.6471847295761108
0.5401533246040344 0.041376031935214996 0.6479050517082214
0.540532648563385 0.03993367403745651 0.6486214399337769
0.5430500507354736 0.03916936740279198 0.6485808491706848
0.5444111824035645 0.030879046767950058 0.6528480052947998
0.5447739362716675 0.029483089223504066 0.653542697429657
0.5463104248046875 0.02644721046090126 0.6549170613288879
0.5466665625572205 0.02507271058857441 0.6556005477905273
0.5477265119552612 0.020988639444112778 0.6576327085494995
0.5485321879386902 0.02072007954120636 0.6576327085494995
0.5495716333389282 0.016693394631147385 0.6596363186836243
0.5510543584823608 0.013776715844869614 0.6609556674957275
0.5520652532577515 0.009842551313340664 0.6629144549369812
0.5538488030433655 0.005701347254216671 0.6648457646369934
0.5541768074035645 0.004420417360961437 0.6654833555221558
0.555614709854126 0.0016288354527205229 0.6667429804801941
0.5629246830940247 -0.00011070878827013075 0.6663631200790405
0.5686908960342407 -0.0013294833479449153 0.6659805774688721
0.5703139305114746 -0.0017332453280687332 0.6659052968025208
0.5719966292381287 -0.0020194861572235823 0.6657560467720032
0.5728387832641602 -0.002161905635148287 0.6656806468963623
0.5744655132293701 -0.0025655021890997887 0.665605366230011
0.576152503490448 -0.0028509933035820723 0.6654543876647949
0.5256109833717346 0.08126150816679001 0.6277486681938171
0.5260515809059143 0.07962726801633835 0.6285609602928162
0.5273712873458862 0.07770662009716034 0.6293702125549316
0.5282365679740906 0.07447908818721771 0.6309759616851807
0.5286661982536316 0.07287726551294327 0.6317731738090515
0.5303889513015747 0.06940768659114838 0.6333550214767456
0.5316454768180847 0.0646996721625328 0.6356985569000244
0.532509446144104 0.0644116923213005 0.6356985569000244
0.5333328247070312 0.06131287291646004 0.6372414827346802
0.5341479182243347 0.05824396386742592 0.638769805431366
0.5350032448768616 0.05795879662036896 0.638769805431366
0.5362051129341125 0.053414005786180496 0.6410341858863831
0.5366017818450928 0.05191352963447571 0.6417819261550903
0.5382323265075684 0.048652533441782 0.6432667374610901
0.539007842540741 0.045702651143074036 0.644736647605896
0.5402306914329529 0.04396063834428787 0.6454663872718811
0.5406128764152527 0.04250655323266983 0.6461912393569946
0.5413678288459778 0.03960850089788437 0.6476366519927979
0.5421987771987915 0.03933146223425865 0.6476366519927979
0.5425750017166138 0.037901777774095535 0.6483495235443115
0.5459611415863037 0.02777404524385929 0.653266429901123
0.5467768311500549 0.027502303943037987 0.653266429901123
0.5478417277336121 0.023379961028695107 0.6553246974945068
0.548193097114563 0.022018317133188248 0.6560044288635254
0.5496960282325745 0.01904582418501377 0.6573552489280701
0.5500410795211792 0.01770348660647869 0.6580259799957275
0.551525890827179 0.014772740192711353 0.659356415271759
0.5522009134292603 0.01213155034929514 0.6606764793395996
0.5525363087654114 0.01082021463662386 0.6613321304321289
0.5536619424819946 0.00925077497959137 0.6619848012924194
0.5539926290512085 0.007952271029353142 0.6626335978507996
0.5543219447135925 0.006659467704594135 0.6632802486419678
0.5546496510505676 0.00537260714918375 0.6639237403869629
0.5557608008384705 0.003830116242170334 0.6645642518997192
0.5560839176177979 0.002555052051320672 0.6652022004127502
0.5564055442810059 0.0012860812712460756 0.6658366322517395
0.55862957239151 0.0002477352390997112 0.665999174118042
0.5602798461914062 -8.21157154859975e-05 0.6658788919448853
0.5627127289772034 -0.0006728193839080632 0.6657585501670837
0.5643661618232727 -0.00100347597617656 0.6656380891799927
0.5668185949325562 -0.0015624328516423702 0.6654964089393616
0.5792549252510071 -0.004098926205188036 0.6646171808242798
0.580095112323761 -0.004252780228853226 0.6645486354827881
0.5873801708221436 0.0062096742913126945 0.6575053334236145
0.5881840586662292 0.005941675044596195 0.6575053334236145
0.5269297957420349 0.07931533455848694 0.6274959444999695
0.5282485485076904 0.07739536464214325 0.6283076405525208
0.5286806225776672 0.07577740401029587 0.6291159391403198
0.5304133296012878 0.07227323949337006 0.6307196021080017
0.5308367609977722 0.07067964971065521 0.6315160393714905
0.5316768884658813 0.0675165057182312 0.63309645652771
0.5320941209793091 0.06594686210155487 0.6338809132575989
0.5337846279144287 0.06254294514656067 0.6354383826255798
0.5341932773590088 0.06099671870470047 0.636211097240448
0.534600019454956 0.059458110481500626 0.6369804739952087
0.5358611345291138 0.05764196813106537 0.6377457976341248
0.5362609624862671 0.05611718073487282 0.6385085582733154
0.5366598963737488 0.0546020083129406 0.6392658352851868
0.5382991433143616 0.0513092465698719 0.6407719254493713
0.5386903285980225 0.049817461520433426 0.6415178179740906
0.5394676923751831 0.046855587512254715 0.6429997086524963
0.5403094291687012 0.04657500609755516 0.6429997086524963
0.5406923890113831 0.04510384052991867 0.6437360048294067
0.5418296456336975 0.0407295823097229 0.6459261775016785
0.5426633358001709 0.04045167192816734 0.6459261775016785
0.5434119701385498 0.03757970407605171 0.6473636627197266
0.5479580163955688 0.025796858593821526 0.6529922485351562
0.5483113527297974 0.024422606453299522 0.653681218624115
0.5486630201339722 0.023054417222738266 0.6543671488761902
0.5498216152191162 0.02142297849059105 0.6550499200820923
0.5501681566238403 0.020068002864718437 0.6557295918464661
0.5505131483078003 0.018719255924224854 0.656405508518219
0.5508562326431274 0.01737639680504799 0.6570788025856018
0.5519992113113403 0.015773016959428787 0.6577491164207458
0.5523384213447571 0.01444546040147543 0.6584148406982422
0.5526753067970276 0.013121800497174263 0.6590791344642639
0.5530106425285339 0.011803872883319855 0.6597405076026917
0.5541380643844604 0.010227234102785587 0.6603986024856567
0.55446857213974 0.008922100067138672 0.6610538363456726
0.5547977089881897 0.00762355187907815 0.6617051959037781
0.5562387704849243 0.0047812373377382755 0.663000226020813
0.5565617084503174 0.003500558901578188 0.6636434197425842
0.5584195256233215 -0.0003138202300760895 0.6653949022293091
0.5666261911392212 -0.002080459613353014 0.6648634076118469
0.5683046579360962 -0.002366218715906143 0.6647136211395264
0.5765933990478516 -0.004054282326251268 0.6641241908073425
0.5790553092956543 -0.004623744171112776 0.66398686170578
0.58073490858078 -0.004931819625198841 0.6638486385345459
0.5823600888252258 -0.00534749124199152 0.663779616355896
0.5291269421577454 0.0770818442106247 0.6272444725036621
0.5299854874610901 0.07385430485010147 0.6288620829582214
0.5308636426925659 0.07356154173612595 0.6288620829582214
0.5312873721122742 0.07195983082056046 0.6296656131744385
0.5321282148361206 0.06877995282411575 0.6312603950500488
0.5325456261634827 0.06720220297574997 0.632051944732666
0.534238338470459 0.06377792358398438 0.6336251497268677
0.534647524356842 0.062224358320236206 0.634404182434082
0.5350541472434998 0.06067739054560661 0.6351808905601501
0.5363176465034485 0.058851372450590134 0.6359533667564392
0.5367185473442078 0.05732027068734169 0.6367222666740417
0.5371176600456238 0.055797964334487915 0.637485921382904
0.5383676886558533 0.053998999297618866 0.638246476650238
0.5391526818275452 0.05099276453256607 0.6397563219070435
0.5407719612121582 0.047727860510349274 0.6412553787231445
0.5419167280197144 0.04331468418240547 0.6434730291366577
0.5499486923217773 0.02382582798600197 0.6527198553085327
0.5502967834472656 0.022458022460341454 0.6534079909324646
0.550987958908081 0.019741317257285118 0.6547754406929016
0.5521367192268372 0.018123818561434746 0.6554546356201172
0.5524765849113464 0.016781363636255264 0.6561309099197388
0.5528149604797363 0.01544534508138895 0.6568039059638977
0.5542856454849243 0.012527481652796268 0.6581384539604187
0.5546175241470337 0.011209961958229542 0.6588025093078613
0.5549477934837341 0.00989870261400938 0.6594632863998413
0.5563952326774597 0.007030556444078684 0.6607758402824402
0.5567196607589722 0.005738270469009876 0.6614267826080322
0.5576838254928589 0.001895558787509799 0.6633635759353638
0.5584677457809448 0.0016342434100806713 0.6633635759353638
0.5639769434928894 -0.0020517429802566767 0.6643808484077454
0.5648145079612732 -0.002194867003709078 0.6643063426017761
0.5705744028091431 -0.0034292880445718765 0.6639292240142822
0.5722570419311523 -0.0037144916132092476 0.663777768611908
0.5738821029663086 -0.0041181487031280994 0.6637015342712402
0.5747196078300476 -0.0042709182016551495 0.6636323928833008
0.57639479637146 -0.004578700289130211 0.6634939908981323
0.530434787273407 0.07514939457178116 0.6269937753677368
0.5317406058311462 0.0732470229268074 0.6278034448623657
0.5326113700866699 0.07293041050434113 0.6278184056282043
0.5342203378677368 0.07471661269664764 0.6265365481376648
0.5367786288261414 0.06007235124707222 0.6341471672058105
0.5375798344612122 0.05700496956706047 0.6356927752494812
0.5388326048851013 0.05519712343811989 0.6364601254463196
0.539225697517395 0.05368119850754738 0.6372246146202087
0.5400049090385437 0.050668757408857346 0.6387434005737305
0.5403924584388733 0.0491754524409771 0.639496386051178
0.5420046448707581 0.0459292009472847 0.6409913301467896
0.542762279510498 0.04299310967326164 0.6424721479415894
0.5439773201942444 0.041260976344347 0.643204927444458
0.5507744550704956 0.023498941212892532 0.6517564058303833
0.5514658093452454 0.02076960727572441 0.6531358361244202
0.5518090724945068 0.01941416785120964 0.6538208723068237
0.552617073059082 0.019144827499985695 0.6538208723068237
0.5529569387435913 0.017796248197555542 0.6545022130012512
0.5536314845085144 0.01511732954531908 0.6558564305305481
0.5539674162864685 0.013789067976176739 0.6565276980400085
0.554767906665802 0.013522189110517502 0.6565276980400085
0.5554296970367432 0.010880724526941776 0.6578636765480042
0.5560857057571411 0.008263486437499523 0.6591876745223999
0.5568791031837463 0.007999026216566563 0.6591876745223999
0.5581672787666321 0.0028401839081197977 0.6617977023124695
0.5598991513252258 -0.0012289187870919704 0.6637247204780579
0.5604961514472961 -0.001880960538983345 0.6639744639396667
0.5612764358520508 -0.002141067525371909 0.6639744639396667
0.5621123909950256 -0.002283654408529401 0.6638997793197632
0.5646228790283203 -0.002711863722652197 0.6636740565299988
0.5662418007850647 -0.0031154691241681576 0.6635988354682922
0.5687592625617981 -0.003542763413861394 0.6633715629577637
0.5712222456932068 -0.004088662099093199 0.6632198691368103
0.5811745524406433 -0.0061347754672169685 0.6625181436538696
0.5396918058395386 0.05487421154975891 0.6354367136955261
0.5400832891464233 0.05335857719182968 0.6362038254737854
0.5404725670814514 0.051849957555532455 0.6369670629501343
0.5420936346054077 0.048572439700365067 0.6384824514389038
0.5424752235412598 0.047086313366889954 0.6392346620559692
0.5428551435470581 0.04560738056898117 0.639983594417572
0.5440750122070312 0.043855324387550354 0.640728771686554
0.5519465804100037 0.02180403098464012 0.6514856219291687
0.5522897839546204 0.020442072302103043 0.652176558971405
0.5537778735160828 0.017467759549617767 0.6535487771034241
0.5541143417358398 0.01612529531121254 0.6542302370071411
0.5544494390487671 0.014788848347961903 0.6549085378646851
0.5555848479270935 0.013193020597100258 0.65558260679245
0.5562434196472168 0.01055144239217043 0.6569236516952515
0.5565704703330994 0.009239519014954567 0.657589852809906
0.5580123066902161 0.006370261311531067 0.6589118242263794
0.5583338141441345 0.005077630281448364 0.6595688462257385
0.5600739121437073 0.0009729283046908677 0.6615203022956848
0.5685667395591736 -0.004059359896928072 0.6627390384674072
0.5776189565658569 -0.006041361950337887 0.662165641784668
0.578457236289978 -0.006195592228323221 0.6620962619781494
0.580134928226471 -0.006504411809146404 0.6619575023651123
0.5887789726257324 0.004694486036896706 0.6541610956192017
0.5409426689147949 0.05303725227713585 0.6351798176765442
0.541330873966217 0.05152978003025055 0.6359454393386841
0.5421833992004395 0.05124560371041298 0.6359454393386841
0.5425668954849243 0.0497446246445179 0.6367080211639404
0.5445511341094971 0.04500407353043556 0.6389743089675903
0.544926106929779 0.04353434219956398 0.6397213935852051
0.5527730584144592 0.02147565223276615 0.6505228281021118
0.5539256930351257 0.019843829795718193 0.6512161493301392
0.5542638301849365 0.018488552421331406 0.6519066095352173
0.5546002984046936 0.017139235511422157 0.6525940895080566
0.5549349784851074 0.01579640433192253 0.6532773375511169
0.556071937084198 0.014191867783665657 0.6539583206176758
0.5564028024673462 0.012863656505942345 0.6546350121498108
0.5567313432693481 0.011539796367287636 0.6553098559379578
0.5578560829162598 0.009955213405191898 0.6559815406799316
0.5581796765327454 0.00864370632916689 0.6566504240036011
0.5585002899169922 0.007335477974265814 0.6573179364204407
0.5602501630783081 0.0031970541458576918 0.6592928767204285
0.5605644583702087 0.00191575288772583 0.6599462032318115
0.5611897706985474 -0.0006295050261542201 0.661244809627533
0.5622824430465698 -0.0021543768234550953 0.6618897914886475
0.5650211572647095 -0.004005455411970615 0.6624107360839844
0.5666967034339905 -0.004290335811674595 0.6622584462165833
0.5708358287811279 -0.005121379159390926 0.6619539260864258
0.572507917881012 -0.005426379851996899 0.6618138551712036
0.5741262435913086 -0.005841097794473171 0.6617445349693298
0.5757999420166016 -0.006149355322122574 0.661605715751648
0.5766371488571167 -0.006303527392446995 0.6615362763404846
0.5782581567764282 -0.006718719843775034 0.6614667773246765
0.5823981761932373 -0.007598173338919878 0.6611889004707336
0.5434253215789795 0.04942271485924721 0.6356889009475708
0.5438055396080017 0.047929324209690094 0.6364502310752869
0.5441839098930359 0.04644283652305603 0.6372087001800537
0.5554236769676208 0.0168102215975523 0.6516371369361877
0.5562315583229065 0.01654091477394104 0.6516371369361877
0.556892991065979 0.013862240128219128 0.6530076265335083
0.558349072933197 0.010942486114799976 0.654364287853241
0.5586726665496826 0.009624791331589222 0.6550388336181641
0.5596344470977783 0.005708501674234867 0.6570426821708679
0.5604276061058044 0.005444073583930731 0.6570426821708679
0.5626964569091797 0.006379282101988792 0.6560999751091003
0.5624693036079407 4.48142527602613e-05 0.6596729159355164
0.5627781748771667 -0.0012233637971803546 0.6603225469589233
0.5640496015548706 -0.00426051439717412 0.6617793440818787
0.566505491733551 -0.0048057399690151215 0.6616271734237671
0.5681822299957275 -0.005091111641377211 0.6614744067192078
0.573093056678772 -0.0062097785994410515 0.6611853837966919
0.5821976065635681 -0.008121619932353497 0.6605594754219055
0.5555804967880249 0.019185509532690048 0.6492912173271179
0.5559154152870178 0.017830071970820427 0.649986982345581
0.5567256808280945 0.017559945583343506 0.649986982345581
0.5573865175247192 0.014868592843413353 0.6513683199882507
0.5580422282218933 0.012203079648315907 0.6527369022369385
0.5588451623916626 0.011935428716242313 0.6527369022369385
0.5598105788230896 0.007981722243130207 0.654768168926239
0.5601357221603394 0.006689831614494324 0.6554298400878906
0.5628886222839355 0.0066790468990802765 0.6549230813980103
0.5648513436317444 0.006931408774107695 0.6544161438941956
0.5632765889167786 -0.0002879439271055162 0.6587467789649963
0.5696103572845459 -0.006009924691170454 0.6607661247253418
0.5704444646835327 -0.006163611076772213 0.6606966257095337
0.5795361399650574 -0.008073845878243446 0.6600701212882996
0.5803749561309814 -0.008228539489209652 0.6600001454353333
0.5819973349571228 -0.008644340559840202 0.6599302291870117
0.5886982679367065 0.002307410351932049 0.6525565981864929
0.5578833818435669 0.015880927443504333 0.6497198939323425
0.5582115054130554 0.014538077637553215 0.6504122018814087
0.5585381388664246 0.013201543129980564 0.6511012315750122
0.5596670508384705 0.011604013852775097 0.6517860293388367
0.5603086948394775 0.008961804211139679 0.6531484723091125
0.5606275796890259 0.007649735547602177 0.6538252234458923
0.5630564093589783 0.0069261956959962845 0.6537770628929138
0.5648705363273621 0.006857269909232855 0.6534762382507324
0.5665783882141113 0.006556364707648754 0.6533257961273193
0.5643909573554993 -0.001890061073936522 0.6584740877151489
0.5646951198577881 -0.003153137629851699 0.6591255068778992
0.5657803416252136 -0.004671250004321337 0.659774899482727
0.5677980780601501 -0.006121802143752575 0.6602112054824829
0.5719172954559326 -0.0069936844520270824 0.6599298715591431
0.5726988911628723 -0.007254214026033878 0.6599298715591431
0.5743699073791504 -0.0075629292987287045 0.6597908735275269
0.576042115688324 -0.00787180196493864 0.6596509218215942
0.576824426651001 -0.00813258159905672 0.6596509218215942
0.5784990787506104 -0.008441613055765629 0.6595115065574646
0.5883269906044006 0.001457688515074551 0.6521188020706177
0.5583814382553101 0.01689576730132103 0.6480638980865479
0.5587113499641418 0.015550287440419197 0.648759663105011
0.5598452091217041 0.013937940821051598 0.6494537591934204
0.5601683259010315 0.012601676397025585 0.6501455307006836
0.5604904890060425 0.011272551491856575 0.6508339047431946
0.5608103275299072 0.00994822196662426 0.6515191793441772
0.568321168422699 0.00620494456961751 0.6522170901298523
0.5651987195014954 -0.0022245924919843674 0.6575482487678528
0.5662855505943298 -0.0037495167925953865 0.6582029461860657
0.5665850639343262 -0.005006914492696524 0.6588541865348816
0.5668832063674927 -0.006258572917431593 0.6595030426979065
0.5683857202529907 -0.0068992385640740395 0.6595816612243652
0.5741720199584961 -0.008085021749138832 0.6591631770133972
0.5824358463287354 -0.009844687767326832 0.6586031317710876
0.5595400929450989 0.015219155699014664 0.6477971076965332
0.5603503584861755 0.014949062839150429 0.6477971076965332
0.5606732964515686 0.013606407679617405 0.6484948396682739
0.5613148212432861 0.010940317064523697 0.6498796343803406
0.5624359846115112 0.009348181076347828 0.6505679488182068
0.5630643963813782 0.006718077231198549 0.6519350409507751
0.5647677779197693 0.00640842504799366 0.6517892479896545
0.5664170980453491 0.0059814006090164185 0.6517199873924255
0.5681175589561462 0.005659755319356918 0.6515812277793884
0.5667944550514221 -0.002821123693138361 0.6566207408905029
0.5670936107635498 -0.004084304440766573 0.6572774648666382
0.5715240240097046 -0.008037405088543892 0.6586765646934509
0.5723051428794861 -0.008297775872051716 0.6586765646934509
0.5805631875991821 -0.010048089548945427 0.6581100821495056
0.5822790861129761 -0.010284357704222202 0.6579206585884094
0.5615025162696838 0.013274391181766987 0.6475339531898499
0.5621406435966492 0.010607752948999405 0.6489247679710388
0.563260555267334 0.009015222080051899 0.6496154069900513
0.5645655989646912 0.005863727070391178 0.6511546969413757
0.5704163908958435 0.0045260898768901825 0.6508079171180725
0.5676063895225525 -0.003154478268697858 0.6556904315948486
0.5681994557380676 -0.0056771039962768555 0.6570078134536743
0.5692762732505798 -0.0071896654553711414 0.6576616764068604
0.569660484790802 -0.008249758742749691 0.658189594745636
0.5729427933692932 -0.008973094634711742 0.6579793691635132
0.5746127963066101 -0.009282426908612251 0.6578395366668701
0.5762298107147217 -0.009697473607957363 0.6577693223953247
0.5787657499313354 -0.010111541487276554 0.6575249433517456
0.5804010629653931 -0.01049842219799757 0.6574356555938721
0.5887561440467834 4.3107174860779196e-05 0.6498838067054749
0.5623325109481812 0.012941453605890274 0.6465720534324646
0.5626506805419922 0.011604859493672848 0.6472718119621277
0.5640861392021179 0.008681636303663254 0.6486610770225525
0.5643978118896484 0.007362707983702421 0.6493525505065918
0.5700948238372803 0.0037391746882349253 0.6503326296806335
0.5684189796447754 -0.0034881695173680782 0.6547589898109436
0.5687142610549927 -0.00475340848788619 0.6554226279258728
0.5700839757919312 -0.007525851018726826 0.6567391753196716
0.5703746676445007 -0.008771751075983047 0.6573925018310547
0.576055645942688 -0.01017236802726984 0.657112181186676
0.5886059403419495 -0.000387656589737162 0.6491712331771851
0.5642885565757751 0.011002224870026112 0.6463105082511902
0.5646016597747803 0.00967234093695879 0.6470097303390503
0.5660254955291748 0.006760587450116873 0.6484003067016602
0.5663332343101501 0.0054506566375494 0.6490890383720398
0.5673349499702454 0.0036644390784204006 0.6499173045158386
0.5681195855140686 0.0033693918958306313 0.649935781955719
0.5704711079597473 0.002479177201166749 0.6499971151351929
0.5692318081855774 -0.0038253276143223047 0.6538282632827759
0.5700201392173767 -0.004088094457983971 0.6538282632827759
0.5703128576278687 -0.0053507136180996895 0.654492974281311
0.5706038475036621 -0.006608891300857067 0.6551554203033447
0.5734165906906128 -0.010104292072355747 0.6566142439842224
0.5742628574371338 -0.010235936380922794 0.6565279960632324
0.5809733867645264 -0.011442424729466438 0.6559407711029053
0.5827333331108093 -0.011597532778978348 0.6556947231292725
0.5651196837425232 0.010667056776583195 0.6453491449356079
0.5665462613105774 0.00774420378729701 0.6467500329017639
0.5692603588104248 0.0017726378282532096 0.6496491432189941
0.5705575942993164 0.0006323892739601433 0.6500546932220459
0.5705413222312927 -0.003158693667501211 0.6522271037101746
0.5717031359672546 -0.008199107833206654 0.6548898816108704
0.5724866986274719 -0.00846029631793499 0.6548898816108704
0.5732995271682739 -0.010467329062521458 0.6558833122253418
0.5741021037101746 -0.010685506276786327 0.6558551788330078
0.5765860080718994 -0.011193593963980675 0.6556718349456787
0.5783023834228516 -0.01141979731619358 0.6554740071296692
0.5825908780097961 -0.0120097566395998 0.6549932956695557
0.5662625432014465 0.009002996608614922 0.6450896859169006
0.5673766136169434 0.007410112768411636 0.6457911133766174
0.5679852366447449 0.004780379123985767 0.6471847891807556
0.5682868957519531 0.003473263466730714 0.6478772163391113
0.5699804425239563 -0.0006719966186210513 0.6499329805374146
0.5702755451202393 -0.0019531315192580223 0.6506116390228271
0.571068525314331 -0.002217325149103999 0.6506116390228271
0.5716509222984314 -0.004762175027281046 0.6519615650177002
0.5719401240348816 -0.00602601608261466 0.6526319980621338
0.5722281336784363 -0.0072839162312448025 0.6532986164093018
0.5732987523078918 -0.008797826245427132 0.653963029384613
0.5798108577728271 -0.012187502346932888 0.6546627283096313
0.5806894898414612 -0.012265495024621487 0.6545396447181702
0.5682076215744019 0.007074254099279642 0.6448318362236023
0.5685109496116638 0.005756326951086521 0.6455324292182922
0.568812906742096 0.004444581922143698 0.6462301015853882
0.57021164894104 0.0015721541130915284 0.6476163864135742
0.5705077052116394 0.0002788857964333147 0.6483041048049927
0.5708023309707642 -0.001008648076094687 0.6489893794059753
0.5718892216682434 -0.0025550059508532286 0.6496715545654297
0.5721794962882996 -0.0038301770109683275 0.6503504514694214
0.5724680423736572 -0.005099866539239883 0.6510261297225952
0.5727556347846985 -0.006363843567669392 0.6516985893249512
0.5741115212440491 -0.009135960601270199 0.6530353426933289
0.5743917226791382 -0.010385893285274506 0.6537016034126282
0.5762790441513062 -0.012062094174325466 0.6543048024177551
0.5788870453834534 -0.012338131666183472 0.6539629697799683
0.5805476307868958 -0.012677032500505447 0.653839111328125
0.5823065638542175 -0.012833405286073685 0.6535911560058594
0.5888844132423401 -0.0022333646193146706 0.6462233066558838
0.5690401196479797 0.006738051772117615 0.6438709497451782
0.5701467990875244 0.005151442717760801 0.6445748209953308
0.5704452395439148 0.003840136108919978 0.6452752351760864
0.5713320374488831 -5.836819764226675e-05 0.6473568081855774
0.5721297860145569 -0.0003242831735406071 0.6473568081855774
0.5724209547042847 -0.0016115065664052963 0.648044764995575
0.5727108120918274 -0.0028928930405527353 0.6487295627593994
0.5729993581771851 -0.004168482031673193 0.6494112610816956
0.5740772485733032 -0.005701418034732342 0.6500891447067261
0.5743609666824341 -0.006964934058487415 0.6507644057273865
0.5746438503265381 -0.008222775533795357 0.6514369249343872
0.5762661099433899 -0.01222397293895483 0.6534367799758911
0.5887342691421509 -0.002663796301931143 0.6455104947090149
0.570979118347168 0.00481437286362052 0.6436154246330261
0.571864902973175 0.0008973427466116846 0.6457146406173706
0.5726650357246399 0.0006306290742941201 0.6457146406173706
0.5735335946083069 -0.003231125185266137 0.6477856636047363
0.5746132731437683 -0.004771157167851925 0.6484700441360474
0.5748972296714783 -0.006040258798748255 0.649151086807251
0.5765255093574524 -0.010077730752527714 0.6511768698692322
0.5721076130867004 0.0031647374853491783 0.6433601975440979
0.5737834572792053 -0.0010010440601035953 0.6454587578773499
0.5740713477134705 -0.0022882975172251463 0.6461512446403503
0.5754361152648926 -0.005110342986881733 0.6475279927253723
0.576278805732727 -0.008901329711079597 0.649569571018219
0.5778924822807312 -0.012903084047138691 0.6515843868255615
0.5784618258476257 -0.013572132214903831 0.6518630385398865
0.580122172832489 -0.013911090791225433 0.6517386436462402
0.5818804502487183 -0.01406860537827015 0.6514890193939209
0.5827608704566956 -0.014147465117275715 0.6513645052909851
0.572646975517273 0.004137353505939245 0.6416933536529541
0.57403564453125 0.001252712681889534 0.6431062817573547
0.5743244886398315 -4.651243216358125e-05 0.6438078284263611
0.5746119618415833 -0.0013400851748883724 0.6445068717002869
0.5748981237411499 -0.00262776599265635 0.6452028155326843
0.5759788751602173 -0.00417446019127965 0.6458953022956848
0.576260507106781 -0.005449878051877022 0.6465849280357361
0.5765406489372253 -0.0067195226438343525 0.6472705006599426
0.5776103734970093 -0.008246513083577156 0.6479536890983582
0.5781609416007996 -0.010757062584161758 0.6493114829063416
0.5784346461296082 -0.01200302504003048 0.6499854922294617
0.5799800157546997 -0.014322701841592789 0.6510382294654846
0.5745792388916016 0.0022167516872286797 0.6414417624473572
0.5762415528297424 -0.001946155563928187 0.643554151058197
0.5765241980552673 -0.003233379917219281 0.6442527174949646
0.576805591583252 -0.004514750558882952 0.6449481248855591
0.5781573057174683 -0.007323946338146925 0.6463287472724915
0.578433096408844 -0.008587397634983063 0.6470147371292114
0.5800383687019348 -0.012605365365743637 0.649053156375885
0.5824764966964722 -0.014970989897847176 0.6499625444412231
0.5898315906524658 -0.004747052676975727 0.6425418853759766
0.5754166841506958 0.001880026888102293 0.6404773592948914
0.5759887099266052 -0.0007258883561007679 0.6418961882591248
0.5767910480499268 -0.0009933722903952003 0.6418961882591248
0.577073335647583 -0.0022863668855279684 0.6426004767417908
0.5776336193084717 -0.004855115432292223 0.6439988613128662
0.5779120922088623 -0.006130538880825043 0.6446935534477234
0.5787072777748108 -0.006395593751221895 0.6446935534477234
0.5795290470123291 -0.010186907835304737 0.6467594504356384
0.5805887579917908 -0.011701123788952827 0.6474409103393555
0.5811254978179932 -0.01418637577444315 0.6487956643104553
0.5897394418716431 -0.005069728475064039 0.6417554020881653
0.5762550234794617 0.0015415438683703542 0.6395128965377808
0.5765380263328552 0.00023220213188324124 0.640228807926178
0.5779059529304504 -0.0026272053364664316 0.6416446566581726
0.5781852602958679 -0.003914450760930777 0.6423483490943909
0.5784628987312317 -0.0051961070857942104 0.6430487632751465
0.5795353651046753 -0.006737186573445797 0.6437462568283081
0.5798090696334839 -0.008006226271390915 0.6444399356842041
0.5800809264183044 -0.009270879440009594 0.6451319456100464
0.5803526639938354 -0.01052821148186922 0.6458194851875305
0.5814113020896912 -0.012042872607707977 0.6465041041374207
0.5819447636604309 -0.014527949504554272 0.6478638052940369
0.5829927325248718 -0.016023514792323112 0.6485387682914734
0.5781816840171814 -0.0003737548540811986 0.6392641663551331
0.5787398219108582 -0.0029683972243219614 0.6406877636909485
0.5790174007415771 -0.004255651030689478 0.6413941979408264
0.5800917744636536 -0.00580349238589406 0.6420976519584656
0.580365002155304 -0.007078860886394978 0.6427972912788391
0.5806370377540588 -0.008348172530531883 0.6434941291809082
0.5822349190711975 -0.012384702451527119 0.6455652117729187
0.5825004577636719 -0.01363027561455965 0.6462494134902954
0.5827646851539612 -0.014870400540530682 0.646929919719696
0.5838120579719543 -0.016365865245461464 0.6476076245307922
0.5792977213859558 -0.0020162134896963835 0.6390169858932495
0.5803772211074829 -0.0035773927811533213 0.6397295594215393
0.5806512832641602 -0.00486432109028101 0.6404381394386292
0.5809240341186523 -0.006145655643194914 0.6411442160606384
0.5822603702545166 -0.008956433273851871 0.6425468325614929
0.5825280547142029 -0.010219120420515537 0.6432433128356934
0.5841114521026611 -0.014235612004995346 0.6453119516372681
0.5894623398780823 -0.006038261111825705 0.6393928527832031
0.5798593163490295 -0.0010586829157546163 0.6373366117477417
0.5814863443374634 -0.005207112058997154 0.6394814252853394
0.5820272564888 -0.007763811387121677 0.6408956050872803
0.58282470703125 -0.008029627613723278 0.6408956050872803
0.5838853716850281 -0.01307035144418478 0.6436840295791626
0.5846756100654602 -0.013333769515156746 0.6436840295791626
0.5902960300445557 -0.006402613129466772 0.6384459137916565
0.5807008743286133 -0.0014000729424878955 0.6363693475723267
0.5817806124687195 -0.00296907895244658 0.6370907425880432
0.5820526480674744 -0.004261938855051994 0.6378083825111389
0.5823230147361755 -0.005549985449761152 0.638523519039154
0.5825923085212708 -0.0068315984681248665 0.6392350196838379
0.58365797996521 -0.008373373188078403 0.6399428844451904
0.5841876268386841 -0.010905137285590172 0.6413487195968628
0.587549090385437 -0.006375650409609079 0.6379764676094055
0.5883522033691406 -0.006643204018473625 0.6379764676094055
0.5902037620544434 -0.006726001389324665 0.637657642364502
0.5823515057563782 -0.002010949421674013 0.6354004740715027
0.582622230052948 -0.0033113204408437014 0.6361247897148132
0.583962619304657 -0.00616118311882019 0.6375640630722046
0.5842285752296448 -0.0074419076554477215 0.6382774710655212
0.5844932198524475 -0.008716932497918606 0.638988196849823
0.5837328433990479 -0.004948329646140337 0.6358816027641296
0.5845375061035156 -0.005216555204242468 0.6358816027641296
0.584802508354187 -0.006504690274596214 0.6366024017333984
0.5840412378311157 -0.0026977325323969126 0.6334598660469055
0.5843084454536438 -0.003998550120741129 0.6341897249221802
0.5856424570083618 -0.006849929224699736 0.635640025138855
0.5863801836967468 -0.007241238374263048 0.635728120803833
0.5880909562110901 -0.007582782302051783 0.6355901956558228
0.5859606862068176 -0.004612355958670378 0.6332204341888428
0.5862244963645935 -0.005904223769903183 0.6339482069015503
0.5898341536521912 -0.008020631037652493 0.6345008015632629
0.5865457057952881 -0.00365727418102324 0.6315140128135681
0.5870698690414429 -0.006248808931559324 0.6329793930053711
0.5881336331367493 -0.007806115783751011 0.6337090730667114
0.5888392329216003 -0.0082570044323802 0.6338399052619934
0.5906694531440735 -0.00838660728186369 0.6335483193397522
0.587395429611206 -0.004002339206635952 0.6305386424064636
0.5882465243339539 -0.00434833113104105 0.6295619010925293
0.5885056853294373 -0.005647175945341587 0.6303020119667053
0.589570164680481 -0.0072117275558412075 0.6310400366783142
0.5898228287696838 -0.008502271957695484 0.6317763328552246
0.5905284285545349 -0.008954486809670925 0.6319087743759155
0.5901663303375244 -0.00626370171085 0.629326581954956
0.5904184579849243 -0.007560362573713064 0.6300690770149231
0.5907649397850037 -0.005311836022883654 0.6276038289070129
0.540928840637207 0.022024592384696007 0.6777396202087402
0.5358869433403015 0.034646838903427124 0.6816847920417786
0.5355912446975708 0.0360039621591568 0.6815710067749023
0.546487033367157 0.020152049139142036 0.6776777505874634
0.5445824861526489 0.025940382853150368 0.6801183223724365
0.542437732219696 0.03216738626360893 0.6819086074829102
0.5369716286659241 0.03820229694247246 0.6822671294212341
0.5534093976020813 0.006015260703861713 0.6699219942092896
0.5542439222335815 0.014543507248163223 0.6758739948272705
0.538154661655426 0.0401977077126503 0.6819544434547424
0.5375558137893677 0.040418609976768494 0.6817143559455872
0.5356690287590027 0.04100224748253822 0.6808858513832092
0.5561347007751465 0.014010168612003326 0.6759463548660278
0.5513455271720886 0.028085805475711823 0.6818669438362122
0.5396947860717773 0.0401022732257843 0.6820999979972839
0.5558907389640808 0.02184457890689373 0.6800070405006409
0.5414137244224548 0.04019433259963989 0.6824832558631897
0.5367869734764099 0.042104776948690414 0.6807466745376587
0.53597491979599 0.04212234169244766 0.6802385449409485
0.5577933192253113 0.02136627398431301 0.68013995885849
0.5488325357437134 0.03632524237036705 0.683986246585846
0.5473243594169617 0.038049619644880295 0.6841249465942383
0.5406908392906189 0.04109754040837288 0.6818258762359619
0.5383753180503845 0.042047686874866486 0.6809502243995667
0.5446377992630005 0.0401909239590168 0.6830064058303833
0.5401054620742798 0.04213932156562805 0.6813446879386902
0.5469093918800354 0.04006446525454521 0.6836190223693848
0.5422306060791016 0.04182494059205055 0.6817368865013123
0.555083155632019 0.03381720930337906 0.6840964555740356
0.5489862561225891 0.039754122495651245 0.6839929819107056
0.5433109998703003 0.04209689423441887 0.6818373799324036
0.5389474630355835 0.04343104362487793 0.6798779964447021
0.5370519757270813 0.044003114104270935 0.6790220141410828
0.5652064681053162 0.0061470093205571175 0.6719473004341125
0.5500757098197937 0.04006310552358627 0.684132993221283
0.5450135469436646 0.04218987748026848 0.6822288632392883
0.5444008111953735 0.04238190874457359 0.681955873966217
0.5400183200836182 0.043679311871528625 0.6799546480178833
0.5389319062232971 0.04422703757882118 0.67960524559021
0.5604373216629028 0.030416158959269524 0.6838312745094299
0.5465005040168762 0.04207270219922066 0.6823478937149048
0.5403922200202942 0.04405103996396065 0.6796611547470093
0.5369060039520264 0.04468338564038277 0.6778046488761902
0.5510230660438538 0.04103340208530426 0.6838493347167969
0.5481854677200317 0.04216671735048294 0.6827374696731567
0.5462902188301086 0.04266650602221489 0.6818268895149231
0.5428191423416138 0.04403303191065788 0.6804538369178772
0.5699711441993713 0.017825277522206306 0.6802955865859985
0.5548493266105652 0.04015422239899635 0.6850112080574036
0.5524685382843018 0.04090426489710808 0.6839441061019897
0.5424656867980957 0.04449082911014557 0.6797460317611694
0.5384514927864075 0.04538923501968384 0.6777071952819824
0.5720598697662354 0.00622550118714571 0.673278272151947
0.5707618594169617 0.008364615961909294 0.6738300919532776
0.5696825385093689 0.014577444642782211 0.6771986484527588
0.5589454770088196 0.03880339860916138 0.6860498189926147
0.556312084197998 0.04006403684616089 0.6851489543914795
0.551324188709259 0.04214375466108322 0.6832407712936401
0.5483773350715637 0.043163709342479706 0.6819762587547302
0.5453118681907654 0.04410241171717644 0.6805808544158936
0.5368865728378296 0.04549703001976013 0.675967276096344
0.570095956325531 0.010285325348377228 0.6738613843917847
0.5698981285095215 0.012891706079244614 0.6754464507102966
0.5721911191940308 0.020547235384583473 0.6819931864738464
0.5611095428466797 0.03785036504268646 0.6860874891281128
0.5529802441596985 0.04223676398396492 0.6836243271827698
0.547032356262207 0.04421968013048172 0.6810150146484375
0.5449274778366089 0.04452383518218994 0.6798301339149475
0.5409052968025208 0.04537869989871979 0.6777457594871521
0.5367308855056763 0.046161260455846786 0.675513744354248
0.5744403600692749 0.004388594068586826 0.672042727470398
0.570037305355072 0.0120429378002882 0.674188494682312
0.5544301271438599 0.042121075093746185 0.6837388277053833
0.5484479069709778 0.04403602331876755 0.6810545921325684
0.5407527685165405 0.046039365231990814 0.6772983074188232
0.539986252784729 0.046096596866846085 0.6768302321434021
0.5384097099304199 0.04617762565612793 0.6758432388305664
0.5751290321350098 0.004257513675838709 0.6716130375862122
0.5730108618736267 0.006266634911298752 0.6715406775474548
0.5719069838523865 0.0077004157938063145 0.6717591881752014
0.5716016888618469 0.008262298069894314 0.6719288229942322
0.5701588988304138 0.012123165652155876 0.6735294461250305
0.5653446912765503 0.03587408363819122 0.6860628128051758
0.5566568970680237 0.04202546551823616 0.6843841075897217
0.5512191653251648 0.04363401234149933 0.6818496584892273
0.5508200526237488 0.04403321072459221 0.6818496584892273
0.54697185754776 0.044961266219615936 0.6799169778823853
0.5429366230964661 0.04577336832880974 0.677783727645874
0.5751152634620667 0.024111725389957428 0.6839825510978699
0.5625684261322021 0.04023291543126106 0.6863551735877991
0.5619800686836243 0.040405746549367905 0.686079204082489
0.5564669370651245 0.04262400045990944 0.6838923096656799
0.5522382259368896 0.04387068748474121 0.681912899017334
0.5484020709991455 0.04479006305336952 0.6799768209457397
0.5431899428367615 0.046026602387428284 0.6773379445075989
0.5404172539710999 0.046529486775398254 0.6758313775062561
0.5377342104911804 0.04635074734687805 0.673931896686554
0.576542317867279 0.004047018941491842 0.67081218957901
0.5722851157188416 0.008033488877117634 0.6706319451332092
0.5709751844406128 0.010157879441976547 0.671174168586731
0.5624182820320129 0.04086698219180107 0.6859200596809387
0.5597066283226013 0.042003605514764786 0.6848716735839844
0.5532347559928894 0.04408683255314827 0.6819503903388977
0.5453577637672424 0.04576157033443451 0.6778215765953064
0.5449540019035339 0.04616541787981987 0.6778215765953064
0.5744882225990295 0.0060440171509981155 0.669972836971283
0.5736466646194458 0.006857247557491064 0.6699538826942444
0.5723891854286194 0.03210406377911568 0.6859685182571411
0.5661249160766602 0.040030092000961304 0.687078058719635
0.5607336163520813 0.04228227585554123 0.6849822998046875
0.5582551956176758 0.042871613055467606 0.683721125125885
0.5549066066741943 0.04420258849859238 0.6823742985725403
0.5542278289794922 0.0443023219704628 0.6819878220558167
0.5463604927062988 0.045957282185554504 0.6778404712677002
0.5428176522254944 0.04647296667098999 0.6758196353912354
0.539097785949707 0.046876877546310425 0.6736060380935669
0.5770295858383179 0.004527647979557514 0.6698555946350098
0.5755895972251892 0.00549433333799243 0.6695388555526733
0.5726713538169861 0.00837749894708395 0.6695153713226318
0.5642658472061157 0.04122013598680496 0.6858757138252258
0.5621212720870972 0.042138416320085526 0.6850547194480896
0.5562891364097595 0.04402145370841026 0.6824108958244324
0.5507097244262695 0.045512475073337555 0.6796736717224121
0.5488470196723938 0.04603929445147514 0.6787793636322021
0.5473594665527344 0.04615204408764839 0.6778590679168701
0.5400948524475098 0.047043874859809875 0.6735925674438477
0.5787553787231445 0.0038688983768224716 0.6697688698768616
0.5782110691070557 0.004095636773854494 0.6695553660392761
0.5719457268714905 0.010232934728264809 0.6694695353507996
0.5800501108169556 0.02482295222580433 0.6847068071365356
0.5690724849700928 0.04000913351774216 0.6875324845314026
0.5643140077590942 0.04207362234592438 0.6857237219810486
0.5602591037750244 0.04336331784725189 0.6838672757148743
0.5586076378822327 0.04403345659375191 0.6832084655761719
0.5483494400978088 0.046340443193912506 0.6778697967529297
0.5447904467582703 0.04681446775794029 0.6757984757423401
0.5384502410888672 0.047078169882297516 0.6717185974121094
0.5811835527420044 0.0022102701477706432 0.6694836616516113
0.5721314549446106 0.010396112687885761 0.6689004898071289
0.580053448677063 0.023835642263293266 0.6832838654518127
0.5569397211074829 0.044682834297418594 0.6817578673362732
0.5530857443809509 0.04551636055111885 0.6797240972518921
0.5512230396270752 0.04602659121155739 0.6788133978843689
0.5461714267730713 0.04657551646232605 0.6757816076278687
0.5424870252609253 0.046968985348939896 0.6735656261444092
0.581280529499054 0.00018211848509963602 0.6673759818077087
0.5804589986801147 0.004085923545062542 0.6694572567939758
0.5762799382209778 0.006158342584967613 0.6680348515510559
0.5754057168960571 0.0069264015182852745 0.6679631471633911
0.5740943551063538 0.008080367930233479 0.6678569316864014
0.5736792683601379 0.008495585061609745 0.6678569316864014
0.580232560634613 0.02490975521504879 0.683366060256958
0.5717240571975708 0.04051400348544121 0.6881576180458069
0.5672827363014221 0.042049963027238846 0.6861957311630249
0.5666795969009399 0.04219440370798111 0.6858859658241272
0.560948371887207 0.04407171159982681 0.6832837462425232
0.5540615320205688 0.04570982977747917 0.6797393560409546
0.5529359579086304 0.046163640916347504 0.6792857050895691
0.5507035851478577 0.04629860818386078 0.6778693199157715
0.5405794978141785 0.04753720015287399 0.6718692779541016
0.5373228788375854 0.04763328656554222 0.6697351336479187
0.5817517638206482 -0.0013129725120961666 0.6658734679222107
0.5780042409896851 0.0054893577471375465 0.667942225933075
0.5774804949760437 0.0057486663572490215 0.6677629947662354
0.5769690871238708 0.006026807706803083 0.6676050424575806
0.5728087425231934 0.010159843601286411 0.6675865650177002
0.5799763798713684 0.02631458453834057 0.6833805441856384
0.58002108335495 0.027278194203972816 0.6840633153915405
0.5800654292106628 0.0282366294413805 0.684742271900177
0.5766188502311707 0.03617005795240402 0.6877809166908264
0.5682574510574341 0.0422983281314373 0.6862686276435852
0.562964677810669 0.04379473626613617 0.6836978197097778
0.5625735521316528 0.04418599233031273 0.6836978197097778
0.558914065361023 0.045126501470804214 0.6818565130233765
0.5481145977973938 0.04690583795309067 0.6757481098175049
0.5444576740264893 0.047300659120082855 0.6735389828681946
0.5385937094688416 0.04805190861225128 0.6700766086578369
0.5816773176193237 -0.005764208734035492 0.6619865894317627
0.5817644000053406 -0.003515135496854782 0.663573145866394
0.5814763903617859 0.00022889213869348168 0.6659202575683594
0.5815473794937134 0.0023915001656860113 0.6674370765686035
0.5719937086105347 0.011894073337316513 0.6674023866653442
0.5800670981407166 0.02635897323489189 0.6827090978622437
0.5802439451217651 0.03018658608198166 0.6854286193847656
0.5798559188842773 0.030574660748243332 0.6854286193847656
0.5680220723152161 0.04282640665769577 0.6857125759124756
0.5602717399597168 0.04493499919772148 0.6818809509277344
0.5567225813865662 0.046039123088121414 0.6802204847335815
0.5560033917427063 0.04609484225511551 0.6797698140144348
0.5552801489830017 0.04614897817373276 0.679315447807312
0.5526310205459595 0.04664371535181999 0.6778523325920105
0.5429731011390686 0.047460585832595825 0.6718481183052063
0.5391947031021118 0.04783308878540993 0.6695350408554077
0.5387834310531616 0.048244427889585495 0.6695350408554077
0.5377212762832642 0.04803657904267311 0.6686724424362183
0.5806586742401123 0.005049306433647871 0.6678337454795837
0.5721797347068787 0.012057933025062084 0.6668322086334229
0.5804975628852844 0.025027748197317123 0.6813308596611023
0.580247163772583 0.028329147025942802 0.683408796787262
0.5797750353813171 0.03567146882414818 0.6880879998207092
0.5661817193031311 0.04402368888258934 0.6845183968544006
0.5655426383018494 0.04413299635052681 0.6841574311256409
0.5649024844169617 0.044243454933166504 0.6837968826293945
0.5573651194572449 0.045890651643276215 0.6797850728034973
0.5504471063613892 0.046832337975502014 0.6757146716117859
0.5468205809593201 0.047225307673215866 0.6735124588012695
0.5427272915840149 0.04803279787302017 0.6712744832038879
0.5418980717658997 0.04803222417831421 0.6707093119621277
0.5402402877807617 0.048041488975286484 0.6695866584777832
0.5822582244873047 -0.007287844084203243 0.6596925854682922
0.5820056796073914 -0.0023576240055263042 0.6628877520561218
0.5820480585098267 -0.0012464334722608328 0.6636755466461182
0.5816295146942139 -0.0008279301109723747 0.6636755466461182
0.5793404579162598 0.006068449933081865 0.6668224334716797
0.5763264894485474 0.00781306717544794 0.6659556031227112
0.5758715867996216 0.00817293580621481 0.6658905744552612
0.5737256407737732 0.010155485942959785 0.6657788157463074
0.5806424021720886 0.026055773720145226 0.6813635230064392
0.5801243782043457 0.03255597874522209 0.6854496002197266
0.5621887445449829 0.0453377366065979 0.681929349899292
0.5590399503707886 0.04602670297026634 0.6802493333816528
0.5583232641220093 0.04607808217406273 0.6797947287559509
0.5549437403678894 0.046588554978370667 0.6778351068496704
0.5449445247650146 0.0477910190820694 0.6718267202377319
0.5383118391036987 0.048622824251651764 0.6678647398948669
0.5822741985321045 -0.009566356427967548 0.6573129892349243
0.5819772481918335 -0.005709437653422356 0.6597515344619751
0.582020103931427 -0.004578696563839912 0.6605553030967712
0.5820626020431519 -0.0034544006921350956 0.6613546013832092
0.5817713141441345 0.0002993758243974298 0.6637264490127563
0.5818564295768738 0.0024903351441025734 0.6652854084968567
0.5784559845924377 0.006711331661790609 0.6658475399017334
0.5765568614006042 0.008034965954720974 0.6654532551765442
0.5725522041320801 0.012386114336550236 0.6656906008720398
0.5805525183677673 0.024023713544011116 0.6791422367095947
0.5805159211158752 0.030329987406730652 0.6834368109703064
