ply
format ascii 1.0
element vertex 818
property float x
property float y
property float z
end_header
0.6604633331298828 -0.0007112089078873396 0.6429067850112915
0.6629219055175781 -0.00012912359670735896 0.6421274542808533
0.6649926900863647 -0.0001160533502115868 0.6417372226715088
0.5310851335525513 0.041858404874801636 0.6421979665756226
0.5339676737785339 0.03954646736383438 0.6429508328437805
0.536213755607605 0.0380646176636219 0.6433591246604919
0.537044107913971 0.03778783977031708 0.6433591246604919
0.5389457941055298 0.03785647824406624 0.6429677605628967
0.5446907877922058 0.03809124976396561 0.6417693495750427
0.5465633273124695 0.03803979605436325 0.641450047492981
0.5512708425521851 0.0449499785900116 0.6367238759994507
0.5537112951278687 0.04384862259030342 0.6368840336799622
0.6153245568275452 0.0036845323629677296 0.6478241086006165
0.6161428093910217 0.0034117831382900476 0.6478241086006165
0.6153188943862915 0.00035177110112272203 0.6496829390525818
0.6128520369529724 -0.0054666996002197266 0.6533842086791992
0.6129721403121948 -0.008496886119246483 0.6550504565238953
0.6160128712654114 -0.008225053548812866 0.654334306716919
0.6171376705169678 -0.007955175824463367 0.6539749503135681
0.6182656288146973 -0.007684370037168264 0.653614342212677
0.6255605220794678 -0.006860228255391121 0.6517998576164246
0.6267065405845642 -0.0065863607451319695 0.6514337658882141
0.629007875919342 -0.00603661360219121 0.6507000923156738
0.6309739351272583 -0.006031207274645567 0.6503318548202515
0.6321326494216919 -0.005754971876740456 0.6499624848365784
0.6387864351272583 -0.004636154510080814 0.6481029391288757
0.6399632096290588 -0.004356127232313156 0.6477276682853699
0.6407817602157593 -0.004628963302820921 0.6477276682853699
0.6431463956832886 -0.004067499656230211 0.6469752788543701
0.6443333625793457 -0.0037857198622077703 0.646598219871521
0.6497794985771179 0.002927645342424512 0.6418440341949463
0.6506139039993286 0.002649498637765646 0.6418440341949463
0.6518517136573792 0.0014488475862890482 0.6422833800315857
0.6539126634597778 -3.4271037293365225e-05 0.6427274346351624
0.6555956602096558 -0.002057729521766305 0.6435420513153076
0.6576423645019531 -0.002047901973128319 0.6431567668914795
0.6613113880157471 -0.0011820622021332383 0.6419923901557922
0.6625409722328186 -0.0008919874089770019 0.6416022181510925
0.6670863628387451 -0.00029618109692819417 0.6404253840446472
0.5301178097724915 0.04173363745212555 0.6414278149604797
0.5381937623023987 0.03828444331884384 0.6418516635894775
0.540101170539856 0.038353241980075836 0.6414574384689331
0.5429649353027344 0.03843969479203224 0.6408754587173462
0.5487311482429504 0.04574071243405342 0.6357172727584839
0.5503779053688049 0.045048024505376816 0.635797917842865
0.5551549792289734 0.04492170736193657 0.6349777579307556
0.6173579096794128 0.0019772329833358526 0.647398829460144
0.6134700775146484 -0.006220489740371704 0.6527081727981567
0.6141213178634644 -0.006742620375007391 0.6528785824775696
0.6156826615333557 -0.008949982933700085 0.6538216471672058
0.6168066263198853 -0.008680778555572033 0.6534615159034729
0.618735134601593 -0.008678794838488102 0.6531013250350952
0.6209981441497803 -0.008138579316437244 0.6523773074150085
0.6232722997665405 -0.00759572209790349 0.6516497135162354
0.630628228187561 -0.0067676035687327385 0.6498150825500488
0.6329456567764282 -0.006216682493686676 0.6490755081176758
0.6349223852157593 -0.0062114824540913105 0.6487035751342773
0.6372593641281128 -0.005657143425196409 0.6479582786560059
0.6502861976623535 0.0019507224205881357 0.6412752270698547
0.6521328687667847 0.00014085386646911502 0.641943097114563
0.6584862470626831 -0.002518142806366086 0.6422457098960876
0.6597076654434204 -0.00223071058280766 0.6418573260307312
0.529836893081665 0.04092993959784508 0.6409109830856323
0.5312063694000244 0.03957506641745567 0.6414146423339844
0.5328097939491272 0.038861263543367386 0.64151531457901
0.5347040295600891 0.038921110332012177 0.6411277055740356
0.5366070866584778 0.0389910489320755 0.6407327651977539
0.540402352809906 0.039067044854164124 0.6399800181388855
0.5422716736793518 0.039016228169202805 0.6396589875221252
0.5443472266197205 0.039473455399274826 0.6390145421028137
0.5478363037109375 0.045839060097932816 0.6347901225090027
0.551875650882721 0.0439167357981205 0.6351132392883301
0.6133641004562378 -0.006572982296347618 0.6519419550895691
0.6206632256507874 -0.00886615552008152 0.6518635749816895
0.6229348182678223 -0.008325481787323952 0.6511353254318237
0.6248809099197388 -0.00832290854305029 0.6507699489593506
0.6260247230529785 -0.008051247335970402 0.6504034996032715
0.6283206939697266 -0.0075060599483549595 0.6496680378913879
0.6357384920120239 -0.006673783529549837 0.6478140950202942
0.6369068026542664 -0.00639767199754715 0.6474407315254211
0.6380784511566162 -0.006120320409536362 0.6470658779144287
0.6400700807571411 -0.006114982534199953 0.646690845489502
0.6424293518066406 -0.005558210425078869 0.6459370255470276
0.64480060338974 -0.004998238757252693 0.6451793313026428
0.6468135118484497 -0.00499019306153059 0.6447976231575012
0.6511249542236328 -5.0897560868179426e-05 0.641220211982727
0.6519365310668945 -0.0018706988776102662 0.6420894861221313
0.6527661681175232 -0.0021472519729286432 0.6420894861221313
0.6605545878410339 -0.0027015770319849253 0.640944242477417
0.662614643573761 -0.002691517351195216 0.6405527591705322
0.5348979830741882 0.03938579931855202 0.6398096680641174
0.5368080735206604 0.03946620970964432 0.6394060254096985
0.5386729836463928 0.03941617161035538 0.6390842199325562
0.5417757630348206 0.04010312631726265 0.6381155848503113
0.5461409687995911 0.04634808376431465 0.6337808966636658
0.5469403266906738 0.04593762382864952 0.633861780166626
0.614677369594574 -0.007773499470204115 0.651387095451355
0.613905668258667 -0.010662059299647808 0.6531583070755005
0.6150243878364563 -0.01039606798440218 0.652798593044281
0.61614590883255 -0.01012915838509798 0.6524383425712585
0.6180703639984131 -0.010128791444003582 0.6520764827728271
0.619198203086853 -0.009861180558800697 0.6517146825790405
0.6256842613220215 -0.008782314136624336 0.6498895287513733
0.6268296241760254 -0.00851108692586422 0.6495223641395569
0.6287865042686462 -0.00850873813033104 0.6491537690162659
0.6334109902381897 -0.007415786851197481 0.6476706266403198
0.6408916711807251 -0.006579597946256399 0.6457964777946472
0.6420713067054749 -0.006301927845925093 0.6454182863235474
0.6452608108520508 -0.006017808336764574 0.6446601748466492
0.6476441621780396 -0.005456461105495691 0.6438966989517212
0.6488392949104309 -0.005176219157874584 0.6435147523880005
0.6500374674797058 -0.004895420279353857 0.6431318521499634
0.6520652174949646 -0.0048882076516747475 0.6427472233772278
0.6544793248176575 -0.0043226322159171104 0.6419763565063477
0.6565201878547668 -0.004314671736210585 0.6415887475013733
0.5278083086013794 0.04041728749871254 0.6395398378372192
0.5286406874656677 0.0401398129761219 0.6395398378372192
0.5295060276985168 0.039952442049980164 0.6394821405410767
0.5304538607597351 0.03998812288045883 0.639284074306488
0.5314028859138489 0.04002384841442108 0.6390851736068726
0.5323531627655029 0.04005947336554527 0.638886034488678
0.5331873297691345 0.03978141397237778 0.638886034488678
0.5361064076423645 0.0400441475212574 0.6381880640983582
0.5371362566947937 0.04027360677719116 0.6378645300865173
0.537973165512085 0.03999463468790054 0.6378645300865173
0.5390061736106873 0.04022413492202759 0.6375402808189392
0.5400412082672119 0.040454261004924774 0.6372154355049133
0.5435925722122192 0.04714122787117958 0.6327701210975647
0.5443933606147766 0.04673026502132416 0.6328513622283936
0.6136652827262878 -0.008032551035284996 0.6507395505905151
0.6144676804542542 -0.008300013840198517 0.6507395505905151
0.6158158183097839 -0.010851792991161346 0.6519270539283752
0.6169387698173523 -0.01058531180024147 0.6515655517578125
0.6188650727272034 -0.010585498996078968 0.6512024998664856
0.6211265921592712 -0.010050485841929913 0.6504749655723572
0.6230650544166565 -0.010050022043287754 0.6501097679138184
0.6307477951049805 -0.008697367273271084 0.6478995680809021
0.6330627202987671 -0.008152041584253311 0.6471553444862366
0.6350378394126892 -0.008148959837853909 0.6467815637588501
0.6385442018508911 -0.007324619218707085 0.6456562280654907
0.6460887789726257 -0.006483348552137613 0.6437604427337646
0.6529017686843872 -0.005356404464691877 0.641841471195221
0.6585788726806641 -0.004501156508922577 0.6402896046638489
0.6597996950149536 -0.004216244909912348 0.6398987770080566
0.5306405425071716 0.040455348789691925 0.6379613876342773
0.5325433611869812 0.040527116507291794 0.6375610828399658
0.5343741178512573 0.040394313633441925 0.637290358543396
0.5418921709060669 0.04765215516090393 0.6317574977874756
0.5426937341690063 0.04724043607711792 0.6318398118019104
0.5459464192390442 0.04572374373674393 0.6320849657058716
0.547838568687439 0.04806335270404816 0.630401611328125
0.6207913756370544 -0.010776297189295292 0.6499635577201843
0.6227283477783203 -0.010776723735034466 0.6495978236198425
0.6250055432319641 -0.010240613482892513 0.6488639116287231
0.6292505264282227 -0.009700988419353962 0.6477566957473755
0.6358527541160583 -0.008612120524048805 0.6458925008773804
0.6370204091072083 -0.008338414132595062 0.6455167531967163
0.6381909847259521 -0.008063753135502338 0.6451398730278015
0.6401802897453308 -0.008060822263360023 0.6447625160217285
0.6437205672264099 -0.007232542149722576 0.6436243057250977
0.644540011882782 -0.007505693938583136 0.6436243057250977
0.6481102705001831 -0.006671389564871788 0.6424775719642639
0.6501296758651733 -0.006666981615126133 0.6420935392379761
0.6513294577598572 -0.006387132685631514 0.6417083740234375
0.6525326371192932 -0.0061065866611897945 0.6413220167160034
0.5280907154083252 0.041129812598228455 0.6370354294776917
0.5346966981887817 0.041205089539289474 0.6357408165931702
0.5367619395256042 0.04166810214519501 0.6350866556167603
0.5401397347450256 0.04803533852100372 0.630826473236084
0.5441977977752686 0.04610561951994896 0.631154477596283
0.5450484752655029 0.04582204669713974 0.631154477596283
0.6146830320358276 -0.009897478856146336 0.6496357321739197
0.6153170466423035 -0.010442156344652176 0.6498255729675293
0.615157961845398 -0.01229358185082674 0.6509078145027161
0.6162781715393066 -0.012029238045215607 0.6505452990531921
0.6182012557983398 -0.012031182646751404 0.6501818895339966
0.6193276643753052 -0.01176615059375763 0.6498177647590637
0.6258081793785095 -0.010700036771595478 0.6479833126068115
0.6269526481628418 -0.010431435890495777 0.6476141810417175
0.6289072036743164 -0.010431436821818352 0.6472432613372803
0.6300582885742188 -0.010161847807466984 0.646872341632843
0.6410011053085327 -0.008525742217898369 0.6438681483268738
0.6421800255775452 -0.00825077947229147 0.643488883972168
0.6441807746887207 -0.00824779737740755 0.6431079506874084
0.6477468013763428 -0.007416907697916031 0.641959547996521
0.6489408016204834 -0.007139404304325581 0.6415755748748779
0.6545765399932861 -0.006295006722211838 0.6400272250175476
0.5300676822662354 0.04137376323342323 0.6354938745498657
0.5321200489997864 0.04183638468384743 0.6348400712013245
0.5331488251686096 0.0420679897069931 0.6345117688179016
0.5350207090377808 0.042020224034786224 0.6341829895973206
0.5384342670440674 0.04854718968272209 0.6298115849494934
0.5400407910346985 0.04772282764315605 0.6299760341644287
0.6178696155548096 -0.01275267917662859 0.6496727466583252
0.6189952492713928 -0.012488726526498795 0.6493086218833923
0.6201234459877014 -0.01222413219511509 0.6489431262016296
0.6220564842224121 -0.012226313352584839 0.6485768556594849
0.6308666467666626 -0.010623559355735779 0.645987331867218
0.6320221424102783 -0.010353471152484417 0.6456140279769897
0.6351532340049744 -0.010082565248012543 0.6448641419410706
0.6394713521003723 -0.009537836536765099 0.6437322497367859
0.6461932063102722 -0.008438783697783947 0.6418277025222778
0.6493989825248718 -0.00815901905298233 0.6410580277442932
0.6529998779296875 -0.007324273232370615 0.6398976445198059
0.5303798913955688 0.04218799248337746 0.6339383721351624
0.5324377417564392 0.04265344515442848 0.6332793235778809
0.5391387939453125 0.04782259836792946 0.6290430426597595
0.6145017743110657 -0.01373122539371252 0.6498918533325195
0.622855007648468 -0.012684873305261135 0.6476999521255493
0.6251299977302551 -0.012153969146311283 0.6469621062278748
0.6270771622657776 -0.012156073935329914 0.6465914249420166
0.6293708086013794 -0.011622064746916294 0.6458481550216675
0.6359673142433167 -0.010546024888753891 0.6439744830131531
0.6371339559555054 -0.010274712927639484 0.6435965895652771
0.6391178369522095 -0.010274525731801987 0.6432185173034668
0.6402907967567444 -0.010002478025853634 0.6428385376930237
0.6446462869644165 -0.0094553017988801 0.641694962978363
0.6502301692962646 -0.008627197705209255 0.6401551961898804
0.6514292359352112 -0.008350096642971039 0.6397683620452881
0.6146886944770813 -0.012014647014439106 0.6478888988494873
0.6152910590171814 -0.01418736856430769 0.6490211486816406
0.6160881519317627 -0.014453104697167873 0.6490211486816406
0.6194571256637573 -0.01366764772683382 0.6479253172874451
0.6205857396125793 -0.013404559344053268 0.6475587487220764
0.627880871295929 -0.012616904452443123 0.645709753036499
0.6290281414985657 -0.012350324541330338 0.6453375816345215
0.6301780343055725 -0.012083364650607109 0.6449641585350037
0.6321395039558411 -0.012085391208529472 0.6445900201797485
0.641110897064209 -0.010467562824487686 0.6419439911842346
0.6422886848449707 -0.010195435024797916 0.6415627598762512
0.6442872881889343 -0.01019514910876751 0.6411799788475037
0.6180003881454468 -0.014649047516286373 0.6477839350700378
0.6202520132064819 -0.014125636778771877 0.6470500826835632
0.6221835017204285 -0.014130134135484695 0.6466822624206543
0.6244534254074097 -0.013603686355054379 0.6459431052207947
0.6329494118690491 -0.012547696009278297 0.6437038779258728
0.6341071128845215 -0.012280188500881195 0.643326997756958
0.637243926525116 -0.012013977393507957 0.6425713300704956
0.639582097530365 -0.011475150473415852 0.6418119072914124
0.6462979912757874 -0.010388868860900402 0.6398975849151611
0.6139650344848633 -0.013566398993134499 0.6469507217407227
0.6145000457763672 -0.014267411082983017 0.6472530961036682
0.6165491938591003 -0.01562688685953617 0.6476438045501709
0.6229807734489441 -0.0145895229652524 0.6458051800727844
0.6241161823272705 -0.01432671770453453 0.6454344987869263
0.6260576248168945 -0.01433146558701992 0.6450633406639099
0.6294911503791809 -0.013539053499698639 0.6439444422721863
0.6306414008140564 -0.013273624703288078 0.6435694098472595
0.6380597949028015 -0.012478318996727467 0.6416805386543274
0.6154161095619202 -0.01609012298285961 0.6471469402313232
0.6162205338478088 -0.01634264551103115 0.6471380591392517
0.6215139627456665 -0.015571228228509426 0.6456676721572876
0.6280025243759155 -0.014528823085129261 0.6438097357749939
0.6302977204322815 -0.01400078646838665 0.6430604457855225
0.6322571635246277 -0.014005160890519619 0.6426838040351868
0.634570837020874 -0.01347360946238041 0.6419284343719482
0.6365432143211365 -0.013477358967065811 0.6415493488311768
0.6400469541549683 -0.012674421072006226 0.6404070258140564
0.6414133310317993 -0.012115743942558765 0.6398189067840576
0.6422289609909058 -0.012387625873088837 0.6398189067840576
0.6137502193450928 -0.015857907012104988 0.646351158618927
0.6181309819221497 -0.016541697084903717 0.6458994746208191
0.620053231716156 -0.01654910482466221 0.6455309987068176
0.6223101615905762 -0.0160302072763443 0.6447916030883789
0.6265201568603516 -0.015514708124101162 0.6436759233474731
0.6330664753913879 -0.014467626810073853 0.6417974829673767
0.6342231631278992 -0.014202752150595188 0.6414186358451843
0.6361936330795288 -0.014207535423338413 0.6410397887229919
0.639208972454071 -0.012638919986784458 0.6395428776741028
0.613376259803772 -0.016650890931487083 0.6459009051322937
0.613871157169342 -0.017409292981028557 0.6462472677230835
0.6166811585426331 -0.017514588311314583 0.6457625031471252
0.6231070160865784 -0.016489339992403984 0.6439141035079956
0.6242413520812988 -0.016229385510087013 0.6435422301292419
0.6261809468269348 -0.0162364449352026 0.643168568611145
0.6315675973892212 -0.015457711182534695 0.6416667103767395
0.6365854144096375 -0.012297817505896091 0.6388468146324158
0.6133862733840942 -0.018382854759693146 0.6459285020828247
0.6141799688339233 -0.0186473298817873 0.6459285020828247
0.6163525581359863 -0.01822822354733944 0.6452586054801941
0.6216418147087097 -0.017466340214014053 0.6437807679176331
0.628124475479126 -0.016436560079455376 0.6419126987457275
0.6300746202468872 -0.016443893313407898 0.6415364742279053
0.6345025897026062 -0.01264954824000597 0.6384508013725281
0.6182615160942078 -0.018429826945066452 0.6440179944038391
0.6201819181442261 -0.018439514562487602 0.6436476111412048
0.6266429424285889 -0.01741795241832733 0.6417831182479858
0.6311913132667542 -0.013383436016738415 0.638522744178772
0.6320025324821472 -0.013653707690536976 0.638522744178772
0.6168131828308105 -0.019398069009184837 0.64388507604599
0.6187278032302856 -0.019408896565437317 0.6435149312019348
0.6222648620605469 -0.018384791910648346 0.6422169804573059
0.6238285303115845 -0.017444871366024017 0.6413560509681702
0.6246304512023926 -0.01771218702197075 0.6413560509681702
0.6267614960670471 -0.015894463285803795 0.6398661136627197
0.6289204955101013 -0.014048348180949688 0.6383548378944397
0.6177749037742615 -0.014900393784046173 0.6400498151779175
0.620603621006012 -0.018136104568839073 0.6414051055908203
0.6241973638534546 -0.015509530901908875 0.6391439437866211
0.6263435482978821 -0.013661352917551994 0.6376286745071411
0.6196786165237427 -0.013570467010140419 0.6378867030143738
0.6189427971839905 -0.01632765121757984 0.639667272567749
0.6204613447189331 -0.017001019790768623 0.6397662162780762
0.6224393248558044 -0.01539294421672821 0.6384216547012329
0.6245768070220947 -0.013544291257858276 0.636902928352356
0.6287152767181396 -0.008541959337890148 0.6331184506416321
0.6223756670951843 -0.010978166945278645 0.6348063349723816
0.6225311160087585 -0.012305567972362041 0.6355654001235962
0.6262058019638062 -0.00957388337701559 0.6332116723060608
0.5731272101402283 0.02400488220155239 0.6997586488723755
0.573617696762085 0.02190946415066719 0.6980316638946533
0.5739848017692566 0.019624046981334686 0.6961013078689575
0.574659526348114 0.02407340705394745 0.6993024945259094
0.5703168511390686 0.028203856199979782 0.6991699934005737
0.5756716132164001 0.02258128486573696 0.6975437998771667
0.5742281675338745 0.026029862463474274 0.6988037824630737
0.567919909954071 0.03203299269080162 0.6986120939254761
0.5726333856582642 0.028315700590610504 0.6985108852386475
0.5706644058227539 0.030190948396921158 0.6984519362449646
0.5686947107315063 0.032067153602838516 0.698392927646637
0.5764220356941223 0.016069302335381508 0.6916905641555786
0.5784831643104553 0.0242635365575552 0.698191225528717
0.5765198469161987 0.026133770123124123 0.6981321573257446
0.5745557546615601 0.02800508216023445 0.6980733275413513
0.5721955299377441 0.030249161645770073 0.6979996562004089
0.571810781955719 0.030634023249149323 0.6979996562004089
0.5698443651199341 0.03250724822282791 0.6979406476020813
0.5678770542144775 0.03438115864992142 0.6978815197944641
0.5791096687316895 0.024123547598719597 0.697771430015564
0.5776790976524353 0.025801558047533035 0.697928786277771
0.5772846937179565 0.02617274597287178 0.6979140043258667
0.5757169127464294 0.02767097018659115 0.6978698372840881
0.573753833770752 0.02954137697815895 0.6978110074996948
0.5690346360206604 0.03402849659323692 0.6976633071899414
0.5791164636611938 0.02226109430193901 0.6958585977554321
0.5760876536369324 0.028079688549041748 0.6976372599601746
0.5744981169700623 0.030355246737599373 0.6973461508750916
0.5725375413894653 0.032223764806985855 0.6972872614860535
0.5705758929252625 0.034093037247657776 0.6972283720970154
0.5795213580131531 0.01807807944715023 0.6919645071029663
0.5810178518295288 0.022842081263661385 0.6959789395332336
0.5689892172813416 0.03636489436030388 0.6969371438026428
0.5803208947181702 0.026314757764339447 0.697030246257782
0.5783658623695374 0.028178106993436813 0.6969712972640991
0.5740593671798706 0.03227827697992325 0.6968385577201843
0.5701424479484558 0.036011602729558945 0.6967204213142395
0.5819360017776489 0.020278198644518852 0.6934483051300049
0.5822283029556274 0.026022467762231827 0.696612536907196
0.5819832682609558 0.016452794894576073 0.6895150542259216
0.5806424021720886 0.028288882225751877 0.696323037147522
0.5786919593811035 0.03014856018126011 0.6962643265724182
0.5767405033111572 0.03200914338231087 0.6962052583694458
0.5743956565856934 0.034240398555994034 0.6961315274238586
0.5724421143531799 0.03610283136367798 0.6960723996162415
0.5778824687004089 0.03166082501411438 0.6959900259971619
0.5774904489517212 0.03203015401959419 0.6959752440452576
0.5759320259094238 0.033520620316267014 0.6959309577941895
0.5751578211784363 0.034272242337465286 0.6959162950515747
0.5739808082580566 0.03538116067647934 0.695871889591217
0.5732061862945557 0.036133136600255966 0.6958571672439575
0.5716360211372375 0.03761254996061325 0.6957982182502747
0.5844284892082214 0.02605438604950905 0.695871114730835
0.583699107170105 0.026862528175115585 0.6959225535392761
0.5801970958709717 0.03020627796649933 0.6958191394805908
0.5798054933547974 0.03057514876127243 0.6958044171333313
0.5720078945159912 0.03801106661558151 0.6955683827400208
0.5766681432723999 0.03432311490178108 0.6954718232154846
0.5684781074523926 0.04212946072220802 0.6952208280563354
0.5657365918159485 0.04310449957847595 0.6940651535987854
0.5854147672653198 0.01806277595460415 0.6898088455200195
0.5853162407875061 0.024386582896113396 0.6938937902450562
0.557409405708313 0.04370197281241417 0.6882563233375549
0.5547608733177185 0.044127531349658966 0.6867976188659668
0.549934446811676 0.04476114735007286 0.6840463280677795
0.5854590535163879 0.016140757128596306 0.6878246665000916
0.5841570496559143 0.026342160999774933 0.6936810612678528
0.5824602246284485 0.03031151182949543 0.6951766014099121
0.5805177688598633 0.03216441720724106 0.6951175332069397
0.5785742998123169 0.03401806578040123 0.6950584650039673
0.5762392282485962 0.03624117374420166 0.6949847936630249
0.5742937922477722 0.038096778094768524 0.694925844669342
0.5700088739395142 0.042179692536592484 0.6947927474975586
0.5680606961250305 0.04403814300894737 0.6947336792945862
0.563590943813324 0.0479341484606266 0.6943561434745789
0.5543250441551208 0.04446522518992424 0.6859757900238037
0.5502601861953735 0.045089006423950195 0.6837112903594971
0.545173704624176 0.04637811332941055 0.6812122464179993
0.5399059653282166 0.047609902918338776 0.6785564422607422
0.5387969017028809 0.04813588410615921 0.6781726479530334
0.5380914211273193 0.048256777226924896 0.6777880191802979
0.5373523831367493 0.04834819585084915 0.677361786365509
0.585473358631134 0.023516813293099403 0.6919480562210083
0.5839165449142456 0.027732128277420998 0.6937025785446167
0.5727177262306213 0.04034879058599472 0.6946384310722351
0.5664868950843811 0.046288613229990005 0.6944461464881897
0.547295093536377 0.04609444737434387 0.6816522479057312
0.587867259979248 0.02215818129479885 0.6918914914131165
0.5848291516304016 0.024372294545173645 0.691346287727356
0.584191083908081 0.028021078556776047 0.693338930606842
0.584237813949585 0.028975171968340874 0.6940012574195862
0.5820141434669495 0.03221864998340607 0.6946762204170227
0.5800741910934448 0.034069303423166275 0.6946171522140503
0.5633589625358582 0.05002547428011894 0.6941148042678833
0.5621065497398376 0.05105230584740639 0.6939654350280762
0.5554739832878113 0.05199277028441429 0.6901980638504028
0.5519697666168213 0.05313701927661896 0.6886361241340637
0.5473194122314453 0.05399773269891739 0.6861279010772705
0.5351974368095398 0.04713230952620506 0.6735609173774719
0.5874153971672058 0.014819770120084286 0.6859792470932007
0.5847565531730652 0.026004815474152565 0.6916385293006897
0.5784984827041626 0.0363188311457634 0.694330632686615
0.5746173858642578 0.04002176225185394 0.6942126154899597
0.5722850561141968 0.04224279522895813 0.6941387057304382
0.5703422427177429 0.044096678495407104 0.6940795183181763
0.5680179595947266 0.046331752091646194 0.6940202713012695
0.5672358870506287 0.0470692478120327 0.6939907670021057
0.5660731792449951 0.04818744584918022 0.6939612627029419
0.5656818747520447 0.04855633154511452 0.6939465403556824
0.564127504825592 0.050043996423482895 0.6939020752906799
0.5477774739265442 0.05521883815526962 0.6864843964576721
0.5878666043281555 0.012468126602470875 0.6839560866355896
0.587597668170929 0.021589405834674835 0.689848780632019
0.5866605043411255 0.022131159901618958 0.6895855069160461
0.5858789086341858 0.02289186790585518 0.6895716786384583
0.5848296880722046 0.03049694374203682 0.6939355134963989
0.5749849677085876 0.040416330099105835 0.6939852833747864
0.5738250613212585 0.041531916707754135 0.6939558386802673
0.571884274482727 0.04338375851511955 0.6938965916633606
0.5711037516593933 0.04412003606557846 0.6938671469688416
0.5687710046768188 0.04634154215455055 0.6937931776046753
0.5579653978347778 0.05452057346701622 0.6920447945594788
0.5478420853614807 0.05682304501533508 0.6868387460708618
0.5349264144897461 0.04690425843000412 0.671638548374176
0.5879256725311279 0.01048476342111826 0.6819078922271729
0.5902420878410339 0.02058308944106102 0.6901956796646118
0.5896496772766113 0.020671050995588303 0.6898589730262756
0.5856644511222839 0.024343902245163918 0.6896504163742065
0.5842637419700623 0.032318491488695145 0.6940390467643738
0.5830973982810974 0.033418525010347366 0.6939947009086609
0.5823294520378113 0.034164633601903915 0.6939799785614014
0.5803940892219543 0.03601152077317238 0.6939209699630737
0.5796157121658325 0.036745648831129074 0.6938914656639099
0.5780685544013977 0.038226526230573654 0.6938471794128418
0.5776791572570801 0.03859376534819603 0.6938323378562927
0.5761311054229736 0.04007534682750702 0.6937881708145142
0.5458005666732788 0.05565352365374565 0.6839397549629211
0.5390759110450745 0.05004635825753212 0.6757072806358337
0.590757429599762 0.0202832892537117 0.6895947456359863
0.587026059627533 0.021527057513594627 0.6879292130470276
0.5856685638427734 0.02879241295158863 0.691884458065033
0.5726227164268494 0.04416673630475998 0.6934434175491333
0.5683550238609314 0.04823567718267441 0.6933103799819946
0.5640829205513 0.05230877175927162 0.6931769847869873
0.5621378421783447 0.054159749299287796 0.6931141018867493
0.5601969957351685 0.05601703003048897 0.6930581331253052
0.5501400232315063 0.05828164517879486 0.6878411173820496
0.5497523546218872 0.058669328689575195 0.6878411173820496
0.5346533060073853 0.04667428880929947 0.6697018146514893
0.5912463665008545 0.018046462908387184 0.6876745223999023
0.5885922908782959 0.02083848975598812 0.6877670288085938
0.5864190459251404 0.02244408242404461 0.6873858571052551
0.5861561298370361 0.024844462051987648 0.688821017742157
0.5858137607574463 0.026200339198112488 0.6895014643669128
0.5542030334472656 0.05842674523591995 0.6899148225784302
0.591323971748352 0.016133129596710205 0.6856863498687744
0.5922004580497742 0.019332468509674072 0.6884308457374573
0.5901185870170593 0.020098520442843437 0.6875448822975159
0.5863906145095825 0.02416117489337921 0.6877703666687012
0.5860896110534668 0.026491301134228706 0.6891365051269531
0.5861736536026001 0.028414256870746613 0.6904879808425903
0.5858763456344604 0.030697768554091454 0.6918253302574158
0.584563672542572 0.03424692526459694 0.6933313012123108
0.580314576625824 0.03829902410507202 0.6931984424591064
0.5760608315467834 0.042355239391326904 0.6930655241012573
0.574126660823822 0.04420139268040657 0.6930063366889954
0.5721917748451233 0.04604851454496384 0.6929472088813782
0.5400606393814087 0.05101834982633591 0.674658477306366
0.5343778133392334 0.046442579478025436 0.6677510738372803
0.5914040803909302 0.014199549332261086 0.683677613735199
0.5880392789840698 0.020796023309230804 0.6858599781990051
0.5876147747039795 0.02113405056297779 0.68580162525177
0.5869354605674744 0.022048788145184517 0.6859603524208069
0.5861069560050964 0.030037228018045425 0.6907954812049866
0.5861902832984924 0.03192650154232979 0.6921274065971375
0.5862314701080322 0.03286369889974594 0.6927880644798279
0.5706256628036499 0.04828355833888054 0.6926624774932861
0.5686905980110168 0.05013103038072586 0.6926034092903137
0.5663758516311646 0.05235819146037102 0.6925442218780518
0.5625009536743164 0.05605737492442131 0.6924254298210144
0.560171902179718 0.05827600508928299 0.6923508644104004
0.5551867485046387 0.06015561893582344 0.6902539730072021
0.5539278388023376 0.06044197455048561 0.6895972490310669
0.5399352312088013 0.050912320613861084 0.6737133860588074
0.5900596976280212 0.01980781927704811 0.6858026385307312
0.589473307132721 0.01991169899702072 0.6854758262634277
0.5865991711616516 0.026105480268597603 0.6877237558364868
0.5866808891296387 0.028034569695591927 0.6890855431556702
0.586462140083313 0.03221193328499794 0.6917663812637329
0.5860534906387329 0.034309882670640945 0.692910373210907
0.5841270089149475 0.036149319261312485 0.6928513646125793
0.5565788149833679 0.06001165509223938 0.6903551816940308
0.5508118271827698 0.05896439403295517 0.68574059009552
0.5341007709503174 0.04620926082134247 0.6657862663269043
0.5871809720993042 0.024062123149633408 0.6859805583953857
0.5829366445541382 0.03800567612051964 0.6925675272941589
0.5806323289871216 0.0402229018509388 0.6925083994865417
0.5787047743797302 0.04206353425979614 0.6924494504928589
0.5744588375091553 0.046113405376672745 0.6923162937164307
0.5721402764320374 0.04832315072417259 0.6922423839569092
0.5702086687088013 0.05016753450036049 0.6921831965446472
0.5682762861251831 0.05201265960931778 0.6921238899230957
0.5644029974937439 0.05569964274764061 0.6919974088668823
0.5636305212974548 0.05644003674387932 0.6919755935668945
0.561694860458374 0.05828786641359329 0.6919158697128296
0.5566286444664001 0.06006466597318649 0.689681887626648
0.5533406734466553 0.06064613536000252 0.6878439784049988
0.5396832823753357 0.050699375569820404 0.671813428401947
0.5339616537094116 0.04609227553009987 0.6647989153862
0.5934615135192871 0.0188387930393219 0.6859452128410339
0.5895611643791199 0.01983257569372654 0.6839655041694641
0.5891714692115784 0.02022210694849491 0.6839655041694641
0.5879811644554138 0.021359970793128014 0.6839296817779541
0.587307333946228 0.030517980456352234 0.6897081732749939
0.5717317461967468 0.049441590905189514 0.691988468170166
0.5709658265113831 0.05018569156527519 0.6919735074043274
0.5698014497756958 0.051285017281770706 0.6919292211532593
0.5678700804710388 0.053129181265830994 0.6918699145317078
0.5667123794555664 0.05423752963542938 0.6918361783027649
0.5624597668647766 0.058299366384744644 0.6917063593864441
0.5581223368644714 0.060026269406080246 0.6899283528327942
0.5540964007377625 0.06062809377908707 0.6875962615013123
0.5506080389022827 0.058788321912288666 0.6839674115180969
0.5450121760368347 0.05498486012220383 0.6775655746459961
0.5938606858253479 0.010508605279028416 0.6797730326652527
0.5950583219528198 0.018216188997030258 0.6858554482460022
0.5907781720161438 0.019581617787480354 0.6838646531105042
0.5880574584007263 0.022308574989438057 0.6838688254356384
0.5876684784889221 0.022697608917951584 0.6838688254356384
0.5875036120414734 0.028902152553200722 0.687994122505188
0.5873148441314697 0.034000806510448456 0.6913477778434753
0.5863482356071472 0.03622644767165184 0.6922078132629395
0.5844261050224304 0.03806225582957268 0.6921488046646118
0.582116425037384 0.04026385769248009 0.6920749545097351
0.5801923274993896 0.0421014204621315 0.6920157670974731
0.5790413618087769 0.04320915788412094 0.6919862627983093
0.5778802037239075 0.044305358082056046 0.6919419765472412
0.5759539604187012 0.046144794672727585 0.6918827295303345
0.5592738389968872 0.059654127806425095 0.6897169947624207
0.5560309290885925 0.06024542078375816 0.6879057288169861
0.5394293069839478 0.050484832376241684 0.6698997616767883
0.593956470489502 0.008512570522725582 0.6776989102363586
0.5923885703086853 0.018954124301671982 0.6837772130966187
0.5880119204521179 0.02494213543832302 0.6848809123039246
0.5880866646766663 0.026885364204645157 0.6862632036209106
0.5875096321105957 0.03241504356265068 0.6896556615829468
0.587089478969574 0.03625624254345894 0.6919990181922913
0.585931658744812 0.03734935075044632 0.6919545531272888
0.5836338996887207 0.039560768753290176 0.6918954253196716
0.5828613638877869 0.040290191769599915 0.6918659806251526
0.5817119479179382 0.041396547108888626 0.6918365359306335
0.578629195690155 0.04432835057377815 0.6917329430580139
0.5767048001289368 0.04616636782884598 0.6916738748550415
0.5747794508934021 0.0480051226913929 0.6916146278381348
0.5724660754203796 0.05021052435040474 0.6915406584739685
0.5705388188362122 0.052051085978746414 0.6914812326431274
0.5682333707809448 0.05427010729908943 0.6914221048355103
0.5620548725128174 0.06016642227768898 0.6912286877632141
0.5616366267204285 0.06050322577357292 0.6911728978157043
0.5602543354034424 0.059874530881643295 0.6897953748703003
0.5447830557823181 0.05479057505726814 0.6757155656814575
0.596373438835144 0.01802441105246544 0.6851150989532471
0.589815080165863 0.019887788221240044 0.6818899512290955
0.5894244909286499 0.020278431475162506 0.6818899512290955
0.5882516503334045 0.02425677515566349 0.6838171482086182
0.5883254408836365 0.026208318769931793 0.6852084994316101
0.5879770517349243 0.027561107650399208 0.68589848279953
0.5880142450332642 0.02852293848991394 0.6865847706794739
0.5880881547927856 0.030431760475039482 0.6879467964172363
0.5881248116493225 0.03137874975800514 0.6886224746704102
0.5647474527359009 0.05833376199007034 0.6910800337791443
0.5543902516365051 0.06093565747141838 0.6857526302337646
0.5537076592445374 0.06103416532278061 0.685351550579071
0.550299882888794 0.0585220605134964 0.6812848448753357
0.5499083995819092 0.05891358479857445 0.6812848448753357
0.5391737222671509 0.05026875436306 0.667972207069397
0.5273163914680481 0.04071936383843422 0.6532672047615051
0.5941121578216553 0.0023026829585433006 0.6719699501991272
0.5952711701393127 0.018184801563620567 0.6837098598480225
0.591513454914093 0.019373919814825058 0.6819402575492859
0.5880162119865417 0.032046131789684296 0.6882608532905579
0.5881258249282837 0.03485219553112984 0.6902695894241333
0.5866417288780212 0.038134559988975525 0.691508412361145
0.5843478441238403 0.04034285247325897 0.6914493441581726
0.582429051399231 0.04217585548758507 0.6913902163505554
0.5805093050003052 0.04400980472564697 0.691331148147583
0.5762808322906494 0.04804501309990883 0.6911979913711548
0.572047770023346 0.05208425223827362 0.6910644769668579
0.5608897805213928 0.06126831844449043 0.6897047162055969
0.5582288503646851 0.060900602489709854 0.6876182556152344
0.5562438368797302 0.060468822717666626 0.6859533190727234
0.544552206993103 0.054594870656728745 0.6738523840904236
0.5980571508407593 0.017422791570425034 0.684347927570343
0.5965297222137451 0.01802077144384384 0.6837056279182434
0.5931755304336548 0.018817570060491562 0.681938886642456
0.5900636315345764 0.02003752812743187 0.6806317567825317
0.5891241431236267 0.02248682826757431 0.6816749572753906
0.5885270237922668 0.028142139315605164 0.6851693391799927
0.588288426399231 0.032332535833120346 0.6878994703292847
0.5883604288101196 0.03420617803931236 0.6892436742782593
0.5884312987327576 0.03606047481298447 0.6905736923217773
0.568554699420929 0.05612746998667717 0.6907052397727966
0.5662553310394287 0.05834547057747841 0.6906492710113525
0.5643294453620911 0.06018514558672905 0.6905895471572876
0.5618335604667664 0.06221072003245354 0.6902646422386169
0.5603111386299133 0.062204740941524506 0.6892086863517761
0.5500925779342651 0.058343011885881424 0.679481029510498
0.5496997237205505 0.05873587727546692 0.679481029510498
0.526999294757843 0.04045305773615837 0.651167094707489
0.5944482684135437 0.01865885965526104 0.68194580078125
0.5891176462173462 0.02611309476196766 0.6834171414375305
0.5881190299987793 0.03819068893790245 0.6910930871963501
0.5590416193008423 0.06246349588036537 0.687764048576355
0.5579176545143127 0.062116269022226334 0.6867448091506958
0.5565000772476196 0.06224498525261879 0.6858519315719604
0.5557137727737427 0.062238145619630814 0.6853023767471313
0.5443199872970581 0.05439785122871399 0.6719761490821838
0.538786768913269 0.04994170740246773 0.6650551557540894
0.5329723358154297 0.045259442180395126 0.6577826142311096
0.5961118340492249 0.018122944980859756 0.681964635848999
0.591808021068573 0.019478539004921913 0.6799159646034241
0.5904164910316467 0.020336857065558434 0.6795457601547241
0.589762270450592 0.0213036946952343 0.6797629594802856
0.5897141695022583 0.02406354807317257 0.6816469430923462
0.5891450047492981 0.03063339926302433 0.6858164072036743
0.5889695882797241 0.03662509098649025 0.6898576617240906
0.58464515209198 0.04223814234137535 0.6907529830932617
0.5804299712181091 0.046261705458164215 0.6906198263168335
0.5785135626792908 0.048093024641275406 0.6905606985092163
0.5762105584144592 0.05028929561376572 0.690486490726471
0.5742920637130737 0.05212251842021942 0.690427303314209
0.5700488686561584 0.05613745003938675 0.6902687549591064
0.5626713037490845 0.0630476102232933 0.6899438500404358
0.5549201965332031 0.06223641708493233 0.6839948296546936
0.549884021282196 0.05816268175840378 0.6776649355888367
0.5266798138618469 0.04018479958176613 0.6490509510040283
0.5973824858665466 0.0179763063788414 0.6819835901260376
0.593485951423645 0.018938176333904266 0.679938554763794
0.5899261236190796 0.02238384634256363 0.6798591613769531
0.5891380310058594 0.03412717953324318 0.6874927282333374
0.5727378726005554 0.05433579906821251 0.6901464462280273
0.568512499332428 0.05836720019578934 0.6900111436843872
0.5677491426467896 0.05910639837384224 0.6899945139884949
0.5666035413742065 0.060214657336473465 0.689968466758728
0.5658305883407593 0.06094454601407051 0.689938485622406
0.564681887626648 0.062050558626651764 0.6899086833000183
0.5622450113296509 0.06412626057863235 0.6896569728851318
0.5385262966156006 0.04972171038389206 0.663092851638794
0.5326844453811646 0.04501708969473839 0.6557440757751465
0.5265190601348877 0.04004984721541405 0.6479870080947876
0.600145161151886 0.016204897314310074 0.6819124221801758
0.5984578728675842 0.01753714121878147 0.6816640496253967
0.5947685837745667 0.018789365887641907 0.6799611449241638
0.5902045965194702 0.022679992020130157 0.6794907450675964
0.5902367830276489 0.023668689653277397 0.6802040934562683
0.590268611907959 0.024652231484651566 0.680913507938385
0.5899128913879395 0.02601751685142517 0.6816189885139465
0.5900097489356995 0.028918208554387093 0.6837136745452881
0.5896255373954773 0.029302464798092842 0.6837136745452881
0.5897235870361328 0.032155249267816544 0.6857757568359375
0.5890148282051086 0.038284171372652054 0.6895631551742554
0.5861228704452515 0.04228736832737923 0.6903396844863892
0.5842117071151733 0.044113755226135254 0.6902804970741272
0.5800024271011353 0.048132602125406265 0.6901475191116333
0.5754036903381348 0.05251936987042427 0.6899994015693665
0.573872983455658 0.053986430168151855 0.6899547576904297
0.5734877586364746 0.054350484162569046 0.6899400353431702
0.5719186663627625 0.05577709153294563 0.6898404359817505
0.5715398788452148 0.05614883080124855 0.6898354887962341
0.5696373581886292 0.057998623698949814 0.6897987127304077
0.5606825351715088 0.0663236603140831 0.689358651638031
0.5496739149093628 0.05798116698861122 0.6758365035057068
0.5492783784866333 0.058376744389534 0.6758365035057068
0.5439682602882385 0.05409961938858032 0.6691370606422424
0.5964359641075134 0.018252145498991013 0.6799836754798889
0.5921494960784912 0.019649947062134743 0.6779595613479614
0.5916545391082764 0.019892115145921707 0.677782416343689
0.5912824273109436 0.020313231274485588 0.6778166890144348
0.5901893973350525 0.02631036750972271 0.6812532544136047
0.5900275111198425 0.03338221088051796 0.6860955953598022
0.5826563239097595 0.046325553208589554 0.690000593662262
0.5822723507881165 0.046688519418239594 0.6899856925010681
0.5818881392478943 0.04705158621072769 0.6899709701538086
0.5799765586853027 0.048878684639930725 0.6899116635322571
0.5784484148025513 0.0503431111574173 0.6898670196533203
0.5776792764663696 0.05106986686587334 0.6898375153541565
0.5746212601661682 0.05400128662586212 0.6897487044334412
0.5703855156898499 0.05800572410225868 0.6895865797996521
0.5681027173995972 0.06022336706519127 0.6895410418510437
0.5661846399307251 0.0620562769472599 0.6894813179969788
0.5594598650932312 0.0658893883228302 0.6874548196792603
0.5546382665634155 0.061991430819034576 0.6813444495201111
0.5438505411148071 0.05399957671761513 0.6681841015815735
0.5382663607597351 0.04950236529111862 0.6611194014549255
0.5323944091796875 0.044772982597351074 0.6536903381347656
0.5982996225357056 0.01802571304142475 0.6803653836250305
0.5907922983169556 0.024258822202682495 0.679469883441925
0.5902052521705627 0.030835634097456932 0.683679461479187
0.590236485004425 0.0317845456302166 0.6843681335449219
0.5902677178382874 0.032728683203458786 0.6850537061691284
0.5899186134338379 0.03404789790511131 0.685735285282135
0.5897706151008606 0.03651003539562225 0.6873616576194763
0.5886742472648621 0.04029754176735878 0.6892529726028442
0.5879694819450378 0.04196218028664589 0.6899275183677673
0.5875864624977112 0.04232459142804146 0.6899130344390869
0.583770215511322 0.045972492545843124 0.6897947192192078
0.5621972680091858 0.06632723659276962 0.6889384984970093
0.5494623780250549 0.05779844522476196 0.6739951968193054
0.5490654706954956 0.058195389807224274 0.6739951968193054
0.5437320470809937 0.05389910936355591 0.6672276258468628
0.5988439321517944 0.017752381041646004 0.6797888278961182
0.5984560251235962 0.018140366300940514 0.6797888278961182
0.5945545434951782 0.01909547857940197 0.6777123212814331
0.5910099744796753 0.02257728762924671 0.677668035030365
0.5908018946647644 0.028828352689743042 0.681926965713501
0.5901898741722107 0.03433328494429588 0.6853753328323364
0.5902210474014282 0.03526568412780762 0.6860542893409729
0.5890466570854187 0.038109418004751205 0.6872309446334839
0.5881719589233398 0.042157482355833054 0.6894673705101013
0.58641517162323 0.044171109795570374 0.689648449420929
0.5822172164916992 0.04818025976419449 0.6895154714584351
0.580308198928833 0.05000466853380203 0.6894558072090149
0.5780148506164551 0.052193328738212585 0.6893819570541382
0.5761041641235352 0.054019879549741745 0.6893227100372314
0.5592905879020691 0.06574127823114395 0.6857338547706604
0.554448664188385 0.0618266835808754 0.679562509059906
0.5380030274391174 0.04927971586585045 0.6591294407844543
0.5321022272109985 0.04452705383300781 0.6516211032867432
0.6001580953598022 0.017680944874882698 0.6798981428146362
0.5962775349617004 0.018630551174283028 0.6778265833854675
0.5926268100738525 0.020018281415104866 0.6762271523475647
0.5909877419471741 0.026215003803372383 0.6794484257698059
0.5907814502716064 0.03235935792326927 0.6836453080177307
0.589813768863678 0.0364147424697876 0.6858275532722473
0.5885800719261169 0.040038127452135086 0.6875166296958923
0.5745063424110413 0.05617011338472366 0.6889713406562805
0.5726408362388611 0.0580471009016037 0.68897944688797
0.5684453248977661 0.062081024050712585 0.688865065574646
0.5434937477111816 0.05369710177183151 0.6653046607971191
0.537870466709137 0.04916774481534958 0.6581288576126099
0.531955361366272 0.044403381645679474 0.6505809426307678
0.5936945676803589 0.019537197425961494 0.6758641600608826
0.5928004384040833 0.020161928609013557 0.6756733059883118
0.5915958285331726 0.024159172549843788 0.6776525974273682
0.5913791060447693 0.030365847051143646 0.6818981170654297
0.588889479637146 0.038632698357105255 0.6859930157661438
0.5649212002754211 0.06604418903589249 0.6884334087371826
0.5625665187835693 0.06818534433841705 0.6882822513580322
0.5542578101158142 0.061660800129175186 0.6777685880661011
0.5491421818733215 0.05752180516719818 0.6712089776992798
0.5377373099327087 0.04905535280704498 0.6571245193481445
0.5318078398704529 0.04427923262119293 0.6495365500450134
0.6026220321655273 0.017304737120866776 0.6798434853553772
0.5983438491821289 0.01857762597501278 0.6777071952819824
0.5950214266777039 0.019442884251475334 0.675960898399353
0.5922098159790039 0.022082306444644928 0.67583829164505
0.5918179154396057 0.02247406728565693 0.67583829164505
0.5911809802055359 0.034535620361566544 0.6839588284492493
0.5900000333786011 0.03650966286659241 0.6845225691795349
0.5883285403251648 0.042164210230112076 0.6873537302017212
0.584430456161499 0.04823899269104004 0.6889009475708008
0.5802395939826965 0.05224223807454109 0.6887675523757935
0.578334391117096 0.054064344614744186 0.688708484172821
0.5760056376457214 0.05620624125003815 0.6885756850242615
0.5590348243713379 0.06551757454872131 0.6831313371658325
0.5432540774345398 0.05349371209740639 0.663367748260498
0.6034818291664124 0.006240097340196371 0.6718013286590576
0.6006619930267334 0.01807374693453312 0.6782264709472656
0.6000755429267883 0.018153971061110497 0.6778656244277954
0.5921242833137512 0.02376306615769863 0.6761961579322815
0.5921511054039001 0.024749506264925003 0.6769185066223145
0.5922043919563293 0.026706820353865623 0.6783517003059387
0.5918443202972412 0.028064263984560966 0.6790626049041748
0.5915700793266296 0.03227606788277626 0.6818693280220032
0.5903604626655579 0.03602641820907593 0.6836804747581482
0.588908314704895 0.04025854542851448 0.6856619715690613
0.5880395174026489 0.044291745871305466 0.6879177093505859
0.5881689190864563 0.04530228674411774 0.6887301802635193
0.5725746750831604 0.06025201454758644 0.6882709264755249
0.5706844329833984 0.06209488958120346 0.6882371306419373
0.5683921575546265 0.06428278237581253 0.6881626844406128
0.5664628148078918 0.06608907133340836 0.6880750060081482
0.5652430653572083 0.06711237877607346 0.687934935092926
0.5640722513198853 0.06818593293428421 0.6878655552864075
0.5636981129646301 0.0685599073767662 0.6878655552864075
0.554065465927124 0.06149379163980484 0.6759622097015381
0.5489269495010376 0.05733571574091911 0.6693354845046997
0.5374698638916016 0.04882935434579849 0.6551049947738647
0.5315113067626953 0.0440295971930027 0.647436261177063
0.6058645844459534 0.016199467703700066 0.6798334121704102
0.602007269859314 0.01805758848786354 0.6784044504165649
0.597499668598175 0.019012995064258575 0.6758652329444885
0.5924025177955627 0.024059144780039787 0.6758286356925964
0.5924544930458069 0.026024604216217995 0.6772708296775818
0.5921196341514587 0.028355933725833893 0.6786978840827942
0.5921725630760193 0.030278490856289864 0.6801101565361023
0.5899499654769897 0.03717504441738129 0.6834514141082764
0.5894015431404114 0.03821247071027756 0.6838008165359497
0.5884591341018677 0.042201802134513855 0.6859790086746216
0.5881716012954712 0.046089280396699905 0.6885523200035095
0.5702817440032959 0.06319069117307663 0.6879887580871582
0.569908618927002 0.06356389075517654 0.6879887580871582
0.5691416263580322 0.06428913027048111 0.687958836555481
0.5676168203353882 0.06575022637844086 0.6879135370254517
0.5588627457618713 0.06536714732646942 0.6813816428184509
0.5539689660072327 0.06140994280576706 0.6750547289848328
0.5430123805999756 0.05328880622982979 0.6614169478416443
0.6025710105895996 0.017814477905631065 0.6778627634048462
0.6021840572357178 0.01820148155093193 0.6778627634048462
