ply
format ascii 1.0
element vertex 819
property float x
property float y
property float z
end_header
0.5259172916412354 0.02633482590317726 0.6759852766990662
0.5307013392448425 0.031974900513887405 0.6722795367240906
0.5318450331687927 0.03261531889438629 0.6717559099197388
0.5329931378364563 0.033258311450481415 0.671230673789978
0.5341455936431885 0.033903736621141434 0.6707034707069397
0.5367599129676819 0.03360387682914734 0.6704105138778687
0.5368279814720154 0.03143027424812317 0.6715124249458313
0.5369457006454468 0.02940286323428154 0.6725304126739502
0.538947582244873 0.02988428808748722 0.6719420552253723
0.5428991317749023 0.03294583782553673 0.6696997880935669
0.5450948476791382 0.03383843973278999 0.6688672304153442
0.546549379825592 0.035154446959495544 0.667945384979248
0.5503069162368774 0.03754112496972084 0.6660809516906738
0.5579513907432556 0.051476214081048965 0.6576380729675293
0.5587953329086304 0.05119455233216286 0.6576382517814636
0.5604832172393799 0.05063188076019287 0.6576382517814636
0.4979153871536255 0.046218112111091614 0.6696150898933411
0.49872255325317383 0.04594901204109192 0.6696150898933411
0.4979693591594696 0.04050727188587189 0.6725408434867859
0.49902546405792236 0.041088562458753586 0.6720614433288574
0.5000928044319153 0.04169696941971779 0.6715654134750366
0.5041258335113525 0.043272633105516434 0.67006516456604
0.5019612908363342 0.03355179727077484 0.6754319071769714
0.5026451349258423 0.03295077010989189 0.6756238341331482
0.5041173696517944 0.03208769112825394 0.6758146286010742
0.5112645030021667 0.029845165088772774 0.6757432818412781
0.5120535492897034 0.029580337926745415 0.675743818283081
0.5144209861755371 0.028786588460206985 0.6757460832595825
0.5152508616447449 0.023586271330714226 0.6782768964767456
0.5198554396629333 0.02177322842180729 0.6784201264381409
0.5207820534706116 0.021912191063165665 0.6781899333000183
0.5225726366043091 0.02200675569474697 0.6778345704078674
0.5269065499305725 0.02897522784769535 0.673510730266571
0.5314131379127502 0.03142290562391281 0.6714802980422974
0.5356390476226807 0.03300321474671364 0.6699440479278564
0.5357751250267029 0.030999094247817993 0.6709506511688232
0.535795271396637 0.028712859377264977 0.6721225380897522
0.5372682213783264 0.027855360880494118 0.6723109483718872
0.5425117015838623 0.031909603625535965 0.6693289875984192
0.5493653416633606 0.03744134306907654 0.6653110384941101
0.5501850247383118 0.03716825321316719 0.6653110384941101
0.5559142231941223 0.048787012696266174 0.6583576798439026
0.5572639107704163 0.04973655194044113 0.6576384902000427
0.5581057071685791 0.04945595562458038 0.6576384902000427
0.5606305003166199 0.048613499850034714 0.6576390862464905
0.49601858854293823 0.0399019718170166 0.6722303032875061
0.49866053462028503 0.03992534801363945 0.6717639565467834
0.49972623586654663 0.040532421320676804 0.6712674498558044
0.5026721954345703 0.04148559644818306 0.6702696681022644
0.5047953128814697 0.031491637229919434 0.6750588417053223
0.5061566829681396 0.030296113342046738 0.6754414439201355
0.5076237320899963 0.02943645976483822 0.675632894039154
0.5083014965057373 0.028841033577919006 0.6758231520652771
0.5114995241165161 0.027935687452554703 0.6757404804229736
0.5122866630554199 0.027671562507748604 0.6757410168647766
0.5146483778953552 0.026881076395511627 0.6757429838180542
0.5145863890647888 0.024171294644474983 0.6771508455276489
0.5152556300163269 0.023582512512803078 0.6773397326469421
0.5165915489196777 0.02240781858563423 0.6777163743972778
0.5180946588516235 0.021716462448239326 0.6778140068054199
0.5204691886901855 0.021017566323280334 0.6777663230895996
0.5221112966537476 0.020711271092295647 0.6776419878005981
0.5241073369979858 0.023753376677632332 0.6757302284240723
0.5287096500396729 0.02896846830844879 0.6722491383552551
0.5298439860343933 0.029600100591778755 0.6717285513877869
0.5321248173713684 0.030870338901877403 0.6706810593605042
0.534747838973999 0.028285574167966843 0.6715627312660217
0.5349029898643494 0.026358433067798615 0.6725307703018188
0.5360942482948303 0.027104128152132034 0.6719411611557007
0.5381902456283569 0.027839355170726776 0.671201229095459
0.5408065915107727 0.02985883317887783 0.6697098612785339
0.5444225072860718 0.03203177452087402 0.6679679751396179
0.5530409812927246 0.04635119438171387 0.6591011881828308
0.5557166337966919 0.04822806268930435 0.6576728224754333
0.5574194192886353 0.04772615805268288 0.6576390862464905
0.5582588315010071 0.047445982694625854 0.6576392650604248
0.5612711906433105 0.04776962473988533 0.6569543480873108
0.49551957845687866 0.04122563451528549 0.6706737875938416
0.4958406686782837 0.039352305233478546 0.6715875267982483
0.49663808941841125 0.03908650204539299 0.6715875267982483
0.5004277229309082 0.039977699518203735 0.6704726219177246
0.5023006200790405 0.040319014340639114 0.6699727773666382
0.5025466680526733 0.03827185928821564 0.6709901690483093
0.5019489526748657 0.03356022760272026 0.6735318899154663
0.5026340484619141 0.03295835107564926 0.6737249493598938
0.5041090250015259 0.0320943221449852 0.6739173531532288
0.5096543431282043 0.027651749551296234 0.6752597093582153
0.5125184655189514 0.025772761553525925 0.6757382154464722
0.5131353139877319 0.025019651278853416 0.6760219931602478
0.5250809788703918 0.026365749537944794 0.6732643246650696
0.5263635516166687 0.027428973466157913 0.6724928021430969
0.5274894833564758 0.028055669739842415 0.6719743013381958
0.528285801410675 0.027790233492851257 0.6719743013381958
0.5305531024932861 0.02904937043786049 0.6709318161010742
0.5327830910682678 0.030175456777215004 0.6699643135070801
0.5335851311683655 0.02990810200572014 0.6699643135070801
0.53370201587677 0.02785869501531124 0.6710045337677002
0.5337305068969727 0.025597959756851196 0.6721693277359009
0.5344347357749939 0.025096619501709938 0.6723077893257141
0.5357208251953125 0.026089461520314217 0.6715720891952515
0.5365182757377625 0.025823641568422318 0.6715720891952515
0.5418437123298645 0.03010549582540989 0.6684368848800659
0.5426499843597412 0.029836682602763176 0.6684368848800659
0.5440869927406311 0.031130939722061157 0.6675193309783936
0.5471256971359253 0.03407973423600197 0.665469229221344
0.5528449416160583 0.045795805752277374 0.6584192514419556
0.555062472820282 0.04656435176730156 0.6576384902000427
0.5575741529464722 0.04572603479027748 0.6576396822929382
0.5584115386009216 0.045446913689374924 0.6576396822929382
0.49701330065727234 0.03746192157268524 0.6714081764221191
0.5015158653259277 0.03782094642519951 0.6704427003860474
0.5016031265258789 0.03527779504656792 0.6717481017112732
0.5047879219055176 0.03149799630045891 0.6731594204902649
0.5061513781547546 0.03029949590563774 0.673545777797699
0.5076209902763367 0.029439017176628113 0.6737385392189026
0.5083001255989075 0.02884276956319809 0.6739307641983032
0.5145947933197021 0.0241647120565176 0.6752703785896301
0.5152651071548462 0.02357511594891548 0.6754603385925293
0.5166027545928955 0.022398095577955246 0.6758399605751038
0.5201190114021301 0.019988246262073517 0.676483154296875
0.5223131775856018 0.021194493398070335 0.6754767298698425
0.5248262882232666 0.025636503472924232 0.6727349162101746
0.5270681977272034 0.026880698278546333 0.6717004776000977
0.5301252007484436 0.027868522331118584 0.670658528804779
0.5326903462409973 0.025174792855978012 0.6716134548187256
0.5328813195228577 0.023345712572336197 0.6725302338600159
0.534064769744873 0.02408825419843197 0.6719399094581604
0.53873610496521 0.02680407650768757 0.6697205305099487
0.5400900840759277 0.027928000316023827 0.6689026951789856
0.5415126085281372 0.02921082079410553 0.6679903864860535
0.5423182249069214 0.028942285105586052 0.6679903864860535
0.5437526106834412 0.030232427641749382 0.6670717597007751
0.5508366227149963 0.04311860352754593 0.6591536998748779
0.5526494383811951 0.04524076357483864 0.6577381491661072
0.5543879270553589 0.044851209968328476 0.6576395034790039
0.5577284693717957 0.04373732954263687 0.6576396822929382
0.5612140893936157 0.04745583236217499 0.6551051735877991
0.4944831132888794 0.04079430550336838 0.6691542863845825
0.49497994780540466 0.03950315713882446 0.6697407960891724
0.49863311648368835 0.03705989196896553 0.6703797578811646
0.4996936023235321 0.037654079496860504 0.6698858737945557
0.5004916787147522 0.037388045340776443 0.6698858737945557
0.501936674118042 0.03356941044330597 0.6716242432594299
0.5026229619979858 0.03296683728694916 0.671819269657135
0.5096551775932312 0.027651406824588776 0.6733675599098206
0.5104433298110962 0.0273886788636446 0.6733675599098206
0.5124683976173401 0.025607194751501083 0.6739444732666016
0.5180602073669434 0.02154494822025299 0.6750900149345398
0.520056962966919 0.019786501303315163 0.6756592392921448
0.5232710838317871 0.02377907559275627 0.673020601272583
0.5255277156829834 0.02508971467614174 0.6719456315040588
0.5266482830047607 0.025709716603159904 0.6714280247688293
0.5307549834251404 0.027111662551760674 0.6699840426445007
0.5308567881584167 0.025017209351062775 0.6710577011108398
0.5316884517669678 0.022516634315252304 0.672216534614563
0.5336959362030029 0.023082785308361053 0.671572744846344
0.5357718467712402 0.023802295327186584 0.670836865901947
0.5383581519126892 0.0257866233587265 0.6693535447120667
0.5449075698852539 0.030747253447771072 0.6656312346458435
0.5520511269569397 0.043702658265829086 0.657639741897583
0.5545499324798584 0.04286934807896614 0.6576399207115173
0.49387696385383606 0.041778359562158585 0.6677824854850769
0.4962986707687378 0.03808607906103134 0.6692909598350525
0.49699273705482483 0.037476856261491776 0.669488787651062
0.49906933307647705 0.03565416857600212 0.6700797080993652
0.504096269607544 0.032105010002851486 0.6710596680641174
0.5047805905342102 0.03150351345539093 0.6712546348571777
0.5061463713645935 0.030303625389933586 0.6716439723968506
0.5076183080673218 0.02944173663854599 0.6718378067016602
0.5146036744117737 0.02415911667048931 0.6733825206756592
0.5152748823165894 0.02356814220547676 0.6735748052597046
0.5166147351264954 0.022389071062207222 0.673957884311676
0.525111734867096 0.023925723508000374 0.6716731190681458
0.5281458497047424 0.02489718236029148 0.6706365942955017
0.5298638343811035 0.02236129157245159 0.6716626882553101
0.5306548476219177 0.0220976322889328 0.6716626882553101
0.5308805704116821 0.02036421000957489 0.6725298166275024
0.5320565700531006 0.02110404334962368 0.671937882900238
0.5366876125335693 0.02378152310848236 0.6697312593460083
0.5408523082733154 0.027426835149526596 0.667098879814148
0.5486649870872498 0.039942417293787 0.6591928601264954
0.5504457950592041 0.04200954735279083 0.6578019261360168
0.5522187948226929 0.041728947311639786 0.6576400995254517
0.5547112822532654 0.040898121893405914 0.6576400995254517
0.556657612323761 0.04102092608809471 0.6572365164756775
0.5588917136192322 0.044060446321964264 0.6552577018737793
0.5611567497253418 0.047141533344984055 0.653252124786377
0.4941512942314148 0.03977089002728462 0.6678222417831421
0.49906080961227417 0.03565998747944832 0.6691202521324158
0.5005468130111694 0.03478817641735077 0.6693176627159119
0.5019248127937317 0.03357880190014839 0.6697109937667847
0.5026122331619263 0.032975662499666214 0.6699075698852539
0.5082821846008301 0.028798814862966537 0.6711072325706482
0.5096535086631775 0.0276442039757967 0.671473503112793
0.5104429721832275 0.0273810513317585 0.671473503112793
0.5180742740631104 0.021534103900194168 0.6732062697410583
0.5205914974212646 0.02120157517492771 0.6729404926300049
0.5224789977073669 0.021544557064771652 0.6724302768707275
0.5235861539840698 0.022153837606310844 0.6719171404838562
0.526603639125824 0.02311532385647297 0.6708847284317017
0.5288322567939758 0.021942656487226486 0.6711104512214661
0.528880774974823 0.019730303436517715 0.6722624897956848
0.5304301977157593 0.0191404540091753 0.6723012924194336
0.5316922068595886 0.02010735124349594 0.6715728640556335
0.5350298285484314 0.02179158851504326 0.6701059937477112
0.5377025604248047 0.02400551550090313 0.6684767007827759
0.5391082763671875 0.02526743896305561 0.6675689220428467
0.5427536368370056 0.027548644691705704 0.665734052658081
0.5498994588851929 0.040594443678855896 0.6576399207115173
0.5507281422615051 0.04031822457909584 0.6576399207115173
0.5523853898048401 0.03976546600461006 0.6576401591300964
0.554042637348175 0.039213333278894424 0.6576399207115173
0.5588619709014893 0.043902285397052765 0.6543371081352234
0.49230819940567017 0.04255709797143936 0.6657146215438843
0.4962768852710724 0.038102518767118454 0.6673628687858582
0.4969722330570221 0.03749227896332741 0.6675623655319214
0.4983600080013275 0.03627437725663185 0.667959988117218
0.504087507724762 0.032111380249261856 0.6691465973854065
0.5047464370727539 0.03142671287059784 0.6693909764289856
0.5060755014419556 0.03010590188205242 0.6698533296585083
0.5068673491477966 0.029842041432857513 0.6698533296585083
0.5124486088752747 0.02552085369825363 0.6711487770080566
0.5146119594573975 0.024152342230081558 0.671489953994751
0.5152844786643982 0.023560984060168266 0.6716829538345337
0.5209702253341675 0.019790254533290863 0.6726705431938171
0.5231754183769226 0.021000511944293976 0.6716465950012207
0.5242840051651001 0.02160891331732273 0.6711314916610718
0.5261866450309753 0.02195616252720356 0.6706148386001587
0.5278546810150146 0.019315404817461967 0.6717125177383423
0.5281165242195129 0.01767522469162941 0.6725296378135681
0.5300692915916443 0.018150443211197853 0.6719370484352112
0.5338675379753113 0.021054141223430634 0.6697415113449097
0.5346598625183105 0.020790038630366325 0.6697415113449097
0.5401950478553772 0.02565079741179943 0.6662110090255737
0.5465165376663208 0.03680000454187393 0.6592326164245605
0.5482659339904785 0.038812749087810516 0.6578658819198608
0.5500719547271729 0.038638871163129807 0.6576403379440308
0.5525513887405396 0.03781280294060707 0.6576401591300964
0.5557634234428406 0.04098118096590042 0.6554088592529297
0.5565962195396423 0.04070357233285904 0.6554088592529297
0.5588322877883911 0.043744418770074844 0.6534148454666138
0.4933946132659912 0.040295690298080444 0.6657484173774719
0.49407050013542175 0.03960172086954117 0.6659956574440002
0.499043732881546 0.03567254915833473 0.6671954989433289
0.5005325078964233 0.03479974716901779 0.66739422082901
0.501912534236908 0.03358834236860275 0.6677911281585693
0.5059094429016113 0.029604744166135788 0.6691920757293701
0.5080032348632812 0.02796109952032566 0.6696916222572327
0.5116195678710938 0.02565627731382847 0.6702722907066345
0.5166327357292175 0.022375548258423805 0.671122670173645
0.5180886387825012 0.021523943170905113 0.671316385269165
0.5200919508934021 0.019760115072131157 0.6718951463699341
0.5227661728858948 0.01985105127096176 0.6713764071464539
0.5268861651420593 0.01671309769153595 0.6723086833953857
0.5297093391418457 0.017162684351205826 0.6715738773345947
0.5322298407554626 0.01908579282462597 0.670114278793335
0.5342914462089539 0.01979166828095913 0.6693783402442932
0.5370562672615051 0.02224908210337162 0.6675931811332703
0.5384570360183716 0.02350262925028801 0.6666839122772217
0.5398675203323364 0.02476559206843376 0.6657683253288269
0.5406689643859863 0.024498436599969864 0.6657683253288269
0.5477705001831055 0.0375186912715435 0.6576403379440308
0.5485947132110596 0.037243444472551346 0.6576405763626099
0.5502434372901917 0.036693546921014786 0.6576407551765442
0.5589951872825623 0.04404100030660629 0.6522185802459717
0.49625512957572937 0.0381188727915287 0.665428876876831
0.4969516396522522 0.0375080481171608 0.6656293869018555
0.5024829506874084 0.032631512731313705 0.6672370433807373
0.5038542151451111 0.03141525387763977 0.6676393747329712
0.504456639289856 0.030553938820958138 0.6679896116256714
0.5070075392723083 0.027606181800365448 0.6691009402275085
0.5090782642364502 0.025920651853084564 0.6696286201477051
0.5105963349342346 0.025219708681106567 0.6697322130203247
0.5121614336967468 0.02466154284775257 0.6697511672973633
0.513687789440155 0.023991499096155167 0.6698371171951294
0.5144625306129456 0.023690225556492805 0.6698600649833679
0.5245691537857056 0.019911667332053185 0.6700766682624817
0.5258680582046509 0.01630590856075287 0.6717585921287537
0.5265990495681763 0.01590876094996929 0.6718403100967407
0.5282533764839172 0.015621446073055267 0.6717001795768738
0.5306045413017273 0.017132757231593132 0.6704832315444946
0.5318657159805298 0.018093213438987732 0.6697518825531006
0.5331735014915466 0.019161660224199295 0.6689540147781372
0.5367342233657837 0.02137335017323494 0.6671527624130249
0.5435729026794434 0.03396303951740265 0.6592717170715332
0.5443906188011169 0.03369048237800598 0.6592717170715332
0.5461095571517944 0.035650573670864105 0.6579283475875854
0.5487693548202515 0.03530670702457428 0.6576405763626099
0.5504142642021179 0.03475930914282799 0.6576405763626099
0.5534980893135071 0.0376603789627552 0.6555581092834473
0.5557007193565369 0.04066343232989311 0.6535764336585999
0.5565342307090759 0.04038553684949875 0.6535764336585999
0.559240460395813 0.04453258961439133 0.6509006023406982
0.49647256731987 0.05093325302004814 0.6576074361801147
0.4983324408531189 0.03629447892308235 0.665063738822937
0.499026894569397 0.03568561002612114 0.6652646064758301
0.5005131363868713 0.034795213490724564 0.6654744744300842
0.5039734840393066 0.029065143316984177 0.6679088473320007
0.5044301152229309 0.027765823528170586 0.6685189008712769
0.5063939690589905 0.02574472315609455 0.6692450642585754
0.5101445913314819 0.02387813664972782 0.6695733070373535
0.5165836215019226 0.02219393104314804 0.6693274974822998
0.5173709392547607 0.021931612864136696 0.6693274974822998
0.5180966854095459 0.02149582840502262 0.6694308519363403
0.5256621837615967 0.01571490801870823 0.6711641550064087
0.5315024852752686 0.01710289716720581 0.6693905591964722
0.5350255966186523 0.019262263551354408 0.66761714220047
0.5378089547157288 0.021746058017015457 0.6658028364181519
0.5456632375717163 0.03447410836815834 0.6576409935951233
0.5473030805587769 0.03392701968550682 0.6576407551765442
0.5481237173080444 0.03365395963191986 0.6576409935951233
0.5594867467880249 0.045025985687971115 0.6495783925056458
0.4944557547569275 0.05023897439241409 0.6573452949523926
0.4952746331691742 0.04996601492166519 0.6573452949523926
0.4967685043811798 0.048931729048490524 0.6576310396194458
0.494732528924942 0.03901584818959236 0.6632847785949707
0.496233731508255 0.038136038929224014 0.663487434387207
0.4969312846660614 0.03752345219254494 0.6636905074119568
0.5010078549385071 0.03358430787920952 0.6650674939155579
0.5017048716545105 0.03021136485040188 0.6667434573173523
0.5032109618186951 0.026707477867603302 0.6683455109596252
0.5037938952445984 0.025810034945607185 0.6687206029891968
0.5043817758560181 0.024934880435466766 0.6690829396247864
0.5057920813560486 0.023918837308883667 0.6693742871284485
0.5065202116966248 0.023484792560338974 0.6694766283035278
0.5080122947692871 0.022729206830263138 0.6696139574050903
0.5201178789138794 0.019739314913749695 0.6690565943717957
0.5222371220588684 0.01830347068607807 0.669445812702179
0.5229023098945618 0.017718061804771423 0.6696396470069885
0.5243504047393799 0.016871735453605652 0.6698334217071533
0.5298840999603271 0.015162557363510132 0.6697614192962646
0.5325426459312439 0.01743154413998127 0.6680781841278076
0.5360919237136841 0.01962793618440628 0.6662744879722595
0.5414735078811646 0.030885083600878716 0.6593096256256104
0.543159008026123 0.03279420733451843 0.6579908728599548
0.5450263619422913 0.03282708674669266 0.6576409935951233
0.5482985973358154 0.03173680603504181 0.657640814781189
0.5512583255767822 0.034377239644527435 0.655704915523529
0.5534337759017944 0.03734135255217552 0.653736412525177
0.5560484528541565 0.041323233395814896 0.651146411895752
0.49381133913993835 0.04807054251432419 0.657629668712616
0.49462732672691345 0.04779854789376259 0.657629668712616
0.4962587356567383 0.047252215445041656 0.6576312184333801
0.49831438064575195 0.03630800172686577 0.6631250977516174
0.4989657998085022 0.03555496409535408 0.6634120345115662
0.5003470182418823 0.0343179814517498 0.663827657699585
0.5009148716926575 0.027732184156775475 0.6672527194023132
0.5031618475914001 0.023866744711995125 0.6689211130142212
0.5059546232223511 0.021777236834168434 0.6695418953895569
0.5066882967948914 0.02136884443461895 0.6696294546127319
0.5082903504371643 0.02095734141767025 0.6695635914802551
0.5108659267425537 0.020840734243392944 0.6691668629646301
0.5125696063041687 0.02071303315460682 0.6689311861991882
0.514414370059967 0.020980408415198326 0.6684583425521851
0.5162933468818665 0.021327635273337364 0.6679373979568481
0.5187022686004639 0.020673206076025963 0.6678574681282043
0.5256885290145874 0.01569448597729206 0.6692768335342407
0.5263499021530151 0.015111605636775494 0.6694706082344055
0.5308657288551331 0.015354106202721596 0.6685344576835632
0.5322282910346985 0.01656918227672577 0.6676412224769592
0.5343896150588989 0.017528049647808075 0.6667416095733643
0.5357719659805298 0.01875811442732811 0.6658363938331604
0.5427613258361816 0.03173277899622917 0.6576411724090576
0.5443932414054871 0.031188810244202614 0.6576411724090576
0.5460251569747925 0.03064514324069023 0.6576409935951233
0.5562872886657715 0.04180781915783882 0.6498319506645203
0.4925024211406708 0.04668940231204033 0.6576180458068848
0.4949376881122589 0.04585257172584534 0.6576314568519592
0.494708389043808 0.03903455287218094 0.6613357067108154
0.4962117075920105 0.03815264254808426 0.6615406274795532
0.49691057205200195 0.03753962740302086 0.6617444753646851
0.5001345872879028 0.03366304934024811 0.6632496118545532
0.4998123049736023 0.02980840764939785 0.6653788685798645
0.499786913394928 0.026940353214740753 0.6669241189956665
0.5001629590988159 0.025373857468366623 0.6676986813545227
0.5013526678085327 0.023654449731111526 0.6684094071388245
0.5025337934494019 0.021936118602752686 0.6691208481788635
0.5061737298965454 0.01982182450592518 0.6696047782897949
0.5086184144020081 0.019346443936228752 0.669422447681427
0.5104234218597412 0.01953633315861225 0.6689974069595337
0.5121235847473145 0.019407369196414948 0.66876220703125
0.5149739384651184 0.020054399967193604 0.6679039001464844
0.5201240181922913 0.0196944922208786 0.6671749353408813
0.5222579836845398 0.01828746683895588 0.6675487160682678
0.5229241251945496 0.017700698226690292 0.6677443981170654
0.5243749618530273 0.016853436827659607 0.6679404973983765
0.5319141745567322 0.01570826955139637 0.6672049760818481
0.5327013731002808 0.015445854514837265 0.6672049760818481
0.5393962264060974 0.02783946320414543 0.6593471765518188
0.5410526990890503 0.029697570949792862 0.6580520272254944
0.5429494380950928 0.02983018197119236 0.6576414108276367
0.5445771813392639 0.02928760088980198 0.6576414108276367
0.5463095307350159 0.029000665992498398 0.6574852466583252
0.5490440726280212 0.03113129548728466 0.655850887298584
0.551192045211792 0.034056656062603 0.6538942456245422
0.5537256002426147 0.0378747396171093 0.6513891816139221
0.4920002222061157 0.04500327631831169 0.6576303243637085
0.495246559381485 0.04391849413514137 0.657632052898407
0.49824583530426025 0.03615787252783775 0.6612764596939087
0.49874618649482727 0.034907545894384384 0.6618609428405762
0.4990396797657013 0.024585392326116562 0.6673724055290222
0.4994225800037384 0.023051774129271507 0.668130099773407
0.5007328987121582 0.021731195971369743 0.6686068773269653
0.502608060836792 0.01950768753886223 0.6694689989089966
0.5041101574897766 0.018819132819771767 0.6695699095726013
0.5072845220565796 0.01795821264386177 0.6694636344909668
0.508156955242157 0.01797548681497574 0.6692976355552673
0.5116327404975891 0.017972761765122414 0.6686748266220093
0.5145502686500549 0.018828056752681732 0.66768878698349
0.5163575410842896 0.018980856984853745 0.6672816872596741
0.5183841586112976 0.01973097398877144 0.6665134429931641
0.5257149934768677 0.015674838796257973 0.6673827767372131
0.5263775587081909 0.01509102713316679 0.6675781607627869
0.5285358428955078 0.013801698572933674 0.6678857803344727
0.5303492546081543 0.013914684765040874 0.6674986481666565
0.5337560176849365 0.01580098457634449 0.6658697724342346
0.540701150894165 0.028749065473675728 0.657641589641571
0.5431361198425293 0.02793695218861103 0.6576414108276367
0.5447602272033691 0.027396801859140396 0.6576411724090576
0.5539587736129761 0.0383501835167408 0.6500834822654724
0.49069663882255554 0.04361704736948013 0.657630205154419
0.4923153817653656 0.043074868619441986 0.6576313376426697
0.4939813017845154 0.039669279009103775 0.6591734886169434
0.4946839213371277 0.0390532948076725 0.6593797206878662
0.4961901605129242 0.03816978633403778 0.6595861911773682
0.49689018726348877 0.03755587711930275 0.6597923636436462
0.4978489279747009 0.03201703727245331 0.6626150012016296
0.4986448884010315 0.031751714646816254 0.6626150012016296
0.4978834092617035 0.026468509808182716 0.6656104326248169
0.4979197084903717 0.023799121379852295 0.6670476794242859
0.4982999563217163 0.02225320413708687 0.667815625667572
0.49874332547187805 0.020922189578413963 0.668455183506012
0.5001169443130493 0.019820380955934525 0.6688036322593689
0.5020575523376465 0.017824087291955948 0.6695337295532227
0.5043536424636841 0.0169440358877182 0.6695955395698547
0.5120972990989685 0.01678607054054737 0.6682848930358887
0.5131112933158875 0.017195554450154305 0.6678805351257324
0.5141284465789795 0.017606224864721298 0.6674748063087463
0.5191047191619873 0.01925443485379219 0.6656864285469055
0.5207531452178955 0.018931539729237556 0.665563702583313
0.5222787857055664 0.018271273002028465 0.6656454205513
0.5229461193084717 0.01768369786441326 0.6658427119255066
0.5320741534233093 0.013730485923588276 0.6663355231285095
0.5373404026031494 0.024825097993016243 0.659385085105896
0.5400833487510681 0.02713329903781414 0.657641589641571
0.544206976890564 0.025967556983232498 0.6575285196304321
0.5460401773452759 0.02819274365901947 0.6559951901435852
0.5468544363975525 0.02792130969464779 0.6559951901435852
0.5514301061630249 0.03446692228317261 0.6516293883323669
0.4910454750061035 0.04180445149540901 0.6575679779052734
0.49262961745262146 0.041157644242048264 0.6576317548751831
0.49803102016448975 0.03552628681063652 0.6597111821174622
0.49718543887138367 0.02147337980568409 0.6674910187721252
0.49758145213127136 0.01998935453593731 0.6682248115539551
0.49813517928123474 0.019017793238162994 0.6686520576477051
0.49950432777404785 0.01792033202946186 0.6689998507499695
0.5000919103622437 0.017073558643460274 0.6693533658981323
0.5022875070571899 0.015900062397122383 0.6695926785469055
0.5047029256820679 0.015400107018649578 0.6694271564483643
0.5063827037811279 0.01526930183172226 0.6691943407058716
0.5080952048301697 0.0152260297909379 0.6689077615737915
0.5106925368309021 0.015224535949528217 0.6684390306472778
0.5126932859420776 0.015980124473571777 0.6676670908927917
0.5166226625442505 0.0172107070684433 0.6662877798080444
0.5177353024482727 0.017866618931293488 0.6657305359840393
0.5244114995002747 0.016825376078486443 0.6650880575180054
0.5257415175437927 0.015654148533940315 0.6654831171035767
0.5264050960540771 0.015069683082401752 0.6656799912452698
0.5301520228385925 0.013296889141201973 0.6659646034240723
0.5386614203453064 0.02579525299370289 0.6576418280601501
0.540276825428009 0.025256793946027756 0.6576418280601501
0.5427002310752869 0.024450140073895454 0.657641589641571
0.5489417910575867 0.030647393316030502 0.6531491875648499
0.49055612087249756 0.04326027259230614 0.655881404876709
0.4939558207988739 0.0396888442337513 0.6572098731994629
0.4946593642234802 0.03907119110226631 0.6574177742004395
0.49616798758506775 0.038186199963092804 0.6576265692710876
0.49686920642852783 0.03757081553339958 0.6578341126441956
0.495682030916214 0.02785928174853325 0.6633377075195312
0.4951939880847931 0.023428568616509438 0.6658392548561096
0.49646350741386414 0.019187020137906075 0.6679185628890991
0.49693700671195984 0.017960237339138985 0.6685009002685547
0.4995419383049011 0.01537640206515789 0.6694348454475403
0.5002471208572388 0.014908647164702415 0.6695616245269775
0.5033765435218811 0.013994286768138409 0.6694914102554321
0.5058881640434265 0.013794786296784878 0.6691440939903259
0.5067291855812073 0.01373570878058672 0.6690236926078796
0.5085424184799194 0.013993605971336365 0.6685540676116943
0.510261058807373 0.013961286284029484 0.6682597398757935
0.5112672448158264 0.014364703558385372 0.6678573489189148
0.5143585801124573 0.015737520530819893 0.6665486693382263
0.518470048904419 0.017434734851121902 0.6648784279823303
0.5203993916511536 0.017894137650728226 0.6642778515815735
0.5213748216629028 0.018145443871617317 0.663963794708252
0.5222243666648865 0.018049689009785652 0.6638619899749756
0.5229686498641968 0.017667502164840698 0.6639346480369568
0.5285296440124512 0.013629735447466373 0.6651244163513184
0.5345052480697632 0.022109147161245346 0.6594223976135254
0.5353059768676758 0.0218422319740057 0.6594223976135254
0.5369073748588562 0.023603973910212517 0.6581719517707825
0.5388578176498413 0.023926429450511932 0.6576421856880188
0.5404693484306335 0.02339005656540394 0.6576418280601501
0.5421265363693237 0.0229656882584095 0.6575724482536316
0.5459690093994141 0.02786886692047119 0.6542049646377563
0.5491613745689392 0.0310987401753664 0.6518664956092834
0.5518860220909119 0.03540094569325447 0.649029016494751
0.4910147190093994 0.041827183216810226 0.655595600605011
0.4925312399864197 0.04093707352876663 0.6558055281639099
0.49428632855415344 0.020502232015132904 0.6666511297225952
0.4953511357307434 0.018394988030195236 0.6676080822944641
0.4957601726055145 0.016960076987743378 0.6683178544044495
0.49693045020103455 0.015245642513036728 0.6690413951873779
0.4989950656890869 0.013688498176634312 0.6695165634155273
0.5004776120185852 0.0129922553896904 0.6696268916130066
0.5108544230461121 0.013160571455955505 0.6676445007324219
0.5158692598342896 0.015047325752675533 0.665700376033783
0.5169771313667297 0.015697045251727104 0.6651436686515808
0.5193435549736023 0.017384275794029236 0.6637912392616272
0.5201302766799927 0.01712203584611416 0.6637912392616272
0.5244364142417908 0.01680806092917919 0.6631783843040466
0.525767982006073 0.01563367061316967 0.6635770797729492
0.5264326333999634 0.015048124827444553 0.6637763381004333
0.5327084064483643 0.019757909700274467 0.6600599884986877
0.5366425514221191 0.022871075198054314 0.6576423645019531
0.5398570895195007 0.02180030383169651 0.6576420068740845
0.5406611561775208 0.021533023566007614 0.6576420068740845
0.5438424944877625 0.02485412359237671 0.6552475690841675
0.5459335446357727 0.027706770226359367 0.6533079743385315
0.5467489361763 0.027434924617409706 0.6533079743385315
0.49392998218536377 0.03970831632614136 0.6552392244338989
0.4946349859237671 0.03908933326601982 0.6554495096206665
0.4961456060409546 0.03820250555872917 0.6556594967842102
0.49684786796569824 0.03758518025279045 0.6558699011802673
0.4935585558414459 0.02379871904850006 0.664029061794281
0.4933323264122009 0.02022329717874527 0.6660301685333252
0.49347326159477234 0.01788417249917984 0.6672865152359009
0.49424827098846436 0.01762578636407852 0.6672865152359009
0.49514925479888916 0.015028574503958225 0.6685457229614258
0.49633312225341797 0.013376131653785706 0.6692352294921875
0.499215692281723 0.011741151101887226 0.6696048974990845
0.5007456541061401 0.01120547205209732 0.6696187853813171
0.5024169087409973 0.011097503826022148 0.6693724989891052
0.5041450262069702 0.011151322163641453 0.6690273880958557
0.5067288279533386 0.01118309237062931 0.6685375571250916
0.5086676478385925 0.011819715611636639 0.6678346395492554
0.5104409456253052 0.01195433083921671 0.6674368381500244
0.5125189423561096 0.01294352300465107 0.6665148138999939
0.5136143565177917 0.013585785403847694 0.6659626960754395
0.514393150806427 0.013326188549399376 0.6659626960754395
0.5293740630149841 0.015717361122369766 0.6619143486022949
0.5309283137321472 0.017429130151867867 0.660691499710083
0.53249591588974 0.019155625253915787 0.6594587564468384
0.5360413193702698 0.021286608651280403 0.6576421856880188
0.5400672554969788 0.019994700327515602 0.6576155424118042
0.546101987361908 0.028041919693350792 0.6521009802818298
0.549606442451477 0.03201516345143318 0.6492822170257568
0.49042898416519165 0.04301891848444939 0.653075098991394
0.49098387360572815 0.041850440204143524 0.6536163687705994
0.49250295758247375 0.04095868021249771 0.6538280844688416
0.4923862814903259 0.01996813900768757 0.6653954386711121
0.4927723705768585 0.015631884336471558 0.667709469795227
0.49396541714668274 0.013986042700707912 0.6683960556983948
0.4945589005947113 0.01316267903894186 0.6687402725219727
0.4967000484466553 0.011869959533214569 0.6690582036972046
0.5011638402938843 0.009888183325529099 0.6693301796913147
0.5028026700019836 0.009687966667115688 0.669139564037323
0.5044727325439453 0.00957424659281969 0.6688959002494812
0.5062817931175232 0.00986033957451582 0.6684075593948364
0.5121507048606873 0.011875665746629238 0.6662226319313049
0.5162538886070251 0.01362549513578415 0.6645079255104065
0.5174623727798462 0.014552044682204723 0.6637766361236572
0.5186772346496582 0.01548336073756218 0.6630414128303528
0.5218991041183472 0.017055468633770943 0.661586344242096
0.5228477716445923 0.017224667593836784 0.6613190770149231
0.5244321227073669 0.016712680459022522 0.6613103151321411
0.5257951021194458 0.015613839030265808 0.6616648435592651
0.5264607071876526 0.015026930719614029 0.6618658900260925
0.5338441729545593 0.02024315670132637 0.6576429605484009
0.5346437692642212 0.019976627081632614 0.6576429605484009
0.5362432599067688 0.019444003701210022 0.6576426029205322
0.5386421084403992 0.01864527352154255 0.6576420068740845
0.5417041778564453 0.021712103858590126 0.6553935408592224
0.5437698364257812 0.024528400972485542 0.653465986251831
0.5463175177574158 0.028491497039794922 0.6508188247680664
0.4904637038707733 0.043208640068769455 0.6519739031791687
0.4939042031764984 0.039727989584207535 0.6532620191574097
0.4946102499961853 0.039108261466026306 0.6534738540649414
0.49612370133399963 0.03821965306997299 0.6536861658096313
0.49151575565338135 0.019963113591074944 0.6646091938018799
0.4914969503879547 0.017072034999728203 0.6662079095840454
0.4916715919971466 0.01484636403620243 0.6674041152000427
0.49397212266921997 0.01130866538733244 0.6689335703849792
0.4945625960826874 0.010491902008652687 0.6692754626274109
0.49942079186439514 0.009769869036972523 0.6687799692153931
0.5068637728691101 0.009043424390256405 0.6678117513656616
0.5086199641227722 0.009157074615359306 0.6674262285232544
0.51178377866745 0.010810554958879948 0.6659318208694458
0.5128684043884277 0.011429892852902412 0.6653903126716614
0.514734148979187 0.011789372190833092 0.6648486852645874
0.5171328783035278 0.013608559034764767 0.6634032726287842
0.5204141736030579 0.01538248173892498 0.6618207097053528
0.5305070281028748 0.016232077032327652 0.6594955325126648
0.5320714712142944 0.017951805144548416 0.6582582592964172
0.5332530736923218 0.01867290586233139 0.6576433181762695
0.5356463193893433 0.01787632144987583 0.6576426029205322
0.5364439487457275 0.017610743641853333 0.6576424241065979
0.5380391478538513 0.017079299315810204 0.6576421856880188
0.5465337038040161 0.028942080214619637 0.6495329737663269
0.4909532070159912 0.04187379777431488 0.6516308784484863
0.49247485399246216 0.04098052158951759 0.6518443822860718
0.4903351366519928 0.021794365718960762 0.6628625988960266
0.4905495345592499 0.01679559051990509 0.6655909419059753
0.4909914433956146 0.01265026070177555 0.6678046584129333
0.4914396107196808 0.011351488530635834 0.6684409379959106
0.4933892488479614 0.00946641992777586 0.6691250801086426
0.49428391456604004 0.009627494029700756 0.6688708066940308
0.495537132024765 0.010918594896793365 0.6679244041442871
0.4963047504425049 0.01066271960735321 0.6679244041442871
0.4977371096611023 0.009830749593675137 0.6681208610534668
0.5001406669616699 0.006785666104406118 0.6693633198738098
0.5028272271156311 0.007205282803624868 0.6686352491378784
0.5044919848442078 0.007089780643582344 0.6683918833732605
0.5054746270179749 0.007470563519746065 0.6679998636245728
0.5064560174942017 0.00784112699329853 0.6676135063171387
0.5082085132598877 0.007952932268381119 0.6672278046607971
0.5103334784507751 0.009118210524320602 0.6661900877952576
0.5114122033119202 0.009732916951179504 0.665651261806488
0.5155999064445496 0.011748060584068298 0.6637623906135559
0.5180239677429199 0.013618487864732742 0.6622793674468994
0.5226638913154602 0.0166502483189106 0.6597440838813782
0.5243867039680481 0.016506332904100418 0.6595059633255005
0.5258219242095947 0.015593649819493294 0.6597461700439453
0.5264890193939209 0.015006370842456818 0.6599483489990234
0.5287472009658813 0.013932622037827969 0.6601260900497437
0.5302966833114624 0.015634559094905853 0.658897876739502
0.5318694114685059 0.017375973984599113 0.6576435565948486
0.5326650142669678 0.01711077056825161 0.6576435565948486
0.5376132130622864 0.01595393940806389 0.6573701500892639
0.5395894646644592 0.01860491931438446 0.655538022518158
0.5416296124458313 0.021385177969932556 0.6536219120025635
0.5441005229949951 0.025190839543938637 0.6510587930679321
0.551324188709259 0.04053857922554016 0.6412273645401001
0.5521644949913025 0.040258485823869705 0.6412273645401001
0.4905413091182709 0.043619222939014435 0.6497452855110168
0.49387845396995544 0.03974805772304535 0.6512777805328369
0.49458572268486023 0.03912697359919548 0.651492178440094
0.4888378083705902 0.01680680923163891 0.6649563312530518
0.4896823465824127 0.013956013135612011 0.6663841009140015
0.4898979365825653 0.0118691585958004 0.6675031185150146
0.4909486174583435 0.009783084504306316 0.6684671640396118
0.49427154660224915 0.009611674584448338 0.6679472923278809
0.4960521459579468 0.009886030107736588 0.667465329170227
0.4981980323791504 0.008639913983643055 0.6677603125572205
0.4996784031391144 0.007970182225108147 0.6678580641746521
0.49971136450767517 0.0054851109161973 0.6692323088645935
0.5006033182144165 0.005623606499284506 0.6689905524253845
0.502391517162323 0.005900509189814329 0.6685053706169128
0.5040944218635559 0.00590800354257226 0.6681860685348511
0.5099658966064453 0.008047732524573803 0.6659098863601685
0.512119710445404 0.009266274981200695 0.6648341417312622
0.514078676700592 0.009901165962219238 0.6641188859939575
0.5164713859558105 0.011715958826243877 0.6626670360565186
0.5177545547485352 0.012843940407037735 0.6618029475212097
0.5185368657112122 0.01258316170424223 0.6618029475212097
0.5212110280990601 0.015075587667524815 0.6599231958389282
0.5286235809326172 0.013558834791183472 0.6593933701515198
0.5312862992286682 0.015820950269699097 0.657643735408783
0.5320799946784973 0.015556692145764828 0.6576435565948486
0.5344612002372742 0.014764063060283661 0.6576427817344666
0.5443112850189209 0.02563292719423771 0.6497805118560791
0.5509065389633179 0.03944315016269684 0.6408867835998535
0.49092215299606323 0.04189706966280937 0.6496383547782898
0.4924463927745819 0.041002415120601654 0.6498535871505737
0.488284170627594 0.017858538776636124 0.6635270714759827
0.4879710078239441 0.01393852848559618 0.6657701134681702
0.4887405335903168 0.013682112097740173 0.6657701134681702
0.49017202854156494 0.010032412596046925 0.6675384640693665
0.4907929003238678 0.009308288805186749 0.6678267121315002
0.49279388785362244 0.007610558532178402 0.668401300907135
0.4979395568370819 0.007851687259972095 0.667310893535614
0.5036963224411011 0.00472514471039176 0.667984127998352
0.5046694874763489 0.005086920224130154 0.6676018834114075
0.5074628591537476 0.005767706781625748 0.6667032837867737
0.5095980167388916 0.006976792588829994 0.6656326651573181
0.5106703639030457 0.007582038640975952 0.6650956273078918
0.5137558579444885 0.00897134654223919 0.6637484431266785
0.514945924282074 0.009870048612356186 0.6630262136459351
0.5182670950889587 0.011809848248958588 0.661328136920929
0.5224040150642395 0.015870297327637672 0.6582960486412048
0.5234873294830322 0.01639607548713684 0.6578016877174377
0.5242785215377808 0.016132332384586334 0.6578016877174377
0.5258490443229675 0.015572981908917427 0.657821774482727
0.5298765897750854 0.01444067619740963 0.6577044725418091
0.532289445400238 0.01374643575400114 0.6576429605484009
0.5348089337348938 0.013317834585905075 0.6574137806892395
0.536700963973999 0.015797078609466553 0.6556804180145264
0.5395130515098572 0.018276261165738106 0.6537761092185974
0.5419090986251831 0.02192813716828823 0.6512954831123352
0.5491799116134644 0.03747374564409256 0.6412795782089233
0.4938523769378662 0.03976786509156227 0.649287223815918
0.48997417092323303 0.009418783709406853 0.6669827103614807
0.4919748306274414 0.007710794452577829 0.667564868927002
0.492636114358902 0.007130823098123074 0.6677659749984741
0.49398094415664673 0.008732462301850319 0.6666198372840881
0.49754852056503296 0.004047378432005644 0.6685752272605896
0.4983087182044983 0.003793987911194563 0.6685752272605896
0.5006348490715027 0.003171249758452177 0.6684894561767578
0.5023293495178223 0.0031817529816180468 0.6681678891181946
0.5032974481582642 0.0035401780623942614 0.6677865982055664
0.5042683482170105 0.0038997060619294643 0.6674047708511353
0.5081647634506226 0.005309143103659153 0.665890097618103
0.5122489333152771 0.007144065108150244 0.6641030311584473
0.5158992409706116 0.010070436634123325 0.6617861390113831
0.5172168612480164 0.011298581957817078 0.6608533263206482
0.5193238854408264 0.012265962548553944 0.659919261932373
0.5207400321960449 0.01372253242880106 0.6588411927223206
0.5222551226615906 0.015429067425429821 0.657604455947876
0.526530921459198 0.014974047429859638 0.6570615768432617
0.5286550521850586 0.013535560108721256 0.6574701070785522
0.5301286578178406 0.012734274379909039 0.6576439142227173
0.5324979424476624 0.011945555917918682 0.6576427817344666
0.5421147346496582 0.022361768409609795 0.650024950504303
0.4862997531890869 0.014104820787906647 0.6641045808792114
0.4873013496398926 0.011778486892580986 0.6652228832244873
0.488068550825119 0.011522711254656315 0.6652228832244873
0.49441125988960266 0.007436769548803568 0.6663289070129395
0.4973776042461395 0.0035310506355017424 0.6679660677909851
0.49813753366470337 0.003277738578617573 0.6679660677909851
0.5004235506057739 0.002536793937906623 0.6679537892341614
0.5067410469055176 0.0036524564493447542 0.6661459803581238
0.5078012347221375 0.004247257951647043 0.6656144261360168
0.5111575126647949 0.006476849317550659 0.6637357473373413
0.5131046772003174 0.0070962063036859035 0.6630239486694336
0.5156331062316895 0.009303400292992592 0.6613129377365112
0.5190457701683044 0.011471206322312355 0.6594581007957458
0.5251238942146301 0.015924476087093353 0.6558225750923157
0.5306644439697266 0.011764699593186378 0.6571203470230103
0.5346360206604004 0.012755127623677254 0.6558216214179993
0.5366219282150269 0.015467153862118721 0.6539289355278015
0.5397423505783081 0.018702587112784386 0.6515296697616577
0.547057569026947 0.034440506249666214 0.6413310766220093
0.48602375388145447 0.013215836137533188 0.6637133359909058
0.4891292154788971 0.009483620524406433 0.6652312874794006
0.4904588758945465 0.008317070081830025 0.6656387448310852
0.4918859899044037 0.007480584550648928 0.6658415794372559
0.4926096200942993 0.007097230758517981 0.6659217476844788
0.49411749839782715 0.006527473218739033 0.665959358215332
0.4956034719944 0.005890264641493559 0.6660395264625549
0.4963255524635315 0.0055080256424844265 0.6661189198493958
0.5010293126106262 0.00182151619810611 0.667311429977417
0.5025542378425598 0.001330860541202128 0.6673017740249634
0.5056174397468567 0.002851450117304921 0.6658706665039062
0.5063809752464294 0.002596884733065963 0.6658706665039062
0.5085013508796692 0.00378485512919724 0.6648043990135193
0.5108343958854675 0.005540045443922281 0.6633781790733337
0.5140618681907654 0.007324322126805782 0.6617684364318848
0.5166720151901245 0.009733595885336399 0.6599218845367432
0.5203525424003601 0.012596506625413895 0.6576198935508728
0.5218640565872192 0.014295409433543682 0.6563796401023865
0.5233817100524902 0.015989966690540314 0.6551414132118225
0.526559054851532 0.014952740631997585 0.6551288366317749
0.5280194878578186 0.01409961748868227 0.6553347706794739
0.5286868214607239 0.013511795550584793 0.6555410623550415
0.5300180315971375 0.012337890453636646 0.6559522151947021
0.5332193970680237 0.0113850561901927 0.6558874249458313
0.5466008186340332 0.03324386104941368 0.6410714387893677
0.4853682518005371 0.013917424716055393 0.6624964475631714
0.4864089787006378 0.011708532460033894 0.6635478734970093
0.49386319518089294 0.005743234883993864 0.6655136942863464
0.4946259558200836 0.005488975439220667 0.6655136942863464
0.4960300624370575 0.004602400586009026 0.66575026512146
0.49932587146759033 0.0017744689248502254 0.6667271852493286
0.5042095184326172 0.0012112850090488791 0.6661255359649658
0.5052595734596252 0.0017986479215323925 0.6655961871147156
0.5060219764709473 0.0015444622840732336 0.6655961871147156
0.5093483924865723 0.003739888546988368 0.6637296676635742
0.5125035643577576 0.0053611621260643005 0.6622201204299927
0.5137988328933716 0.006563154514878988 0.6612978577613831
0.521794855594635 0.014069422148168087 0.6555525660514832
0.5251355767250061 0.015866702422499657 0.6539086103439331
0.5306996703147888 0.011738486588001251 0.6551929712295532
0.5368010997772217 0.015780406072735786 0.651761531829834
0.540144681930542 0.019555330276489258 0.6489993333816528
0.48522940278053284 0.01349585223942995 0.6618152260780334
0.4884430468082428 0.01008390448987484 0.6631417870521545
0.48911041021347046 0.009498107247054577 0.6633474230766296
0.4904421865940094 0.008329305797815323 0.663758397102356
0.49187171459198 0.0074914079159498215 0.6639629602432251
0.4965969920158386 0.0037566202227026224 0.6651867032051086
0.4980151355266571 0.002926027635112405 0.6653895378112793
0.4993249177932739 0.0017751558916643262 0.6657945513725281
0.5030585527420044 0.00031111377757042646 0.6659187078475952
0.5101906657218933 0.003673667786642909 0.6626663208007812
0.5122425556182861 0.00460466556251049 0.6617512106895447
0.5148221850395203 0.006967613939195871 0.6599252820014954
0.5184686779975891 0.009792010299861431 0.6576356887817383
0.5199682712554932 0.01147986575961113 0.6563958525657654
0.5217255353927612 0.013843411579728127 0.6547248959541321
0.5233114361763 0.015719428658485413 0.6533620953559875
0.5265874862670898 0.01493123359978199 0.6531900763511658
0.5280503034591675 0.014076861552894115 0.6533976793289185
0.5287184715270996 0.013487801887094975 0.653605580329895
0.5345152616500854 0.012258769012987614 0.6532066464424133
0.5369954109191895 0.01619849167764187 0.6505057215690613
0.5445056557655334 0.03025203011929989 0.64112389087677
0.4839102327823639 0.014842040836811066 0.6603530049324036
0.4846830368041992 0.0145844342187047 0.6603530049324036
0.4863252341747284 0.01152263954281807 0.6617823243141174
0.49252814054489136 0.00691387802362442 0.6632270216941833
0.49385249614715576 0.005751136224716902 0.6636373400688171
0.4946165382862091 0.005496450699865818 0.6636373400688171
0.5006312727928162 0.0006271511083468795 0.6652655601501465
0.5029183030128479 -0.00010906398529186845 0.6652511954307556
0.5045469403266907 -0.00029769359389320016 0.6650493741035461
0.5075569748878479 0.0010294490493834019 0.6637244820594788
0.5087105631828308 0.0018845839658752084 0.663019597530365
0.5119765400886536 0.0038344264030456543 0.6612922549247742
0.5160155296325684 0.007829604670405388 0.6582555174827576
0.5198987126350403 0.011254006065428257 0.6555728912353516
