ply
format ascii 1.0
element vertex 814
property float x
property float y
property float z
end_header
0.5357335209846497 -0.017108628526329994 0.6801804900169373
0.5296411514282227 -0.011715596541762352 0.6797882914543152
0.5277655720710754 -0.010050125420093536 0.679670512676239
0.520691990852356 -0.003819824196398258 0.6791979670524597
0.5183285474777222 -0.001738213817588985 0.6790400743484497
0.5140745639801025 0.002022214699536562 0.6787634491920471
0.5369997620582581 -0.01759064570069313 0.6798193454742432
0.5304359197616577 -0.011794758029282093 0.679387629032135
0.5280845165252686 -0.009722871705889702 0.6792303919792175
0.5167652368545532 0.00026218718267045915 0.6784800887107849
0.5265271663665771 -0.007729395758360624 0.6786718964576721
0.5241711735725403 -0.0056537059135735035 0.6785138249397278
0.5166072249412537 0.0009976092260330915 0.6779992580413818
0.5156471729278564 0.001817243522964418 0.677919864654541
0.5151668787002563 0.0022273175418376923 0.6778804659843445
0.5385803580284119 -0.017744211480021477 0.6790192723274231
0.5362390875816345 -0.015680590644478798 0.6788622140884399
0.523534893989563 -0.004511433187872171 0.6779940724372864
0.5225784778594971 -0.003694737097248435 0.6779150366783142
0.5216546654701233 -0.0028409042861312628 0.6778753399848938
0.5202183127403259 -0.001614628592506051 0.677756667137146
0.5197728276252747 -0.0011690239189192653 0.677756667137146
0.5183347463607788 5.841438542120159e-05 0.6776376366615295
0.5346558094024658 -0.013731243088841438 0.6782655715942383
0.532309889793396 -0.011663460172712803 0.6781077980995178
0.5167720913887024 0.0020585122983902693 0.6770777106285095
0.513917088508606 0.0027197892777621746 0.6758334636688232
0.5409412980079651 -0.019933383911848068 0.6775075197219849
0.5401286482810974 -0.017936207354068756 0.6781813502311707
0.5373151302337646 -0.015468908473849297 0.6779842376708984
0.5354474782943726 -0.013809315860271454 0.6778659820556641
0.5335784554481506 -0.012148493900895119 0.6777476072311401
0.5331030488014221 -0.011742438189685345 0.6777079701423645
0.5404956340789795 0.010059576481580734 0.6943166255950928
0.5404435992240906 -0.01760832779109478 0.6777428388595581
0.5399700403213501 -0.01720390096306801 0.6777035593986511
0.5385792255401611 -0.015951231122016907 0.6776245832443237
0.5362386107444763 -0.013887546956539154 0.677466630935669
0.5421056151390076 0.0091848848387599 0.6939787268638611
0.5416889786720276 0.009601588360965252 0.6939787268638611
0.5407946109771729 0.010365421883761883 0.6939042210578918
0.5346871018409729 -0.011900226585566998 0.6769094467163086
0.5396829843521118 0.009953456930816174 0.692274272441864
0.5332630276679993 0.016084151342511177 0.6921087503433228
0.5191416144371033 0.0017696265131235123 0.6758359670639038
0.5186962485313416 0.0022150971926748753 0.6758359670639038
0.5177376866340637 0.0030340610537678003 0.6757560968399048
0.5163329839706421 0.004299181047827005 0.675676167011261
0.5158531069755554 0.004709069151431322 0.6756361126899719
0.5420194268226624 -0.017761535942554474 0.6769458651542664
0.5465058088302612 0.00611273106187582 0.6932235956192017
0.5444881916046143 0.008270828984677792 0.6933041214942932
0.5422864556312561 0.010213177651166916 0.6931551694869995
0.5430073738098145 -0.01961475983262062 0.6756405830383301
0.5404718518257141 -0.01577850803732872 0.6763893365859985
0.5381345748901367 -0.013716578483581543 0.676230788230896
0.5381383299827576 0.014369258657097816 0.6924006342887878
0.534446120262146 0.017320843413472176 0.6919742822647095
0.5402591824531555 -0.023277249187231064 0.671129047870636
0.5417025089263916 -0.016298450529575348 0.6759912967681885
0.5412294268608093 -0.015894198790192604 0.6759517192840576
0.539840042591095 -0.014642566442489624 0.6758722066879272
0.5388930439949036 -0.013833004981279373 0.6757928133010864
0.5379763245582581 -0.012984919361770153 0.6757533550262451
0.5481430292129517 0.006146450061351061 0.6926684975624084
0.5380262136459351 0.015096895396709442 0.6919950842857361
0.5375784039497375 0.015479675494134426 0.6919575929641724
0.5366823673248291 0.016245562583208084 0.6918823719024658
0.5339568853378296 0.018508868291974068 0.6916154623031616
0.518223226070404 0.004417773801833391 0.6743960380554199
0.5163398385047913 0.006092521362006664 0.6742756962776184
0.5158601999282837 0.006502670701593161 0.6742357015609741
0.5130136609077454 0.009000459685921669 0.6740342974662781
0.5410339832305908 -0.02131723240017891 0.6718892455101013
0.5429619550704956 -0.016779586672782898 0.6756333112716675
0.5420168042182922 -0.01597139798104763 0.675554096698761
0.546688437461853 0.008010012097656727 0.6921457648277283
0.5444898009300232 0.009950220584869385 0.6919960379600525
0.5440437197685242 0.01033155620098114 0.6919586062431335
0.5435976386070251 0.0107130017131567 0.691921055316925
0.541841983795166 0.01227456983178854 0.6918087005615234
0.5180655717849731 0.005151744931936264 0.673916220664978
0.5176201462745667 0.005597029812633991 0.673916220664978
0.5171410441398621 0.006006898358464241 0.6738761067390442
0.5157026648521423 0.007236912846565247 0.673755407333374
0.5142971873283386 0.008503246121108532 0.6736751198768616
0.5124106407165527 0.010181020013988018 0.673554003238678
0.5116565227508545 0.010316990315914154 0.6731961369514465
0.5345146656036377 -0.030932558700442314 0.661698579788208
0.5382286310195923 -0.025041870772838593 0.6672764420509338
0.5377733111381531 -0.0245867557823658 0.6672764420509338
0.5413552522659302 -0.01892821677029133 0.6726428866386414
0.540469765663147 -0.013988938182592392 0.6749973297119141
0.5499698519706726 0.005494802258908749 0.6918299198150635
0.5491809844970703 0.006377696990966797 0.6918846964836121
0.5478756427764893 0.007554203271865845 0.6918097734451294
0.5469855070114136 0.008315550163388252 0.6917350888252258
0.5425869822502136 0.012197772040963173 0.6914350986480713
0.5403838157653809 0.014142290689051151 0.6912849545478821
0.5381779074668884 0.016088930889964104 0.6911343336105347
0.53533935546875 -0.028877990320324898 0.6625257730484009
0.5385675430297852 -0.02260083332657814 0.6680623292922974
0.5362698435783386 0.018342075869441032 0.6905723214149475
0.53399658203125 0.020225904881954193 0.6903454661369324
0.5332504510879517 0.020294735208153725 0.6899508237838745
0.5108982920646667 0.011345384642481804 0.671718418598175
0.5323625206947327 -0.03283071145415306 0.6576308608055115
0.5318936109542847 -0.03236165642738342 0.6576308608055115
0.5356968641281128 -0.026382770389318466 0.6633453965187073
0.5506618618965149 0.006228822283446789 0.691139280796051
0.5484687685966492 0.008165035396814346 0.6909893155097961
0.5462733507156372 0.010103542357683182 0.6908389925956726
0.5440751910209656 0.012044250033795834 0.6906887292861938
0.534808874130249 0.02021326683461666 0.6900476217269897
0.5318180322647095 0.02134917676448822 0.6889640092849731
0.516668438911438 0.008208327926695347 0.6724370718002319
0.5143048763275146 0.010295161046087742 0.6722753643989563
0.5109812021255493 0.012321310117840767 0.6715173125267029
0.5292935967445374 -0.03690538927912712 0.6525843739509583
0.5437449812889099 -0.015068654902279377 0.6738460063934326
0.5423583388328552 -0.01381830032914877 0.6737661957740784
0.5418859720230103 -0.013413965702056885 0.6737263202667236
0.5421730279922485 0.014291816391050816 0.6901277303695679
0.5403866171836853 0.015820465981960297 0.6899765729904175
0.539970338344574 0.01623682864010334 0.6899765729904175
0.5377650856971741 0.01818396896123886 0.6898255348205566
0.5359742045402527 0.01971661113202572 0.6896742582321167
0.5355574488639832 0.020133506506681442 0.6896742582321167
0.5169901847839355 0.00853188056498766 0.6719978451728821
0.5155865550041199 0.009797472506761551 0.6719170808792114
0.5151071548461914 0.01020794827491045 0.6718766689300537
0.5137020349502563 0.011474578641355038 0.671795666217804
0.5127422213554382 0.012296345084905624 0.6717146039009094
0.5261287093162537 -0.0411079041659832 0.6473802328109741
0.5256450772285461 -0.04062414914369583 0.6473802328109741
0.5521118640899658 0.006044662091881037 0.6903572678565979
0.5464220643043518 0.011094256304204464 0.6899810433387756
0.5459768772125244 0.011475423350930214 0.6899434328079224
0.545086145401001 0.012237760238349438 0.6898679733276367
0.5437790751457214 0.013416635803878307 0.6897926330566406
0.5428872108459473 0.01418002787977457 0.6897170543670654
0.5406855344772339 0.01612463966012001 0.6895660161972046
0.5384811162948608 0.018071282655000687 0.6894145011901855
0.5362744331359863 0.02002032846212387 0.689263105392456
0.5335333347320557 0.022267905995249748 0.6889731287956238
0.5319597721099854 0.022330746054649353 0.6880854964256287
0.5228630304336548 -0.04544396325945854 0.6420102715492249
0.5524072051048279 0.006350036710500717 0.689947783946991
0.5519636869430542 0.00672983517870307 0.689910352230072
0.5502169132232666 0.008284765295684338 0.6897972822189331
0.5497727990150452 0.008665111847221851 0.6897596120834351
0.5480241775512695 0.01022187527269125 0.6896466016769409
0.534365713596344 0.022275008261203766 0.6887004971504211
0.5324442386627197 0.022825421765446663 0.687892496585846
0.5181118845939636 0.00876869447529316 0.671160876750946
0.5167092084884644 0.010033613070845604 0.6710799336433411
0.5143469572067261 0.012120280414819717 0.6709172129631042
0.5442132353782654 -0.01368603017181158 0.6724972128868103
0.542384147644043 -0.01199539378285408 0.6724154353141785
0.5541946887969971 0.004786821082234383 0.6893163323402405
0.5465710759162903 0.01208452694118023 0.6891235709190369
0.5443743467330933 0.014025288634002209 0.6889723539352417
0.5127847790718079 0.014120873995125294 0.6703565120697021
0.5119858384132385 0.014215987175703049 0.6699405312538147
0.5493934750556946 -0.01821264624595642 0.6720699667930603
0.5431414246559143 -0.012110080569982529 0.6719812154769897
0.5424732565879822 0.016272103413939476 0.6884109973907471
0.5402721166610718 0.018217120319604874 0.6882590055465698
0.538068413734436 0.020164350047707558 0.6881070733070374
0.5363097786903381 0.021730374544858932 0.6879928112030029
0.5358623266220093 0.022113889455795288 0.6879550218582153
0.5145118832588196 0.013176231645047665 0.6699993014335632
0.5135527849197388 0.013997887261211872 0.6699177622795105
0.5131075382232666 0.014443163760006428 0.6699177622795105
0.5481070876121521 -0.015896501019597054 0.6718665361404419
0.5476363897323608 -0.015493424609303474 0.6718263030052185
0.545782208442688 -0.01384168490767479 0.6717059016227722
0.5434685349464417 -0.011767230927944183 0.6715637445449829
0.5552005767822266 0.00404567364603281 0.6879410743713379
0.5546023845672607 0.006104147527366877 0.6888094544410706
0.5524340867996216 0.00805954821407795 0.6886827945709229
0.5423253178596497 0.016957852989435196 0.6879629492759705
0.5418792963027954 0.017340037971735 0.6879252195358276
0.5410171747207642 0.018138211220502853 0.6878871917724609
0.5396776795387268 0.019285811111330986 0.6877729296684265
0.5388146042823792 0.020084727555513382 0.6877350211143494
0.5366097092628479 0.02203337661921978 0.6875825524330139
0.53375643491745 0.024162014946341515 0.6871516108512878
0.5185961127281189 0.010147307999432087 0.6698050498962402
0.5176729559898376 0.011001837439835072 0.6697642207145691
0.5162370204925537 0.012232556007802486 0.6696423888206482
0.5465658903121948 -0.013919535093009472 0.6713107228279114
0.5442398190498352 -0.011863029561936855 0.6711500883102417
0.5505407452583313 0.010298826731741428 0.6881228089332581
0.5487649440765381 0.011820451356470585 0.6879712343215942
0.5483497381210327 0.012235542759299278 0.6879712343215942
0.5479053854942322 0.012616260908544064 0.6879332065582275
0.5461563467979431 0.014174552634358406 0.6878195405006409
0.5457112193107605 0.014555771835148335 0.6877814531326294
0.5347026586532593 0.02428712323307991 0.6870198249816895
0.5146766304969788 0.01423141174018383 0.6690816879272461
0.5115128755569458 0.015533882193267345 0.6679718494415283
0.554766833782196 0.007115923333913088 0.6879791617393494
0.5538813471794128 0.007874705828726292 0.6879035830497742
0.5534385442733765 0.008254215121269226 0.6878656148910522
0.5516945123672485 0.009808245114982128 0.687751829624176
0.5512510538101196 0.010188345797359943 0.687714159488678
0.5446730852127075 0.01600385643541813 0.6872580647468567
0.5420596599578857 0.01836254820227623 0.6871057748794556
0.5328693985939026 0.024923022836446762 0.6855329275131226
0.5124850273132324 0.015609116293489933 0.6677714586257935
0.5561671853065491 0.00600595586001873 0.6873860359191895
0.554175853729248 0.008179228752851486 0.6874950528144836
0.5405737161636353 0.020195169374346733 0.6865436434745789
0.5383715033531189 0.022142445668578148 0.6863908171653748
0.5361667275428772 0.024091849103569984 0.6862376928329468
0.5340766906738281 0.025315457955002785 0.6857178807258606
0.5181577205657959 0.012379037216305733 0.6684099435806274
0.5162780284881592 0.01405426301062107 0.6682873964309692
0.511051595211029 0.013303288258612156 0.6647021770477295
0.5520174503326416 -0.018254896625876427 0.6695263385772705
0.5515753626823425 -0.017812998965382576 0.6695263385772705
0.5507347583770752 -0.015839893370866776 0.670207679271698
0.5484141111373901 -0.013787433505058289 0.6700462698936462
0.5470321178436279 -0.012539603747427464 0.6699655055999756
0.546090841293335 -0.011732388287782669 0.6698848605155945
0.5456732511520386 -0.011260835453867912 0.6699173450469971
0.552727460861206 0.010036841034889221 0.6869730353355408
0.5500962734222412 0.01235194317996502 0.6867827773094177
0.5386705994606018 0.022445043548941612 0.6859811544418335
0.5378076434135437 0.023244179785251617 0.6859427690505981
0.5369138121604919 0.024010881781578064 0.6858661770820618
0.5332329273223877 0.02613203041255474 0.6849279999732971
0.518478512763977 0.012701074592769146 0.6679726839065552
0.5175222754478455 0.013521207496523857 0.6678905487060547
0.5165992379188538 0.014376120641827583 0.6678498387336731
0.5139782428741455 0.013530281372368336 0.6657642722129822
0.5100463032722473 0.010500661097466946 0.6615763902664185
0.5095918774604797 0.010955138131976128 0.6615763902664185
0.505527913570404 0.007834251038730145 0.6572540402412415
0.5515151023864746 -0.01591678149998188 0.6698136925697327
0.5496657490730286 -0.014267869293689728 0.6696926355361938
0.5491958260536194 -0.013865102082490921 0.6696521043777466
0.5486456751823425 0.014212144538760185 0.6862601041793823
0.546453595161438 0.016151154413819313 0.6861071586608887
0.5447041988372803 0.017710741609334946 0.6859927177429199
0.5442591309547424 0.018092505633831024 0.6859545111656189
0.5438137650489807 0.018474288284778595 0.6859163641929626
0.5420619249343872 0.020035967230796814 0.6858015060424805
0.5416162014007568 0.020418252795934677 0.6857631206512451
0.5398622751235962 0.021981727331876755 0.6856482625007629
0.5348213911056519 0.02606995403766632 0.6850735545158386
0.5085629224777222 0.008104036562144756 0.6583915948867798
0.5044463276863098 0.004911983851343393 0.6539822816848755
0.5039807558059692 0.005377601832151413 0.6539822816848755
0.5506871342658997 0.012959331274032593 0.6859662532806396
0.5498291254043579 0.013754458166658878 0.6859281063079834
0.5493854880332947 0.014134978875517845 0.6858898401260376
0.5476386547088623 0.015692168846726418 0.6857752799987793
0.5471946001052856 0.01607319340109825 0.6857370734214783
0.5401607155799866 0.022284142673015594 0.6852391958236694
0.5181640982627869 0.014164733700454235 0.6670160293579102
0.5028746724128723 0.0024044637102633715 0.6506484746932983
0.5525966286659241 -0.015680130571126938 0.6689735054969788
0.5502883195877075 -0.013617496937513351 0.6688244342803955
0.5484381914138794 -0.011967819184064865 0.6687026023864746
0.5462365746498108 -0.009759610518813133 0.6687065958976746
0.5577114820480347 0.006753626279532909 0.6856914758682251
0.5566781759262085 0.008258660323917866 0.6859778165817261
0.5557944774627686 0.009016741998493671 0.6859017014503479
0.5544961094856262 0.010189468041062355 0.6858254075050354
0.5536112785339355 0.010948635637760162 0.6857492327690125
0.5523114800453186 0.012122457846999168 0.6856728196144104
0.5501245260238647 0.014057732187211514 0.6855198740959167
0.5387045741081238 0.02415083535015583 0.6847148537635803
0.5365018248558044 0.02610010653734207 0.6845609545707703
0.5347328782081604 0.0268083643168211 0.6839171648025513
0.4968927800655365 -0.0035892529413104057 0.64250648021698
0.5581619739532471 0.006317406892776489 0.6849284768104553
0.5482308864593506 0.016298316419124603 0.6849589347839355
0.5460394024848938 0.018237771466374397 0.6848055124282837
0.5337898135185242 0.027523096650838852 0.6830012798309326
0.5174053311347961 0.016072269529104233 0.6660598516464233
0.5533863306045532 -0.015836818143725395 0.6677168011665344
0.5518197417259216 -0.013810797594487667 0.6679973602294922
0.549971342086792 -0.0121621610596776 0.6678754091262817
0.549501895904541 -0.011759115383028984 0.6678350567817688
0.5477080345153809 -0.0100359246134758 0.6677917242050171
0.5581197142601013 0.008073998615145683 0.6852014660835266
0.5445576310157776 0.02006678842008114 0.6842436194419861
0.5423619151115417 0.022010251879692078 0.684089720249176
0.54060959815979 0.023573268204927444 0.6839742064476013
0.5397480130195618 0.024371575564146042 0.6839355230331421
0.5379630923271179 0.02590411715209484 0.6837814450263977
0.5375471115112305 0.026319922879338264 0.6837814450263977
0.5200803875923157 0.014309284277260303 0.6657880544662476
0.5196031928062439 0.014719149097800255 0.6657470464706421
0.5177260041236877 0.016393324360251427 0.6656230092048645
0.5542755722999573 -0.016805609688162804 0.6668450236320496
0.5525990724563599 -0.013888344168663025 0.6676045656204224
0.5502825975418091 -0.011837555095553398 0.6674420833587646
0.5480266809463501 -0.009702825918793678 0.6673677563667297
0.5477548837661743 -0.009045962244272232 0.6676034331321716
0.5562335252761841 0.010307258926331997 0.6846417188644409
0.5540516376495361 0.012238817289471626 0.6844885945320129
0.547046959400177 0.018428131937980652 0.6839893460273743
0.5457437038421631 0.01960572600364685 0.6839123368263245
0.544854462146759 0.020369093865156174 0.6838354468345642
0.5439948439598083 0.021165955811738968 0.6837969422340393
0.5426595211029053 0.022312352433800697 0.6836813688278198
0.5404620170593262 0.024257946759462357 0.6835271120071411
0.5382618308067322 0.02620566450059414 0.6833724975585938
0.5352383255958557 0.028153300285339355 0.6827138066291809
0.5185244083404541 0.016304049640893936 0.6652279496192932
0.5589982271194458 0.0071757580153644085 0.6836433410644531
0.552604615688324 0.014095526188611984 0.6839662790298462
0.5517191886901855 0.01485567819327116 0.6838893890380859
0.5504190921783447 0.016030754894018173 0.6838126182556152
0.5499757528305054 0.016411298885941505 0.6837740540504456
0.5346514582633972 0.028387630358338356 0.6817182898521423
0.5479891300201416 -0.007892224006354809 0.6668100953102112
0.5591375231742859 0.008224790915846825 0.6835991144180298
0.5577027201652527 0.01015604380518198 0.6839048266410828
0.5559651255607605 0.011706826277077198 0.6837896704673767
0.5555232763290405 0.012086113914847374 0.6837511658668518
0.5537837147712708 0.013638578355312347 0.6836360692977905
0.5485267043113708 0.018270641565322876 0.6832510828971863
0.5463367700576782 0.02021023817360401 0.6830970048904419
0.5441441535949707 0.022151941433548927 0.6829426288604736
0.5369907021522522 0.028255645185709 0.682296097278595
0.5362038016319275 0.028286967426538467 0.681830883026123
0.5200859308242798 0.016091959550976753 0.6643968224525452
0.5552921891212463 -0.015711534768342972 0.6656669974327087
0.5544657111167908 -0.01371874287724495 0.6663873195648193
0.5521524548530579 -0.011669573374092579 0.6662241220474243
0.5487659573554993 -0.00797574408352375 0.6664137840270996
0.5584366917610168 0.010080614127218723 0.6835368275642395
0.5562583804130554 0.01200988981872797 0.683383047580719
0.5426916480064392 0.024015067145228386 0.6824187636375427
0.5400495529174805 0.02634342573583126 0.6822249889373779
0.5204057097434998 0.016412636265158653 0.6639611721038818
0.5199621319770813 0.01685633696615696 0.6639611721038818
0.5185302495956421 0.018086370080709457 0.6638365983963013
0.5176090002059937 0.018940625712275505 0.6637951731681824
0.5524683594703674 -0.018606899306178093 0.661297619342804
0.5523489117622375 -0.016667906194925308 0.6624245047569275
0.552673876285553 -0.015187461860477924 0.663542628288269
0.5529962778091431 -0.013718589209020138 0.6646521091461182
0.5528761744499207 -0.011820795945823193 0.6657530665397644
0.551994264125824 -0.01094295084476471 0.6657506227493286
0.5506165027618408 -0.009697312489151955 0.6656686663627625
0.549678385257721 -0.008891265839338303 0.6655870079994202
0.5490872859954834 -0.00763900950551033 0.6659964323043823
0.5543716549873352 0.014244127087295055 0.682822585105896
0.552189290523529 0.016177615150809288 0.6826683878898621
0.550004243850708 0.01811346970498562 0.6825140118598938
0.5425440073013306 0.024698780849575996 0.681972324848175
0.5416537523269653 0.025463884696364403 0.6818946599960327
0.5407931804656982 0.0262617040425539 0.6818557381629944
0.5399020314216614 0.027027541771531105 0.6817781925201416
0.5385947823524475 0.028209201991558075 0.6817004680633545
0.5222017765045166 0.015552423894405365 0.663708508014679
0.5216788053512573 0.015913957729935646 0.6636084318161011
0.5169742107391357 0.020081734284758568 0.663275957107544
0.5154960751533508 0.02039179764688015 0.6625525951385498
0.549132764339447 -0.02324199303984642 0.6555070281028748
0.5490244030952454 -0.02124926447868347 0.6566774845123291
0.5493683815002441 -0.019724048674106598 0.6578385233879089
0.5497097969055176 -0.018210645765066147 0.6589906811714172
0.5500484108924866 -0.01670912653207779 0.6601336598396301
0.5496004223823547 -0.016261156648397446 0.6601336598396301
0.5600777864456177 0.008275184780359268 0.6818825602531433
0.5489699244499207 0.019557984545826912 0.6819910407066345
0.5481123328208923 0.020353278145194054 0.6819524765014648
0.5476687550544739 0.020734446123242378 0.6819137334823608
0.5459228157997131 0.022293275222182274 0.6817973256111145
0.5452091097831726 -0.02758627012372017 0.6495006084442139
0.5455765128135681 -0.026000816375017166 0.6507170796394348
0.5459407567977905 -0.02442803978919983 0.6519237756729126
0.5463021397590637 -0.022867895662784576 0.6531209349632263
0.5466597080230713 -0.021321386098861694 0.6543070673942566
0.5521461367607117 -0.009892674162983894 0.6648445129394531
0.5545176267623901 0.015228863805532455 0.6819713711738586
0.5536335706710815 0.01598844677209854 0.6818938255310059
0.5531917214393616 0.01636849343776703 0.6818553805351257
0.5518932342529297 0.017542587593197823 0.6817779541015625
0.5510081648826599 0.0183035247027874 0.6817004084587097
0.5466336011886597 0.02218024991452694 0.6813904047012329
0.5444425344467163 0.0241220835596323 0.6812350749969482
0.5422487854957581 0.02606603316962719 0.681079626083374
0.540052592754364 0.028012283146381378 0.6809237599372864
0.5372243523597717 0.029307741671800613 0.6799688339233398
0.522826075553894 0.016179315745830536 0.6628209948539734
0.5204443335533142 0.01822703890502453 0.662613034248352
0.518092930316925 0.02031114511191845 0.6624464392662048
0.5160843133926392 0.02097884565591812 0.6616110801696777
0.5156391859054565 0.021423861384391785 0.6616110801696777
0.541998565196991 -0.030931765213608742 0.6445320248603821
0.542384147644043 -0.02930925227701664 0.645786464214325
0.5427666306495667 -0.027700241655111313 0.6470306515693665
0.5431445837020874 -0.02610626630485058 0.6482627987861633
0.5426799058914185 -0.025641456246376038 0.6482627987861633
0.5506105422973633 -0.007920755073428154 0.6642889976501465
0.557770311832428 0.005199157167226076 0.6769589185714722
0.5602508187294006 0.010237440466880798 0.6816563606262207
0.5596063733100891 0.01129258144646883 0.6819130182266235
0.5587252974510193 0.012049879878759384 0.6818355917930603
0.5578440427780151 0.012807709164917469 0.6817585825920105
0.5561075210571289 0.014358611777424812 0.6816424131393433
0.538277804851532 0.029543858021497726 0.6799903512001038
0.5386910438537598 -0.03437772020697594 0.6394137740135193
0.5390951037406921 -0.03271811455488205 0.6407065391540527
0.5394956469535828 -0.031073015183210373 0.6419885754585266
0.5527662634849548 -0.009245477616786957 0.66398024559021
0.5518581867218018 -0.0084031131118536 0.6639390587806702
0.5509210824966431 -0.007597395684570074 0.6638566255569458
0.5499663949012756 -0.004811680410057306 0.6650040745735168
0.5546631813049316 0.016212886199355125 0.6811205148696899
0.552482008934021 0.018146421760320663 0.68096524477005
0.5502985119819641 0.0200821440666914 0.6808099746704102
0.5481123924255371 0.022020235657691956 0.6806545853614807
0.5372405648231506 0.03015497885644436 0.6789395809173584
0.5234499573707581 0.016805782914161682 0.6619343757629395
0.522002637386322 0.018013959750533104 0.6617844700813293
0.521559476852417 0.018457120284438133 0.6617844700813293
0.5196534395217896 0.02009672485291958 0.6616177558898926
0.5162197947502136 0.022003522142767906 0.6606609225273132
0.5344202518463135 -0.04137503355741501 0.6314317584037781
0.534852921962738 -0.03964526578783989 0.6327903866767883
0.5352807641029358 -0.03793175518512726 0.6341363787651062
0.5352224111557007 -0.035749729722738266 0.6354706883430481
0.5356448888778687 -0.03406689316034317 0.6367937922477722
0.550041139125824 -0.005789091344922781 0.6636098623275757
0.5501178503036499 -0.004691646434366703 0.6643478870391846
0.5462199449539185 0.02426142804324627 0.6800922751426697
0.5444736480712891 0.025821546092629433 0.6799752712249756
0.5440292358398438 0.026203662157058716 0.6799361705780029
0.5435848832130432 0.026585975661873817 0.6798973083496094
0.541836142539978 0.028148099780082703 0.6797800064086914
0.5247789621353149 0.016369309276342392 0.6616595983505249
0.5204496383666992 0.02000615745782852 0.6612242460250854
0.5313147902488708 -0.04335230588912964 0.6273047924041748
0.5317644476890564 -0.041596293449401855 0.6286949515342712
0.5317201018333435 -0.039364926517009735 0.6300731301307678
0.5524781346321106 -0.007756753358989954 0.66307532787323
0.5610733032226562 0.010140793398022652 0.6797716021537781
0.5603595972061157 0.012046130374073982 0.6805223822593689
0.5583086609840393 0.014127730391919613 0.6805418729782104
0.556132435798645 0.01605755090713501 0.680386483669281
0.5508882403373718 0.020685041323304176 0.6799979209899902
0.5495889782905579 0.021860415115952492 0.6799198389053345
0.5491461753845215 0.02224138006567955 0.6798807382583618
0.5478169322013855 0.023385027423501015 0.679763913154602
0.5469595193862915 0.024180712178349495 0.679724931716919
0.5425781011581421 0.02806587517261505 0.6794121265411377
0.54038405418396 0.030011940747499466 0.6792557835578918
0.5396546721458435 0.03009813092648983 0.678850531578064
0.5181760787963867 0.02217099629342556 0.6603186726570129
0.5172391533851624 0.022132134065032005 0.6597036123275757
0.554162859916687 -0.008678225800395012 0.6627263426780701
0.558551549911499 0.006870425771921873 0.675327479839325
0.560502827167511 0.01216201577335596 0.6799052357673645
0.5568385720252991 0.015946270897984505 0.6799812316894531
0.5564255714416504 0.01635931059718132 0.6799812316894531
0.555984616279602 0.016738831996917725 0.6799423694610596
0.5542475581169128 0.01829119585454464 0.6798256635665894
0.5538060665130615 0.018671123310923576 0.6797866225242615
0.55206698179245 0.020225172862410545 0.6796699166297913
0.5390154719352722 0.030270177870988846 0.6777696013450623
0.5184527039527893 0.022447526454925537 0.6598286032676697
0.5540048480033875 -0.007952877320349216 0.6622539162635803
0.552640438079834 -0.0007075266912579536 0.6659814715385437
0.5597461462020874 0.013940173201262951 0.6797705888748169
0.5593060851097107 0.014318899251520634 0.6797316074371338
0.5505925416946411 0.022048644721508026 0.6791079640388489
0.526263952255249 0.0169790368527174 0.6604732871055603
0.524703860282898 0.018064802512526512 0.6601725220680237
0.5223591327667236 0.02014482207596302 0.660004734992981
0.5218831896781921 0.020554393529891968 0.6599626541137695
0.5200119614601135 0.022227292880415916 0.6598370671272278
0.5552485585212708 -0.008434483781456947 0.6619054079055786
0.5543142557144165 -0.007630104199051857 0.6618226170539856
0.5538466572761536 -0.007227742113173008 0.6617811918258667
0.5524717569351196 -0.005983120761811733 0.6616984009742737
0.5515868067741394 -0.005111659877002239 0.661689817905426
0.5508654713630676 -0.003034304827451706 0.6625519394874573
0.5605515837669373 0.010218216106295586 0.6771343350410461
0.5600382089614868 0.014242094941437244 0.6793657541275024
0.5487030744552612 0.024287322536110878 0.6785458922386169
0.5465166568756104 0.02622731402516365 0.6783892512321472
0.5443273186683655 0.028169414028525352 0.6782320141792297
0.5420128703117371 0.029983868822455406 0.6779142022132874
0.5415981411933899 0.030398644506931305 0.6779142022132874
0.5265365242958069 0.01725180260837078 0.6599818468093872
0.5259554386138916 0.017549656331539154 0.6598017811775208
0.5250216722488403 0.018384253606200218 0.6597388386726379
0.5235961675643921 0.019611867144703865 0.6596128940582275
0.5231533646583557 0.020054541528224945 0.6596128940582275
0.5569301247596741 -0.009354722686111927 0.6615570783615112
0.551056981086731 -0.0038605581503361464 0.6613156199455261
0.5564054846763611 0.004901925567537546 0.6703121066093445
0.5585973858833313 0.016092849895358086 0.6788442730903625
0.5564225912094116 0.018022673204541206 0.6786879897117615
0.5468123555183411 0.0265275239944458 0.677983283996582
0.5459548830986023 0.027323290705680847 0.6779439449310303
0.5450676679611206 0.028087235987186432 0.6778655052185059
0.5428771376609802 0.030030956491827965 0.6777079701423645
0.5519534945487976 -0.0008050110191106796 0.6630076169967651
0.5616189241409302 0.012373348698019981 0.6776137948036194
0.5545387864112854 0.020255623385310173 0.6781267523765564
0.5523597002029419 0.022189732640981674 0.6779701113700867
0.5519180297851562 0.02257022261619568 0.6779309511184692
0.5501782298088074 0.02412593923509121 0.6778132915496826
0.5497356653213501 0.02450692467391491 0.6777739524841309
0.5265741944313049 0.018171533942222595 0.6589137315750122
0.5242326855659485 0.020250041037797928 0.6587456464767456
0.5193729996681213 0.023370560258626938 0.6576336622238159
0.5581337809562683 -0.009980672970414162 0.6602575182914734
0.5566415190696716 -0.007868656888604164 0.6606549024581909
0.5543351173400879 -0.00582125736400485 0.6604889035224915
0.5520259737968445 -0.0037714021746069193 0.6603226065635681
0.5511449575424194 -0.0018998639425262809 0.6609578132629395
0.5578099489212036 0.007501345593482256 0.6712599396705627
0.5609556436538696 0.014273581095039845 0.6776196956634521
0.558741569519043 0.017074525356292725 0.6779959797859192
0.5578887462615967 0.017866317182779312 0.6779571175575256
0.5574485063552856 0.018245549872517586 0.6779178380966187
0.5557140707969666 0.01979682594537735 0.6778003573417664
0.5552730560302734 0.020176555961370468 0.6777610778808594
0.5539497137069702 0.021316494792699814 0.6776435971260071
0.5482892394065857 0.026364456862211227 0.6772508025169373
0.546103298664093 0.02830493077635765 0.6770933270454407
0.5287207961082458 0.01769222505390644 0.6591416597366333
0.5226821303367615 0.02223951369524002 0.6581854820251465
0.5205122828483582 0.02361568808555603 0.6576763391494751
0.5583474636077881 -0.009785715490579605 0.659683346748352
0.5537097454071045 -0.0046942103654146194 0.6599751710891724
0.5527749061584473 -0.0038887765258550644 0.6598918437957764
0.551885187625885 -0.003024500096216798 0.6598756909370422
0.5533609986305237 0.0018190438859164715 0.663939356803894
0.5529277324676514 0.002252205042168498 0.663939356803894
0.560403048992157 0.0125880790874362 0.6753936409950256
0.5602943897247314 0.01616731286048889 0.6776255369186401
0.55818110704422 0.018167288973927498 0.6775527000427246
0.5560067892074585 0.02009754627943039 0.6773958206176758
0.5446547269821167 0.03016461431980133 0.6765695214271545
0.5433394312858582 0.030474919825792313 0.6759230494499207
0.5282291173934937 0.01806824840605259 0.6582272052764893
0.5258179903030396 0.02006952278316021 0.6579634547233582
0.5227693915367126 0.020545942708849907 0.6563094854354858
0.5230006575584412 0.022558046504855156 0.6577520370483398
0.5576967000961304 -0.007662716321647167 0.6597946882247925
0.5558585524559021 -0.006018349900841713 0.6596696972846985
0.555391788482666 -0.005616088397800922 0.65962815284729
0.5514512062072754 -0.00165386067237705 0.6596420407295227
0.5562862157821655 0.00736779160797596 0.6685789227485657
0.5541236400604248 0.022330421954393387 0.676834225654602
0.5448253750801086 0.030329586938023567 0.6759964227676392
0.5303208231925964 0.017538251355290413 0.6583920121192932
0.5290772914886475 0.018039613962173462 0.6579133868217468
0.5279995799064636 0.01871996372938156 0.6576569080352783
0.526135265827179 0.020388178527355194 0.6575306057929993
0.5189106464385986 0.016646716743707657 0.6504580974578857
0.5193713903427124 0.01801822893321514 0.6516395211219788
0.5198283195495605 0.019378961995244026 0.6528118848800659
0.5202817916870117 0.020729048177599907 0.6539751291275024
0.5198341608047485 0.02117648348212242 0.6539751291275024
0.5202900171279907 0.0225184578448534 0.6551346182823181
0.5584707260131836 -0.007742263376712799 0.6594064831733704
0.5561671257019043 -0.005696316249668598 0.6592397689819336
0.5520462989807129 -0.0019665693398565054 0.6589868664741516
0.5519387722015381 0.001855942769907415 0.6613897085189819
0.5583117008209229 0.010787783190608025 0.6712889671325684
0.5526520013809204 0.024151861667633057 0.6762723326683044
0.5504719614982605 0.026088200509548187 0.6761147379875183
0.5487317442893982 0.027645118534564972 0.6759961247444153
0.5482892394065857 0.028026552870869637 0.6759565472602844
0.5478757619857788 0.028440061956644058 0.6759565472602844
0.5459593534469604 0.029811175540089607 0.6756038665771484
0.5430591106414795 0.030145544558763504 0.6739441752433777
0.5304386615753174 0.017647305503487587 0.6576971411705017
0.5148829817771912 0.01071563083678484 0.6431522369384766
0.5149091482162476 0.012603153474628925 0.6443899273872375
0.5153954029083252 0.014017429202795029 0.6456192135810852
0.5158811211585999 0.015423581004142761 0.646842896938324
0.5163613557815552 0.016816886141896248 0.6480547785758972
0.5159057974815369 0.017272496595978737 0.6480547785758972
0.5163818001747131 0.018650736659765244 0.6492542624473572
0.5546367764472961 -0.0037289736792445183 0.6586846113204956
0.5509378910064697 0.0005347997066564858 0.6590510606765747
0.5540227293968201 0.005370567087084055 0.6641888618469238
0.5602018237113953 0.014019200578331947 0.6738073825836182
0.5610127449035645 0.01595480553805828 0.6755890250205994
0.5605994462966919 0.016368215903639793 0.6755890250205994
0.5542693734169006 0.023310918360948563 0.6759864091873169
0.553828239440918 0.023691095411777496 0.675946831703186
0.553386926651001 0.024071382358670235 0.6759073138237
0.551649808883667 0.025626102462410927 0.6757890582084656
0.5512081384658813 0.02600688859820366 0.6757494211196899
0.5301697254180908 0.01825559139251709 0.6570743322372437
0.5107152462005615 0.006468934006989002 0.6368087530136108
0.5107609033584595 0.008411582559347153 0.6380985975265503
0.5117806196212769 0.011314475908875465 0.6406433582305908
0.5122840404510498 0.012748228386044502 0.641899824142456
0.5118200182914734 0.013212339021265507 0.641899824142456
0.5590479373931885 -0.008180581964552402 0.657818615436554
0.5560595989227295 0.008806129917502403 0.6669250130653381
0.559627115726471 0.015109976753592491 0.6733468770980835
0.5598869919776917 0.018196675926446915 0.675524115562439
0.5584694743156433 0.020128091797232628 0.6758583188056946
0.5575897097587585 0.020886797457933426 0.6757796406745911
0.5562967658042908 0.022058483213186264 0.6757006645202637
0.5450683236122131 0.030536269769072533 0.6739113926887512
0.5322480201721191 0.017718669027090073 0.6572325825691223
0.5284759998321533 0.020084373652935028 0.6563176512718201
0.5063830018043518 0.0020546712912619114 0.630216121673584
0.5059021711349487 0.0025355673860758543 0.630216121673584
0.5064464807510376 0.0040517509914934635 0.6315565705299377
0.5069860219955444 0.005555274896323681 0.6328855752944946
0.5075213313102722 0.0070463018491864204 0.6342040300369263
0.5592594146728516 -0.007988424971699715 0.6572401523590088
0.5584895610809326 -0.005936646834015846 0.6580764651298523
0.5575577020645142 -0.005133240949362516 0.6579926013946533
0.556187093257904 -0.003890705993399024 0.657909095287323
0.5557206869125366 -0.0034885366912931204 0.6578671336174011
0.5538820624351501 -0.0018424183363094926 0.6577415466308594
0.5516173839569092 0.0002622658503241837 0.6576370596885681
0.5516480803489685 0.003255212679505348 0.6596097946166992
0.5559510588645935 0.009562903083860874 0.6665322780609131
0.5600048303604126 0.01828538253903389 0.6748679876327515
0.554414689540863 0.024290751665830612 0.6751388907432556
0.5522375702857971 0.02622521109879017 0.6749805212020874
0.550058126449585 0.028161948546767235 0.6748220920562744
0.546875536441803 0.029878228902816772 0.6738656163215637
0.5462451577186584 0.030059726908802986 0.6735725998878479
0.5297390222549438 0.01958603225648403 0.6559703946113586
0.5287923812866211 0.020402656868100166 0.6558856964111328
0.5278773307800293 0.0212528295814991 0.6558433175086975
0.5025316476821899 0.0010728524066507816 0.6261414885520935
0.5588181614875793 -0.008679662831127644 0.6556559205055237
0.5586734414100647 -0.0057804216630756855 0.6574582457542419
0.5546296238899231 -0.0019601613748818636 0.6573118567466736
0.5523227453231812 8.98611979209818e-05 0.6571438908576965
0.5509024858474731 0.0022628807928413153 0.6576364636421204
0.5516380667686462 0.004155966453254223 0.6593564748764038
0.5553532242774963 0.010666445828974247 0.6660469770431519
0.5593099594116211 0.016459094360470772 0.6724261045455933
0.5481964945793152 0.029562927782535553 0.6737282276153564
0.5346017479896545 0.017470398917794228 0.6569210886955261
0.5325093269348145 0.01796150580048561 0.6558732390403748
0.5319570302963257 0.018284140154719353 0.6557231545448303
0.555151104927063 0.011307600885629654 0.6655176877975464
0.5584213137626648 0.016242846846580505 0.6709019541740417
0.5599368214607239 0.019009854644536972 0.6737121939659119
0.5518309473991394 0.027459891512989998 0.6739379167556763
0.5509112477302551 0.028182029724121094 0.6738083958625793
0.5457896590232849 0.027786461636424065 0.6701880693435669
0.5344427824020386 0.017277536913752556 0.6558466553688049
0.5327606201171875 0.01821177452802658 0.6553558111190796
0.5303712487220764 0.020222553983330727 0.6551075577735901
0.5596340298652649 -0.006730122026056051 0.655779242515564
0.5580152273178101 -0.003767668269574642 0.6566635966300964
0.5501443147659302 0.004139591008424759 0.6566873788833618
0.5540717244148254 0.010878448374569416 0.6637066602706909
0.5566213130950928 0.014925367198884487 0.6680475473403931
0.558999240398407 0.02056295797228813 0.6733222603797913
0.5579241514205933 0.021998656913638115 0.6735596656799316
0.5575679540634155 0.022478660568594933 0.6736410856246948
0.5559796690940857 0.024203117936849594 0.6737306714057922
0.553921103477478 0.02627197466790676 0.6737374663352966
0.5434940457344055 0.02437864989042282 0.6656299233436584
0.5362637639045715 0.017397340387105942 0.656277596950531
0.5288267135620117 0.02220652438700199 0.6545482277870178
0.5596334338188171 -0.005792316514998674 0.6555518507957458
0.5554495453834534 -0.0031529173720628023 0.6545323729515076
0.556021511554718 -0.0014001416275277734 0.6560665965080261
0.5546503067016602 -0.0001567291037645191 0.6559823751449585
0.5541839003562927 0.00024581269826740026 0.6559401154518127
0.5537171959877014 0.0006485723424702883 0.6558979153633118
0.5518777370452881 0.002296454505994916 0.6557714343070984
0.5502386689186096 0.004194327164441347 0.655942440032959
0.5499845147132874 0.004858773667365313 0.656213104724884
0.5521785020828247 0.009468087926506996 0.6607030630111694
0.5517471432685852 0.009899541735649109 0.6607030630111694
0.5543564558029175 0.01399905513972044 0.6651307344436646
0.5568870902061462 0.017974890768527985 0.669424831867218
0.5560525059700012 0.024246659129858017 0.6730130910873413
0.547552227973938 0.026155274361371994 0.668662965297699
0.5415640473365784 0.020441722124814987 0.6609400510787964
0.536773681640625 0.0170116163790226 0.6555150151252747
0.5343433022499084 0.018043646588921547 0.6545922160148621
0.5590044856071472 -0.0036482696887105703 0.6557081937789917
0.5576412677764893 -0.0023980201222002506 0.6556333899497986
0.5544192790985107 -0.005597662180662155 0.6513833999633789
0.5511031150817871 -0.00889105349779129 0.6470085978507996
0.5511747002601624 -0.0077622453682124615 0.6478032469749451
0.5526539087295532 0.0022132967133075 0.6553845405578613
0.5497469902038574 0.0054830526933074 0.6556247472763062
0.5494965314865112 0.006149801891297102 0.655900239944458
0.5498001575469971 0.008448212407529354 0.6576223373413086
0.552462637424469 0.01260629203170538 0.6621367335319519
0.554098904132843 0.015506668947637081 0.6651393175125122
0.5553905963897705 0.017976218834519386 0.6676287055015564
0.5549702644348145 0.018396589905023575 0.6676287055015564
0.5562430620193481 0.02081984654068947 0.670074999332428
0.5530169010162354 0.026941876858472824 0.671991765499115
0.5514184236526489 0.026903843507170677 0.670908510684967
0.5474997162818909 0.024293240159749985 0.666587233543396
0.5439577698707581 0.021251186728477478 0.6622292995452881
0.5391709208488464 0.016859859228134155 0.6561546921730042
0.5336475372314453 0.019104303792119026 0.6539844870567322
0.5322626829147339 0.02036023512482643 0.6538990139961243
0.5317904949188232 0.02076810784637928 0.653856635093689
0.5299317240715027 0.02243335172533989 0.6537286639213562
0.5280395150184631 0.02406739629805088 0.6535577178001404
0.5275982618331909 0.02450871467590332 0.6535577178001404
0.5569974780082703 -0.005372128449380398 0.6523863077163696
0.5538191199302673 -0.008535278029739857 0.6481771469116211
0.5500082969665527 -0.011447077617049217 0.6437150239944458
0.5465452671051025 -0.014908471144735813 0.6391187906265259
0.5433279871940613 -0.0180190559476614 0.6349186897277832
0.553152322769165 -0.00425651716068387 0.6505745649337769
0.5527073740959167 -0.003811450209468603 0.6505745649337769
0.5506770014762878 0.012306089513003826 0.6599251627922058
0.5515905022621155 0.015269283205270767 0.6624982953071594
0.5529115200042725 0.017756693065166473 0.6650262475013733
0.5536648631095886 0.01956152357161045 0.6667243242263794
0.5537196397781372 0.020538903772830963 0.6674094200134277
0.55335533618927 0.021930640563368797 0.6680914163589478
0.5534106492996216 0.022897612303495407 0.6687699556350708
0.5518903136253357 0.023847360163927078 0.6683911085128784
0.5505070686340332 0.02316911332309246 0.6670229434967041
0.5491170883178711 0.022491777315735817 0.6656506657600403
0.5477316379547119 0.021828221157193184 0.6642904877662659
0.5442550778388977 0.01882372796535492 0.6599887013435364
0.5438240766525269 0.01925475150346756 0.6599887013435364
0.54020756483078 0.01613496243953705 0.6555176377296448
0.539216935634613 0.01595868542790413 0.6547428965568542
0.5385197401046753 0.016111796721816063 0.6543816924095154
0.5368585586547852 0.01705489680171013 0.6539050936698914
0.53581702709198 0.017760109156370163 0.6536819338798523
0.5353456139564514 0.018167080357670784 0.6536391973495483
0.530688464641571 0.022309735417366028 0.6532976031303406
0.5581120848655701 -0.006039631552994251 0.6518294215202332
0.5555112957954407 -0.008465454913675785 0.6484835147857666
0.5520807504653931 -0.011966637335717678 0.6438691020011902
0.5488072037696838 -0.015229057520627975 0.6395185589790344
0.5449718832969666 -0.01811829023063183 0.6350422501564026
0.541498601436615 -0.021566135808825493 0.6304348111152649
0.5465152859687805 -0.01291104219853878 0.6395357847213745
0.5546097755432129 -0.00043391637154854834 0.6532295942306519
0.5541766285896301 0.0020118318498134613 0.6545693874359131
0.5481153726577759 0.008239418268203735 0.6546800136566162
0.5477855801582336 0.008807032369077206 0.6548383831977844
0.5471892952919006 0.010013779625296593 0.6552446484565735
0.5480838418006897 0.01202090922743082 0.6571763157844543
0.5484524369239807 0.013398202136158943 0.6583384275436401
0.5485283136367798 0.014425821602344513 0.659072995185852
0.5482509136199951 0.01689646579325199 0.6605329513549805
0.5477973222732544 0.017298370599746704 0.6604986786842346
0.5463650226593018 0.016578365117311478 0.6590657830238342
0.5459332466125488 0.01701004058122635 0.6590657830238342
0.544502317905426 0.01630539447069168 0.6576443314552307
0.543057382106781 0.015593829564750195 0.6562086939811707
0.5415922999382019 0.014868712052702904 0.6547508239746094
0.5391684174537659 0.01587521657347679 0.6538071632385254
0.5385819673538208 0.016152311116456985 0.6536012887954712
0.5361311435699463 0.01807800494134426 0.6532517075538635
0.5503309965133667 -0.015441826544702053 0.6395024061203003
0.5468924045562744 -0.018925661221146584 0.6348811984062195
0.5434510111808777 -0.022381391376256943 0.6302769184112549
0.542977511882782 -0.02190784551203251 0.6302769184112549
0.5389134883880615 -0.0228175837546587 0.6269566416740417
0.548095166683197 -0.008861267939209938 0.6424028873443604
0.5521807074546814 0.004382408689707518 0.6539715528488159
0.5517422556877136 0.004820910282433033 0.6539715528488159
0.5503408908843994 0.006031643599271774 0.6538442969322205
0.5498963594436646 0.006463158875703812 0.6538355350494385
0.5481599569320679 0.008240478113293648 0.6538630127906799
0.5477856397628784 0.008755884133279324 0.6539571285247803
0.5457189083099365 0.011095664463937283 0.6541393399238586
0.5448882579803467 0.012025431729853153 0.6542056202888489
0.5439677238464355 0.012850956991314888 0.6541422009468079
0.5433975458145142 0.013137922622263432 0.6539530754089355
0.5419358611106873 0.014288116246461868 0.653745174407959
0.5345908999443054 0.020057404413819313 0.6526931524276733
0.5322636365890503 0.022128339856863022 0.6525222063064575
0.5287280082702637 0.024753892794251442 0.6519144773483276
0.527504563331604 0.025293326005339622 0.6514580249786377
0.5449261665344238 -0.022721627727150917 0.6301195621490479
0.5411085486412048 -0.01789974980056286 0.6307917833328247
0.5500922203063965 -0.005349498707801104 0.6452085375785828
0.555259644985199 0.002248742152005434 0.6537551879882812
0.5538892149925232 0.0034925115760415792 0.6536703109741211
0.5466330051422119 0.010215862654149532 0.6533135175704956
0.5457501411437988 0.011087196879088879 0.6533058881759644
0.544428825378418 0.012397682294249535 0.6532984972000122
0.5307214856147766 0.024110030382871628 0.6519630551338196
0.5432384014129639 -0.014182682149112225 0.633802056312561
0.5427025556564331 0.014148910529911518 0.6524644494056702
0.5403331518173218 0.016152450814843178 0.6522189378738403
0.538013219833374 0.018217559903860092 0.6520478129386902
0.5370720624923706 0.019030949100852013 0.651962161064148
0.535690426826477 0.020284950733184814 0.6518763899803162
0.5338364243507385 0.021947115659713745 0.6517475843429565
0.5333648324012756 0.022354628890752792 0.6517045497894287
0.5319495797157288 0.023578066378831863 0.6515758037567139
0.5545061230659485 0.004131260793656111 0.6528143286705017
0.5522027015686035 0.006181939505040646 0.6526442766189575
0.542962372303009 0.014407765120267868 0.6519609093666077
0.5415546894073486 0.015624791383743286 0.6518325805664062
0.5411152839660645 0.016064265742897987 0.6518325805664062
0.5397062301635742 0.017282530665397644 0.6517041325569153
0.5387964844703674 0.01812848262488842 0.6516611576080322
