ply
format ascii 1.0
element vertex 826
property float x
property float y
property float z
end_header
0.5287876725196838 0.057218652218580246 0.6676540374755859
0.5335062742233276 0.05996524915099144 0.6655027866363525
0.5348146557807922 0.06098338961601257 0.6647780537605286
0.5382972955703735 0.06275369226932526 0.6633181571960449
0.5409657955169678 0.06482546776533127 0.6618428826332092
0.5431621670722961 0.06558525562286377 0.6610993146896362
0.5458763837814331 0.06768666207790375 0.6596022248268127
0.5472458004951477 0.06875000894069672 0.6588456034660339
0.5508653521537781 0.07059665769338608 0.6573240160942078
0.5536550283432007 0.07275006175041199 0.6557886600494385
0.5545225739479065 0.07246082276105881 0.6557886600494385
0.557345986366272 0.07463572919368744 0.6542359590530396
0.5587698221206665 0.07573402673006058 0.6534525752067566
0.5625194907188416 0.07765494287014008 0.6518732309341431
0.5639675855636597 0.07876741886138916 0.651078999042511
0.5668877363204956 0.0810127705335617 0.6494755148887634
0.43767398595809937 0.13209174573421478 0.6444166898727417
0.4363122582435608 0.11694423854351044 0.652215838432312
0.43640491366386414 0.11156085878610611 0.6548916697502136
0.4374448359012604 0.106552354991436 0.657221794128418
0.43776729702949524 0.1028713583946228 0.6590085029602051
0.4385770261287689 0.09673403203487396 0.6619413495063782
0.43985721468925476 0.09366293251514435 0.6632628440856934
0.4411998689174652 0.0858425498008728 0.6669484972953796
0.44255298376083374 0.08348998427391052 0.6678991317749023
0.44400179386138916 0.08174555003643036 0.6685298681259155
0.4508287012577057 0.08061057329177856 0.6679598093032837
0.45279014110565186 0.08162157237529755 0.6671270728111267
0.4557310938835144 0.08303231745958328 0.6659318804740906
0.4590723216533661 0.0863020196557045 0.663740873336792
0.4609929919242859 0.08688545227050781 0.6631290912628174
0.4620021879673004 0.08739820122718811 0.662704586982727
0.46760040521621704 0.08398769050836563 0.6634768843650818
0.4684431552886963 0.08370676636695862 0.6634768843650818
0.4698309600353241 0.08182454109191895 0.664186418056488
0.47429245710372925 0.0776698887348175 0.6655197739601135
0.4766184091567993 0.07606827467679977 0.6659328937530518
0.47736772894859314 0.07543488591909409 0.666124165058136
0.4805028438568115 0.07349997758865356 0.666569709777832
0.48368239402770996 0.0717836394906044 0.6668978333473206
0.48447564244270325 0.0713534876704216 0.6669803261756897
0.48773476481437683 0.06997724622488022 0.6671253442764282
0.4885559678077698 0.06965932995080948 0.6671472787857056
0.4926183223724365 0.06791941076517105 0.6673401594161987
0.49377530813217163 0.06555154174566269 0.6683310866355896
0.49370276927948 0.06206537410616875 0.6700854897499084
0.49452608823776245 0.061790935695171356 0.6700854897499084
0.49479347467422485 0.059559423476457596 0.671156644821167
0.49640390276908875 0.05890868231654167 0.6712140440940857
0.498028427362442 0.058310143649578094 0.6712421178817749
0.49883323907852173 0.05798504129052162 0.671270489692688
0.5014711022377014 0.060804493725299835 0.6694219708442688
0.5035815834999084 0.06178729981184006 0.6685789823532104
0.5063753128051758 0.06197672337293625 0.6680185198783875
0.5085862874984741 0.05443704500794411 0.6714187860488892
0.5093111395835876 0.05386479198932648 0.6715841293334961
0.5101300477981567 0.05359182134270668 0.6715841293334961
0.5125371217727661 0.05261951684951782 0.6716694831848145
0.5141576528549194 0.05202231556177139 0.6716980338096619
0.5149595141410828 0.051698237657547 0.6717263460159302
0.5165622234344482 0.051050085574388504 0.6717833280563354
0.5182947516441345 0.050789590924978256 0.6716247797012329
0.5220302939414978 0.05371719226241112 0.6695387363433838
0.5232875347137451 0.05470108240842819 0.6688376665115356
0.5266523957252502 0.056409016251564026 0.6674231886863708
0.5292162895202637 0.058412231504917145 0.66599440574646
0.5300516486167908 0.05813378095626831 0.66599440574646
0.5326470136642456 0.06015957519412041 0.6645493507385254
0.5339539051055908 0.061178870499134064 0.6638222336769104
0.5352679491043091 0.06220356002449989 0.663091242313385
0.5361116528511047 0.061922263354063034 0.663091242313385
0.5374342799186707 0.06295129656791687 0.6623561382293701
0.5387638211250305 0.06398564577102661 0.6616175770759583
0.5414433479309082 0.06607048213481903 0.6601287722587585
0.5436480045318604 0.06683529168367386 0.6593793630599976
0.5502942204475403 0.08193058520555496 0.6507260799407959
0.5524822473526001 0.07986608147621155 0.6513933539390564
0.5527741312980652 0.07804636657238007 0.6522542238235474
0.5513821244239807 0.0718771442770958 0.6555705666542053
0.5541837811470032 0.07404524087905884 0.6540198922157288
0.5564687848091125 0.07484796643257141 0.653237521648407
0.5593209862709045 0.0770518109202385 0.6516607999801636
0.5607593059539795 0.07816512137651443 0.6508645415306091
0.5616391897201538 0.07787183672189713 0.6508645415306091
0.5645401477813721 0.08010557293891907 0.6492646932601929
0.5674735903739929 0.08236575126647949 0.6476464867591858
0.5683628916740417 0.08206931501626968 0.6476464867591858
0.4359245300292969 0.12100562453269958 0.6491997241973877
0.43580207228660583 0.11410407721996307 0.6526820063591003
0.4359281063079834 0.10896109789609909 0.6552407741546631
0.4367927610874176 0.10867287963628769 0.6552407741546631
0.43699637055397034 0.10417352616786957 0.6574637293815613
0.43733659386634827 0.10062283277511597 0.6591879725456238
0.43771958351135254 0.09740490466356277 0.6607387065887451
0.4381609559059143 0.09460759907960892 0.6620676517486572
0.439439058303833 0.09155578166246414 0.6633850336074829
0.4398459494113922 0.08867474645376205 0.6647617220878601
0.440299928188324 0.08612236380577087 0.6659663915634155
0.4408034682273865 0.08390601724386215 0.6669942736625671
0.44298532605171204 0.08131374418735504 0.6679294109344482
0.44374608993530273 0.08066044002771378 0.6681299209594727
0.4453740119934082 0.07996589690446854 0.6682063341140747
0.44619035720825195 0.07963438332080841 0.6682361960411072
0.4487781524658203 0.07938830554485321 0.6679267883300781
0.4505353569984436 0.0793759822845459 0.6676393747329712
0.45437633991241455 0.08095704764127731 0.6662038564682007
0.4554598927497864 0.08194582164287567 0.6655269265174866
0.4565657079219818 0.08302576839923859 0.6647999882698059
0.4587947428226471 0.08520285040140152 0.6633349657058716
0.4607083797454834 0.08576367050409317 0.6627342104911804
0.4643511176109314 0.08591572940349579 0.6620481610298157
0.4688257575035095 0.08157231658697128 0.6634788513183594
0.47023114562034607 0.07979720085859299 0.6641349196434021
0.472512811422348 0.07795051485300064 0.6646797060966492
0.4747208058834076 0.0758378878235817 0.665369987487793
0.4762991666793823 0.07490076124668121 0.6655758619308472
0.4778078496456146 0.07368897646665573 0.6659319400787354
0.47857844829559326 0.07315631955862045 0.666070282459259
0.4809490442276001 0.07181449234485626 0.6663466095924377
0.48494020104408264 0.06977560371160507 0.6667022705078125
0.489866703748703 0.06789363920688629 0.6668223738670349
0.4906715154647827 0.06752176582813263 0.666874349117279
0.4929231107234955 0.06582558155059814 0.6673489212989807
0.4934508204460144 0.06124332547187805 0.6695590615272522
0.49427345395088196 0.06096911057829857 0.6695590615272522
0.49981313943862915 0.05830751359462738 0.6699682474136353
0.5010772943496704 0.05952665954828262 0.6691450476646423
0.5041428804397583 0.06067146733403206 0.6680583953857422
0.5051151514053345 0.060874052345752716 0.6677940487861633
0.5066306591033936 0.059866223484277725 0.6680459976196289
0.508330225944519 0.056538812816143036 0.6694310903549194
0.5178626179695129 0.05221834406256676 0.6700043678283691
0.5199275016784668 0.05292084813117981 0.6693069338798523
0.5211789608001709 0.05390666797757149 0.6686029434204102
0.5224348306655884 0.054891347885131836 0.6678992509841919
0.5245261192321777 0.055604543536901474 0.6671916842460632
0.5257968902587891 0.05659908428788185 0.6664799451828003
0.5270740985870361 0.05759911239147186 0.6657649874687195
0.5317854881286621 0.0603511705994606 0.6635965704917908
0.5357236862182617 0.06343138962984085 0.6613932251930237
0.5365703105926514 0.06314919143915176 0.6613932251930237
0.5378986597061157 0.06418472528457642 0.6606517434120178
0.539233386516571 0.06522556394338608 0.6599060297012329
0.5405754446983337 0.0662722960114479 0.6591567397117615
0.5487965941429138 0.08052843064069748 0.6506307721138
0.5504948496818542 0.07978970557451248 0.6507171988487244
0.5522148013114929 0.07653293013572693 0.6520633697509766
0.5519021153450012 0.07316621392965317 0.6538048982620239
0.553305983543396 0.07425632327795029 0.6530234813690186
0.5547167062759399 0.07535094767808914 0.652238130569458
0.5570111870765686 0.07616019994020462 0.6514486074447632
0.5598755478858948 0.07837836444377899 0.649856686592102
0.561319887638092 0.07949773222208023 0.649054229259491
0.5622026920318604 0.07920346409082413 0.649054229259491
0.5636554956436157 0.08032453805208206 0.6482487916946411
0.5651167035102844 0.08145274966955185 0.6474381685256958
0.4358861446380615 0.12751592695713043 0.6448763608932495
0.43535318970680237 0.11773641407489777 0.6498884558677673
0.43529945611953735 0.11131219565868378 0.6531318426132202
0.4354551136493683 0.1063813790678978 0.6555877327919006
0.43631628155708313 0.10609427094459534 0.6555877327919006
0.4365670680999756 0.10191484540700912 0.6576493978500366
0.4369088411331177 0.09838910400867462 0.6593668460845947
0.43730536103248596 0.09527283161878586 0.660868763923645
0.4377472698688507 0.09249415993690491 0.6621935963630676
0.4390237033367157 0.08946149796247482 0.6635061502456665
0.43943899869918823 0.08664558827877045 0.6648542284965515
0.43991535902023315 0.08424246311187744 0.6659835577011108
0.44127416610717773 0.08192289620637894 0.6669232249259949
0.4435341954231262 0.07982311397790909 0.6676012873649597
0.44435033202171326 0.07949312776327133 0.6676298975944519
0.44680875539779663 0.07855762541294098 0.6676888465881348
0.45222583413124084 0.07929660379886627 0.6664077043533325
0.45327091217041016 0.08012601733207703 0.6658143401145935
0.45410215854644775 0.07984888553619385 0.6658143401145935
0.4562930762767792 0.0819377452135086 0.6643953323364258
0.4574025869369507 0.0830192118883133 0.6636651158332825
0.45935773849487305 0.08382651954889297 0.6629307270050049
0.46141761541366577 0.08509311825037003 0.6619474291801453
0.4623580873012543 0.08527738600969315 0.661697268486023
0.4640502333641052 0.08473948389291763 0.6616835594177246
0.46557775139808655 0.08344293385744095 0.6620795726776123
0.46697619557380676 0.08158094435930252 0.6627821922302246
0.46920400857925415 0.07943887263536453 0.663486897945404
0.47063833475112915 0.07782186567783356 0.6640602350234985
0.4729151427745819 0.07598903030157089 0.6646012663841248
0.4759807288646698 0.07373611629009247 0.6652206778526306
0.4782591164112091 0.07200420647859573 0.6657099723815918
0.4790908396244049 0.0717269703745842 0.6657099723815918
0.4806270897388458 0.07066591084003448 0.6659864187240601
0.4822003245353699 0.06976405531167984 0.6661763787269592
0.48625028133392334 0.06799425184726715 0.6663874983787537
0.49194127321243286 0.06563343107700348 0.6666211485862732
0.493039608001709 0.06307310611009598 0.6677254438400269
0.4948335587978363 0.05984204262495041 0.6690514087677002
0.4964475929737091 0.059190165251493454 0.6691086292266846
0.5027461647987366 0.059093933552503586 0.668100118637085
0.5037142634391785 0.05929414555430412 0.6678367257118225
0.5046841502189636 0.05949505418539047 0.6675726771354675
0.5061721801757812 0.05840899795293808 0.6678701043128967
0.5075154900550842 0.05686880275607109 0.6684205532073975
0.5079246163368225 0.05526786297559738 0.6691573262214661
0.5085782408714294 0.0544598251581192 0.6694542169570923
0.5102033019065857 0.05386122316122055 0.6694828867912292
0.5126152634620667 0.05288640409708023 0.6695688962936401
0.5142396688461304 0.05228855460882187 0.6695976853370667
0.515042781829834 0.05196341127157211 0.6696260571479797
0.5170111656188965 0.05240331590175629 0.669074296951294
0.5203240513801575 0.05408932641148567 0.667669951915741
0.5228416919708252 0.05607305094599724 0.6662488579750061
0.5241085886955261 0.05706905946135521 0.6655346751213074
0.5274988412857056 0.058798063546419144 0.6640960574150085
0.5287876725196838 0.059809718281030655 0.6633701920509338
0.5322287678718567 0.06156942620873451 0.6619071364402771
0.533539354801178 0.06259413063526154 0.6611716747283936
0.5361828207969666 0.06466718018054962 0.6596845984458923
0.539706289768219 0.06647404283285141 0.6581836342811584
0.545085072517395 0.07844714820384979 0.651253879070282
0.5463199019432068 0.07912831008434296 0.6507036089897156
0.5482591986656189 0.07904623448848724 0.6504195928573608
0.5504891276359558 0.07712080329656601 0.6510143280029297
0.5516577363014221 0.07502532750368118 0.6518735289573669
0.553836464881897 0.0755634531378746 0.6512371897697449
0.5552536845207214 0.07666608691215515 0.6504444479942322
0.5575569272041321 0.07748114317655563 0.6496473550796509
0.5618838667869568 0.08083941042423248 0.6472306847572327
0.5627696514129639 0.08054415136575699 0.6472306847572327
0.5656975507736206 0.0828094407916069 0.6455994844436646
0.5671730041503906 0.08395123481750488 0.6447767615318298
0.4351452589035034 0.12307783961296082 0.6461778283119202
0.4348282217979431 0.11477047950029373 0.6504275798797607
0.4348263442516327 0.10871060937643051 0.6534887552261353
0.4349898397922516 0.10384867340326309 0.6559174060821533
0.436140775680542 0.09967107325792313 0.6578338742256165
0.436483770608902 0.09617004543542862 0.6595445871353149
0.4368939697742462 0.09315461665391922 0.6609988212585449
0.43733638525009155 0.09039375931024551 0.6623185276985168
0.4386104941368103 0.08737996965646744 0.6636266708374023
0.439529687166214 0.08235260844230652 0.6660113334655762
0.44923684000968933 0.077784463763237 0.6666845083236694
0.45006513595581055 0.07751701772212982 0.666679859161377
0.45197275280952454 0.07828395068645477 0.6659713387489319
0.45299839973449707 0.07902020961046219 0.6654266119003296
0.45602113008499146 0.08085261285305023 0.6639923453330994
0.4601411819458008 0.08352867513895035 0.6619467735290527
0.4629075825214386 0.08384762704372406 0.661319375038147
0.46453720331192017 0.08302967995405197 0.6614586710929871
0.4659680128097534 0.08131042122840881 0.6620858907699585
0.46960267424583435 0.07741589844226837 0.6634415984153748
0.47032415866851807 0.07663619518280029 0.6637139320373535
0.47187918424606323 0.07558099925518036 0.6639848947525024
0.4764060378074646 0.07193036377429962 0.6650663614273071
0.480305939912796 0.06952010840177536 0.6656274795532227
0.4827062785625458 0.0683443695306778 0.6658172011375427
0.4834964871406555 0.06791656464338303 0.665900468826294
0.4842895567417145 0.06750223785638809 0.665976345539093
0.485925555229187 0.06686871498823166 0.6660205721855164
0.4883894920349121 0.0659598633646965 0.6660646200180054
0.49322301149368286 0.060584936290979385 0.6679660081863403
0.4940459132194519 0.06031063571572304 0.6679660081863403
0.4948538839817047 0.05998414382338524 0.6679948568344116
0.5005573630332947 0.05787491425871849 0.6680997610092163
0.5015076398849487 0.05802874639630318 0.6678627133369446
0.5023308396339417 0.05775434523820877 0.6678627133369446
0.5050038695335388 0.057598114013671875 0.66749107837677
0.5065395832061768 0.05668307840824127 0.6676946878433228
0.5173982977867126 0.05356834828853607 0.6674398183822632
0.518643319606781 0.05455237999558449 0.6667333245277405
0.5219832062721252 0.056258756667375565 0.6653087139129639
0.5232496857643127 0.057257506996393204 0.6645911335945129
0.5245232582092285 0.05826440453529358 0.6638679504394531
0.5253580212593079 0.05798611789941788 0.6638679504394531
0.5266388058662415 0.05899236351251602 0.6631442308425903
0.5279259085655212 0.06000415235757828 0.6624156832695007
0.5292201042175293 0.06102181598544121 0.6616843938827515
0.5305209159851074 0.06204529479146004 0.6609479784965515
0.5313643217086792 0.06176416948437691 0.6609479784965515
0.5339908599853516 0.06382666528224945 0.6594640612602234
0.5353132486343384 0.06486307084560394 0.658717691898346
0.5366433262825012 0.06590686738491058 0.6579666137695312
0.5388340950012207 0.06667077541351318 0.6572120785713196
0.5401822924613953 0.06773015856742859 0.6564501523971558
0.5445760488510132 0.07702631503343582 0.6510140299797058
0.5466673970222473 0.07737401127815247 0.6504866480827332
0.5486681461334229 0.07746358215808868 0.6501041054725647
0.5499351620674133 0.07561060041189194 0.6508264541625977
0.5543704032897949 0.07687979191541672 0.6494387984275818
0.5581064820289612 0.07881097495555878 0.6478344202041626
0.5624520778656006 0.0821903869509697 0.6453949809074402
0.5633408427238464 0.08189413696527481 0.6453949809074402
0.5662817358970642 0.08417492359876633 0.6437481045722961
0.4344694912433624 0.11907171458005905 0.6472632884979248
0.43426817655563354 0.1115671843290329 0.6511010527610779
0.43435749411582947 0.10613154619932175 0.6538418531417847
0.4345339238643646 0.10137520730495453 0.6562228798866272
0.4357171356678009 0.09744206815958023 0.6580165028572083
0.4360616207122803 0.09396550804376602 0.6597205400466919
0.43648502230644226 0.09104903042316437 0.6611272692680359
0.4369281828403473 0.08830685168504715 0.6624431014060974
0.43820005655288696 0.08531181514263153 0.6637460589408875
0.43865683674812317 0.08277429640293121 0.6649552583694458
0.43936091661453247 0.08175051957368851 0.6653551459312439
0.4401799440383911 0.08142001181840897 0.6653842926025391
0.44264546036720276 0.08048269152641296 0.6654426455497742
0.44428178668022156 0.07982034236192703 0.6655020117759705
0.44674521684646606 0.07888336479663849 0.665560781955719
0.44838014245033264 0.07822195440530777 0.6656192541122437
0.4492076635360718 0.07794610410928726 0.6656192541122437
0.4500248432159424 0.07761548459529877 0.6656492948532104
0.4535897672176361 0.07781217247247696 0.6649471521377563
0.45574989914894104 0.07976973801851273 0.6635899543762207
0.45880401134490967 0.08164263516664505 0.6621249318122864
0.45985880494117737 0.08241567760705948 0.6615543961524963
0.46423155069351196 0.08183682709932327 0.6611090302467346
0.4663560688495636 0.07918888330459595 0.662092387676239
0.4678880274295807 0.0779876634478569 0.662442147731781
0.4722883701324463 0.0736585259437561 0.6638929843902588
0.47303205728530884 0.07300296425819397 0.664099931716919
0.47534680366516113 0.07141762226819992 0.6645123362541199
0.4776262938976288 0.06972093880176544 0.664987325668335
0.47845566272735596 0.06944447755813599 0.664987325668335
0.48078078031539917 0.06797051429748535 0.6653410792350769
0.48561587929725647 0.06580095738172531 0.6656240820884705
0.48644325137138367 0.0655251145362854 0.6656240820884705
0.48807474970817566 0.06488507986068726 0.6656733751296997
0.49051323533058167 0.06389841437339783 0.66576087474823
0.4919373393058777 0.06251596659421921 0.666221559047699
0.4964917302131653 0.05947289243340492 0.6669945120811462
0.49812355637550354 0.05887174978852272 0.6670234799385071
0.5005476474761963 0.05789243429899216 0.6671101450920105
0.5062815546989441 0.05587995424866676 0.6671614050865173
0.5086484551429749 0.05473202094435692 0.6673434972763062
0.5102770328521729 0.05413210391998291 0.6673723459243774
0.5110827088356018 0.05380625277757645 0.6674014329910278
0.5126941204071045 0.05315510183572769 0.66745924949646
0.5143217444419861 0.052555449306964874 0.6674880981445312
0.5177873969078064 0.05474034696817398 0.6657949090003967
0.5190374851226807 0.055730417370796204 0.6650820374488831
0.5223898887634277 0.0574481338262558 0.6636446118354797
0.5236612558364868 0.05845306068658829 0.6629205346107483
0.5270639061927795 0.06020069122314453 0.661459743976593
0.5296552181243896 0.06224197521805763 0.659987211227417
0.5309611558914185 0.06327153742313385 0.6592442989349365
0.5331225395202637 0.06402432918548584 0.6584975719451904
0.5344446301460266 0.06506496667861938 0.6577467918395996
0.5357734560966492 0.06611064821481705 0.6569923162460327
0.5371081233024597 0.067159004509449 0.6562352180480957
0.539307713508606 0.06792868673801422 0.655473530292511
0.5425643920898438 0.07417552918195724 0.6517568230628967
0.5440690517425537 0.07561112940311432 0.6507749557495117
0.5461411476135254 0.07591722160577774 0.6502695083618164
0.5471977591514587 0.07611864805221558 0.6499887704849243
0.5481298565864563 0.0759844034910202 0.6498996019363403
0.5520718693733215 0.07598923146724701 0.6492310762405396
0.5534864664077759 0.07709433883428574 0.6484319567680359
0.5549083948135376 0.07820513099431992 0.6476287841796875
0.5563381314277649 0.07932205498218536 0.646821141242981
0.558659553527832 0.08014969527721405 0.6460089087486267
0.5601068735122681 0.08127764612436295 0.6451928019523621
0.5615623593330383 0.08241274207830429 0.6443715691566467
0.563024640083313 0.0835510864853859 0.6435470581054688
0.5653892755508423 0.08439876139163971 0.6427180767059326
0.434785932302475 0.13455423712730408 0.6382806301116943
0.43387773633003235 0.11562671512365341 0.6480622291564941
0.43374648690223694 0.1086135134100914 0.6516522169113159
0.43389207124710083 0.10357114672660828 0.6541925072669983
0.4340948164463043 0.09900462627410889 0.6564810872077942
0.4352964162826538 0.0952276885509491 0.6581985354423523
0.4356420934200287 0.09177534282207489 0.6598959565162659
0.4360787570476532 0.0889565646648407 0.6612558960914612
0.43652212619781494 0.08623228967189789 0.6625661253929138
0.4373563230037689 0.0859542265534401 0.6625661253929138
0.4378046691417694 0.08333198726177216 0.6638244390487671
0.4544009566307068 0.07772435992956161 0.6638627648353577
0.4565824270248413 0.07975888252258301 0.6624578237533569
0.4576913118362427 0.08083343505859375 0.6617230176925659
0.45852795243263245 0.0805545523762703 0.6617230176925659
0.4605467915534973 0.08165951073169708 0.6608186960220337
0.46231213212013245 0.08151073753833771 0.6605948209762573
0.46465280652046204 0.07984326034784317 0.6610466241836548
0.4660472273826599 0.07799788564443588 0.6617488265037537
0.46826955676078796 0.07588361203670502 0.662447452545166
0.47053107619285583 0.07399757206439972 0.6630232930183411
0.472721666097641 0.07185456901788712 0.6637418270111084
0.4743064045906067 0.07097956538200378 0.6639184951782227
0.4757956862449646 0.06971896439790726 0.6643071174621582
0.4789424538612366 0.06793128699064255 0.6646830439567566
0.48290178179740906 0.06584911048412323 0.6650708913803101
0.4877742528915405 0.06386404484510422 0.6652539968490601
0.48858630657196045 0.06353547424077988 0.6652834415435791
0.49170637130737305 0.06176479905843735 0.6656554937362671
0.4924464821815491 0.06118487939238548 0.6658250093460083
0.4940849244594574 0.060596175491809845 0.6658464670181274
0.4957043528556824 0.05994211137294769 0.6659045219421387
0.49651390314102173 0.0596148744225502 0.6659336686134338
0.49814745783805847 0.05901306867599487 0.6659627556800842
0.5156876444816589 0.053941838443279266 0.6655682921409607
0.5194342732429504 0.0569162480533123 0.663420557975769
0.5202659368515015 0.056639011949300766 0.663420557975769
0.5227994322776794 0.05864541977643967 0.6619701385498047
0.5240756273269653 0.05965607613325119 0.6612393260002136
0.5253585577011108 0.06067238375544548 0.660504937171936
0.5274900794029236 0.06141258776187897 0.6597672700881958
0.5314046144485474 0.06450571864843369 0.6575300693511963
0.5322534441947937 0.0642227828502655 0.6575300693511963
0.5362356901168823 0.06736311316490173 0.6552572250366211
0.5375770330429077 0.06842122226953506 0.6544917225837708
0.5384345054626465 0.0681353434920311 0.6544917225837708
0.5397844910621643 0.06919597834348679 0.6537235975265503
0.5420635938644409 0.0727725699543953 0.6515177488327026
0.5466701984405518 0.07466313242912292 0.6497750878334045
0.5503122806549072 0.07649453729391098 0.6482254862785339
0.5526010990142822 0.07730881869792938 0.6474239826202393
0.5554496645927429 0.07953914999961853 0.6458062529563904
0.5568856000900269 0.08066340535879135 0.6449909806251526
0.5592167377471924 0.08149764686822891 0.6441715359687805
0.5606700778007507 0.08263283222913742 0.6433472633361816
0.5636007785797119 0.08492133766412735 0.641685962677002
0.5644956231117249 0.0846230685710907 0.641685962677002
0.43316221237182617 0.1239299476146698 0.6428975462913513
0.43405112624168396 0.12363379448652267 0.6428975462913513
0.4333302974700928 0.11247257143259048 0.6487172245979309
0.43325793743133545 0.10587746649980545 0.6520954966545105
0.4334300756454468 0.10103033483028412 0.6545410752296448
0.43367820978164673 0.09677939862012863 0.6566686034202576
0.43452727794647217 0.09649637341499329 0.6566686034202576
0.43487831950187683 0.09302778542041779 0.6583793759346008
0.43522679805755615 0.08960866183042526 0.6600650548934937
0.4356749653816223 0.08687751740217209 0.6613829731941223
0.438460111618042 0.08241613954305649 0.6631860136985779
0.44010183215141296 0.08175306767225266 0.6632450222969055
0.44257286190986633 0.0808134526014328 0.6633047461509705
0.4464613199234009 0.0928017795085907 0.6565235257148743
0.44840043783187866 0.09356240183115005 0.6558055281639099
0.447501003742218 0.07887830585241318 0.6634541153907776
0.4483201801776886 0.0785471722483635 0.6634836792945862
0.4499685764312744 0.07793983072042465 0.66351318359375
0.4507870674133301 0.07760880887508392 0.6635423302650452
0.4524245858192444 0.07694806903600693 0.6636013984680176
0.45741578936576843 0.079740971326828 0.6613267660140991
0.45825135707855225 0.0794624537229538 0.6613267660140991
0.4636227786540985 0.0794612243771553 0.6604133248329163
0.46504369378089905 0.07772979885339737 0.6610550880432129
0.467267781496048 0.07561622560024261 0.6617559790611267
0.46795910596847534 0.07470206916332245 0.6621046662330627
0.4686671793460846 0.07387210428714752 0.6624078750610352
0.47170689702033997 0.07151896506547928 0.663091778755188
0.4747718274593353 0.0693429484963417 0.663681149482727
0.47706007957458496 0.06770756840705872 0.6641266345977783
0.48100847005844116 0.06558645516633987 0.6645371317863464
0.48503556847572327 0.06381221860647202 0.6647576689720154
0.5006004571914673 0.058172035962343216 0.66498863697052
0.5014095306396484 0.05784458667039871 0.6650176644325256
0.5022343993186951 0.05756962671875954 0.6650176644325256
0.5046613216400146 0.05658790096640587 0.6651062369346619
0.5062941908836365 0.05598575994372368 0.6651352643966675
0.5087189674377441 0.05500539019703865 0.6652235984802246
0.51035076379776 0.0544041208922863 0.6652523875236511
0.5119659304618835 0.053751230239868164 0.665311336517334
0.512773334980011 0.05342481657862663 0.6653404831886292
0.5140050053596497 0.054404523223638535 0.6646308898925781
0.5160719752311707 0.05511650815606117 0.6639153957366943
0.5173195600509644 0.05610914155840874 0.6631965637207031
0.5198333859443665 0.05810923874378204 0.6617483496665955
0.5206677317619324 0.05783111974596977 0.6617483496665955
0.5219360589981079 0.058837808668613434 0.6610183119773865
0.5244924426078796 0.06086691841483116 0.6595473885536194
0.5279204845428467 0.0626356229186058 0.6580621004104614
0.5292236804962158 0.06366753578186035 0.6573132872581482
0.5318507552146912 0.06574851274490356 0.655803918838501
0.5327022671699524 0.06546466052532196 0.655803918838501
0.5340277552604675 0.06651154160499573 0.6550442576408386
0.5367007851600647 0.06862422823905945 0.6535106301307678
0.5402644276618958 0.07047158479690552 0.651961624622345
0.5443746447563171 0.0737103596329689 0.6496090888977051
0.5494265556335449 0.07670854032039642 0.647219181060791
0.5508360266685486 0.07781670242547989 0.6464138031005859
0.5531335473060608 0.07863718271255493 0.6456037759780884
0.5559948682785034 0.08088219165802002 0.643971860408783
0.5574368238449097 0.0820138081908226 0.6431484818458557
0.5583248734474182 0.08171774446964264 0.6431484818458557
0.5597772598266602 0.0828545019030571 0.6423212885856628
0.5612374544143677 0.08399762213230133 0.6414894461631775
0.4322776794433594 0.11839284002780914 0.6448203921318054
0.4328041076660156 0.10945812612771988 0.6493064165115356
0.4327969253063202 0.10332027077674866 0.6524513959884644
0.4329715967178345 0.09850873798131943 0.6548863649368286
0.43326446413993835 0.09456875175237656 0.6568543314933777
0.43411076068878174 0.09428680688142776 0.6568543314933777
0.4352734088897705 0.08481074869632721 0.6615096926689148
0.4359440505504608 0.08352614939212799 0.6620531678199768
0.44262465834617615 0.08148618042469025 0.6619570255279541
0.4450913667678833 0.09050300717353821 0.6569178104400635
0.446181982755661 0.09159733355045319 0.6561710238456726
0.45604777336120605 0.07764247804880142 0.6616345643997192
0.46087709069252014 0.0794406458735466 0.659888505935669
0.4625575840473175 0.0789082869887352 0.6598742008209229
0.4654325246810913 0.0756271556019783 0.6610643267631531
0.46766412258148193 0.07358857244253159 0.6617276072502136
0.4699442386627197 0.0718146413564682 0.6622470021247864
0.472185343503952 0.06991689652204514 0.6628361940383911
0.47522759437561035 0.06768034398555756 0.6634621620178223
0.4760071039199829 0.06720849871635437 0.6635706424713135
0.47839635610580444 0.06601445376873016 0.663774847984314
0.4791775047779083 0.06555967032909393 0.663874089717865
0.48234525322914124 0.06392925977706909 0.664168119430542
0.4880465269088745 0.06172667071223259 0.6643235087394714
0.4924525320529938 0.061366673558950424 0.6637551188468933
0.4941241443157196 0.06088327243924141 0.6637176275253296
0.4965583384037018 0.05989943817257881 0.6638058423995972
0.4981951415538788 0.05929579958319664 0.6638355851173401
0.5006266236305237 0.05831218510866165 0.6639243364334106
0.5014370083808899 0.05798457935452461 0.6639536619186401
0.5022626519203186 0.05770932137966156 0.6639536619186401
0.5063269138336182 0.05612414702773094 0.6640716791152954
0.513146698474884 0.05459214374423027 0.6636922359466553
0.5143842697143555 0.05558125302195549 0.6629739999771118
0.5177112221717834 0.05729733407497406 0.6615267395973206
0.522345781326294 0.06004411354660988 0.6593290567398071
0.524912416934967 0.06208587810397148 0.6578447818756104
0.5262054204940796 0.06311441212892532 0.6570973992347717
0.5296616554260254 0.06490457057952881 0.6555901765823364
0.5323000550270081 0.06699974089860916 0.6540667414665222
0.5344852805137634 0.06776782870292664 0.6532999277114868
0.5358233451843262 0.06882717460393906 0.6525291204452515
0.5371689200401306 0.0698932483792305 0.6517534255981445
0.5385215282440186 0.07096441090106964 0.650973916053772
0.5421156287193298 0.07283416390419006 0.6494027972221375
0.5448744297027588 0.07501332461833954 0.647814929485321
0.5471392273902893 0.07581872493028641 0.6470159888267517
0.5499473810195923 0.07803226262331009 0.6454024910926819
0.5513627529144287 0.07914767414331436 0.6445896029472351
0.5536699295043945 0.07997451722621918 0.6437723636627197
0.5579919219017029 0.08337339758872986 0.6412932872772217
0.5588831305503845 0.08307632803916931 0.6412932872772217
0.5603416562080383 0.08422057330608368 0.6404585242271423
0.5618082880973816 0.08537092059850693 0.639618992805481
0.4315606355667114 0.11400270462036133 0.6461432576179504
0.43243536353111267 0.11371107399463654 0.6461432576179504
0.43225234746932983 0.10626445710659027 0.6500023007392883
0.43233901262283325 0.10077884048223495 0.6528067588806152
0.43251833319664 0.0960175096988678 0.6552233099937439
0.4328532814979553 0.09237255156040192 0.65703946352005
0.43405038118362427 0.0886709913611412 0.6587369441986084
0.43590047955513 0.08369532972574234 0.6609777212142944
0.4367326498031616 0.08341793715953827 0.6609777212142944
0.4383784234523773 0.08275268971920013 0.6610370874404907
0.4400237500667572 0.08208776265382767 0.6610968708992004
0.44085556268692017 0.08181048929691315 0.6610968708992004
0.4435880184173584 0.08739364892244339 0.6577593684196472
0.44481515884399414 0.08930632472038269 0.6565663814544678
0.4459034204483032 0.09039637446403503 0.6558195352554321
0.4467504620552063 0.0901140347123146 0.6558195352554321
0.4487035572528839 0.09097016602754593 0.6550443768501282
0.45040684938430786 0.09043091535568237 0.6550301909446716
0.45000961422920227 0.07878334075212479 0.6610846519470215
0.45073267817497253 0.07793500274419785 0.6613970398902893
0.4523731768131256 0.07727152109146118 0.6614564657211304
0.45402389764785767 0.07666309922933578 0.6614868640899658
0.4587361514568329 0.07799239456653595 0.6599957942962646
0.45968320965766907 0.07825373113155365 0.6596992015838623
0.4622618556022644 0.07775213569402695 0.6595155000686646
0.4637358784675598 0.07627523690462112 0.6600221395492554
0.46810635924339294 0.07178331911563873 0.6615821123123169
0.4704267382621765 0.07021477073431015 0.6619907021522522
0.4711659848690033 0.06955250352621078 0.6622046232223511
0.47347477078437805 0.06798169761896133 0.6626161932945251
0.4765291213989258 0.06583726406097412 0.6631947755813599
0.48048126697540283 0.0637647733092308 0.6635833382606506
0.4820900559425354 0.0630587488412857 0.6636704802513123
0.48450639843940735 0.06201721727848053 0.6637921929359436
0.4853304624557495 0.06174252927303314 0.6637921929359436
0.4861510097980499 0.06145511940121651 0.663798987865448
0.4886055588722229 0.060566868633031845 0.6638350486755371
0.4902326762676239 0.05994245037436485 0.6638770699501038
0.49658018350601196 0.06004166230559349 0.6627386212348938
0.504723072052002 0.0568656362593174 0.6629759073257446
0.5063597559928894 0.05626251548528671 0.6630053520202637
0.5071700215339661 0.055935077369213104 0.6630354523658752
0.5087895393371582 0.05527991056442261 0.663094162940979
0.5104250907897949 0.05467734485864639 0.6631236672401428
0.5147661566734314 0.056765586137771606 0.6613069772720337
0.5181052684783936 0.05849306657910347 0.6598463654518127
0.5206391215324402 0.06051788851618767 0.6583718657493591
0.5227576494216919 0.06125776097178459 0.6576288342475891
0.5266333818435669 0.06434781849384308 0.6553770899772644
0.5301030278205872 0.0661499947309494 0.653856098651886
0.5327516794204712 0.06825671344995499 0.6523193120956421
0.5336086750030518 0.06797101348638535 0.6523193120956421
0.5349458456039429 0.06903264671564102 0.6515445709228516
0.5362894535064697 0.07009807229042053 0.6507670879364014
0.5376402735710144 0.07117059081792831 0.6499840617179871
0.5389984250068665 0.07224862277507782 0.6491973400115967
0.5398644804954529 0.07195992767810822 0.6491973400115967
0.5412314534187317 0.07304109632968903 0.6484078168869019
0.5426069498062134 0.07413167506456375 0.6476114988327026
0.545377254486084 0.07632339745759964 0.6460103392601013
0.5462524890899658 0.0760316401720047 0.6460103392601013
0.5476513504981995 0.07713685929775238 0.6452022194862366
0.5504719614982605 0.07936491072177887 0.643574059009552
0.5518931746482849 0.08048773556947708 0.6427531242370605
0.5527778267860413 0.08019285649061203 0.6427531242370605
0.5542094111442566 0.08132081478834152 0.6419281959533691
0.5556488633155823 0.08245521038770676 0.6410986185073853
0.5585506558418274 0.08474216610193253 0.6394257545471191
0.5623827576637268 0.08675234019756317 0.637736439704895
0.4330122768878937 0.13116012513637543 0.6359951496124268
0.43098893761634827 0.11061163246631622 0.6469413042068481
0.4317206144332886 0.10320159792900085 0.6506375074386597
0.43188443779945374 0.09825693815946579 0.6531589031219482
0.4320818781852722 0.09363435208797455 0.6555092334747314
0.4324449300765991 0.09019079804420471 0.6572227478027344
0.4332857131958008 0.08991054445505142 0.6572227478027344
0.4336405098438263 0.08651367574930191 0.6589136719703674
0.43420806527137756 0.08453185111284256 0.6598382592201233
0.43585658073425293 0.08386483043432236 0.6598989367485046
0.4366896450519562 0.08358713984489441 0.6598989367485046
0.4383374750614166 0.08292117714881897 0.6599590182304382
0.4417366683483124 0.08220352977514267 0.659744918346405
0.4456254541873932 0.08919882029294968 0.6554687023162842
0.446471244096756 0.08891688287258148 0.6554687023162842
0.4483875036239624 0.08958488702774048 0.6547946333885193
0.45005491375923157 0.08886957913637161 0.6548766493797302
0.45161905884742737 0.08761285245418549 0.6552560329437256
0.4602908492088318 0.07712981849908829 0.6591719388961792
0.46272218227386475 0.07594826072454453 0.6593636870384216
0.464159220457077 0.07432624697685242 0.6599532961845398
0.4648686647415161 0.07348567247390747 0.6602647304534912
0.46711036562919617 0.07152161747217178 0.660892128944397
0.46940943598747253 0.06985776126384735 0.6613550186157227
0.4701591730117798 0.0692390650510788 0.6615452766418457
0.4747077226638794 0.06583970040082932 0.6625167727470398
0.4786582887172699 0.06375691294670105 0.6629112362861633
0.4826187789440155 0.06175946816802025 0.6632605791091919
0.48751839995384216 0.05996082350611687 0.6633464694023132
0.48833799362182617 0.059673625975847244 0.6633532643318176
0.4949764609336853 0.060842081904411316 0.6616091728210449
0.49660253524780273 0.060184407979249954 0.6616693139076233
0.4974152743816376 0.059855587780475616 0.6616991758346558
0.49824318289756775 0.05957961454987526 0.6616991758346558
0.5006799101829529 0.058593638241291046 0.6617887616157532
0.5023191571235657 0.05798922851681709 0.661818265914917
0.5047540664672852 0.05700482800602913 0.6619077324867249
0.5063926577568054 0.05640118196606636 0.6619373559951782
0.5080142617225647 0.055745143443346024 0.6619969606399536
0.5114262700080872 0.054968032985925674 0.6618106365203857
0.5126615762710571 0.05595970153808594 0.6610875129699707
0.5139026045799255 0.056956011801958084 0.6603599190711975
0.515150249004364 0.05795770883560181 0.6596288681030273
0.5172398686408997 0.058685604482889175 0.6588939428329468
0.5197708010673523 0.06071271374821663 0.65741366147995
0.5210462212562561 0.06173420697450638 0.6566676497459412
0.5231722593307495 0.06247919425368309 0.6559176445007324
0.5244628190994263 0.06351044774055481 0.6551640033721924
0.5257596969604492 0.0645466297864914 0.6544068455696106
0.5270636081695557 0.06558852642774582 0.653645396232605
0.529227077960968 0.06635116785764694 0.6528798341751099
0.5318729877471924 0.06846017390489578 0.6513370275497437
0.5332063436508179 0.06952310353517532 0.6505602598190308
0.5354084968566895 0.07030396163463593 0.6497786641120911
0.539478600025177 0.07354165613651276 0.6474089026451111
0.5403475761413574 0.07325200736522675 0.6474089026451111
0.5417214035987854 0.07434283196926117 0.646610677242279
0.543100893497467 0.07543584704399109 0.6458095908164978
0.5444886088371277 0.0765371024608612 0.6450027227401733
0.5481672883033752 0.07846385985612869 0.6433767676353455
0.5509998202323914 0.08070646971464157 0.641732931137085
0.5524275898933411 0.08183673024177551 0.6409046649932861
0.5561984777450562 0.08381826430559158 0.6392341256141663
0.557651937007904 0.08496598899364471 0.6383923888206482
0.5591135025024414 0.08612031489610672 0.6375458836555481
0.5600107312202454 0.0858212262392044 0.6375458836555481
0.5614821314811707 0.08698039501905441 0.636695384979248
0.43134623765945435 0.12007858604192734 0.6409354209899902
0.4304681718349457 0.10756763070821762 0.6475618481636047
0.43124663829803467 0.10052528232336044 0.6510722041130066
0.4314333200454712 0.09575419872999191 0.6535089015960693
0.4316740930080414 0.09143693000078201 0.6557016372680664
0.4328771233558655 0.08774372190237045 0.657405436038971
0.433363139629364 0.08520302921533585 0.658636748790741
0.443174809217453 0.085780568420887 0.6566452383995056
0.4442649781703949 0.08692429959774017 0.6558652520179749
0.4461930990219116 0.08772324025630951 0.6551192402839661
0.4489322304725647 0.08799615502357483 0.6545048952102661
0.4512081742286682 0.08575692027807236 0.6552717089653015
0.4507046043872833 0.0784044861793518 0.659163773059845
0.4514996111392975 0.07792896777391434 0.659272313117981
0.45232176780700684 0.07759661972522736 0.6593030095100403
0.4547974467277527 0.07665442675352097 0.6593629717826843
0.4564568102359772 0.07607141137123108 0.6593788266181946
0.4572891891002655 0.07579394429922104 0.6593788266181946
0.46086370944976807 0.07584745436906815 0.6587343811988831
0.4638797640800476 0.07326102256774902 0.6595525741577148
0.46459299325942993 0.07244357466697693 0.6598528623580933
0.46758773922920227 0.0698794275522232 0.660662829875946
0.4706636369228363 0.06775021553039551 0.6612341403961182
0.4721446931362152 0.06646639853715897 0.6616431474685669
0.47370731830596924 0.0655445083975792 0.6618509888648987
0.47683748602867126 0.0637526884675026 0.6622381210327148
0.4807983338832855 0.06175224483013153 0.6625899076461792
0.48478853702545166 0.0599052831530571 0.6628576517105103
0.49275410175323486 0.05945175886154175 0.66171795129776
0.4946860373020172 0.059889744967222214 0.6611585021018982
0.5023477673530579 0.05813029780983925 0.6607471704483032
0.5117985010147095 0.05614882707595825 0.6601420640945435
0.513038158416748 0.057146716862916946 0.6594120264053345
0.5142844319343567 0.05814921483397484 0.6586783528327942
0.5155367851257324 0.059157077223062515 0.6579403281211853
0.5163731575012207 0.05887824296951294 0.6579403281211853
0.5201753973960876 0.061930444091558456 0.6557052731513977
0.5214555263519287 0.06295796483755112 0.654952347278595
0.5248852372169495 0.06474622339010239 0.6534349918365479
0.5274967551231384 0.06683742254972458 0.6519025564193726
0.5283505320549011 0.06655282527208328 0.6519025564193726
0.5323255658149719 0.06972859054803848 0.6495731472969055
0.5336641669273376 0.07079793512821198 0.6487890481948853
0.5372300148010254 0.07266490906476974 0.647207498550415
0.5399616360664368 0.07484204322099686 0.6456092000007629
0.5408334732055664 0.07455144077539444 0.6456092000007629
0.5435988903045654 0.0767509937286377 0.6439942121505737
0.5449929237365723 0.07785946875810623 0.643180251121521
0.5463942289352417 0.07897406071424484 0.6423617005348206
0.548686146736145 0.07979987561702728 0.6415386199951172
0.5515315532684326 0.0820576399564743 0.6398795247077942
0.5529652237892151 0.083194799721241 0.6390433311462402
0.5552999973297119 0.08404048532247543 0.638202965259552
0.5567520260810852 0.08518996834754944 0.6373576521873474
0.5596789121627808 0.08750505745410919 0.6356545686721802
0.560579240322113 0.0872049406170845 0.6356545686721802
0.5620585680007935 0.08837544918060303 0.6347935199737549
0.43031176924705505 0.11340852826833725 0.6435145735740662
0.42994019389152527 0.10446808487176895 0.6482219696044922
0.43080228567123413 0.1041807234287262 0.6482219696044922
0.43079617619514465 0.09800492227077484 0.6514298915863037
0.43098562955856323 0.09327025711536407 0.6538556814193726
0.43126970529556274 0.08925960958003998 0.6558897495269775
0.431697279214859 0.08627160638570786 0.6573671102523804
0.4325332045555115 0.0859929546713829 0.6573671102523804
0.43411651253700256 0.08487305790185928 0.6576748490333557
0.43660369515419006 0.08392708003520966 0.6577355265617371
0.4382551610469818 0.08325925469398499 0.6577969789505005
0.4407402575016022 0.08231313526630402 0.6578575968742371
0.443991094827652 0.08573809266090393 0.6555166244506836
0.44935569167137146 0.08576750755310059 0.6545721292495728
0.4507993459701538 0.08391088247299194 0.6552867293357849
0.45073825120925903 0.078890360891819 0.6579042673110962
0.4580734372138977 0.07553979009389877 0.658374547958374
0.4643404483795166 0.07150596380233765 0.659384548664093
0.4665951430797577 0.06962500512599945 0.6599711775779724
0.4696725606918335 0.06749668717384338 0.6605440974235535
0.47189006209373474 0.0655578002333641 0.6611664295196533
0.4741956889629364 0.06403020024299622 0.661561131477356
0.47497814893722534 0.06358491629362106 0.66165691614151
0.4765867292881012 0.0628797709941864 0.6617444753646851
0.47815588116645813 0.06201934069395065 0.6619202494621277
0.4789394736289978 0.06158940866589546 0.6620070934295654
0.4829866290092468 0.05996418744325638 0.6621508002281189
0.4886704981327057 0.057782337069511414 0.662300169467926
0.4903029799461365 0.05719463899731636 0.6623222231864929
0.49652931094169617 0.06006128713488579 0.6597558259963989
0.49829113483428955 0.059864483773708344 0.6595531702041626
0.5007333159446716 0.05887674540281296 0.6596434116363525
0.50237637758255 0.05827134847640991 0.6596733331680298
0.5031899809837341 0.057942360639572144 0.659703254699707
0.5040032863616943 0.05761358141899109 0.659733772277832
0.5064582824707031 0.056679390370845795 0.6597934365272522
0.5080838203430176 0.056022223085165024 0.6598538160324097
0.5088961720466614 0.05569381266832352 0.6598836779594421
0.5101032853126526 0.05661553144454956 0.6591954231262207
0.5134173035621643 0.05834125727415085 0.6577259302139282
0.5159256458282471 0.06036408990621567 0.6562409996986389
0.5167648196220398 0.06008436530828476 0.6562409996986389
0.5180308818817139 0.06110312417149544 0.655492901802063
0.5193030834197998 0.06212657317519188 0.6547414660453796
0.5205822587013245 0.0631556287407875 0.6539857387542725
0.521867573261261 0.0641895979642868 0.6532259583473206
0.5227153301239014 0.06390700489282608 0.6532259583473206
0.5253105163574219 0.06599000096321106 0.6516947746276855
0.5279325842857361 0.06809444725513458 0.650148332118988
0.5301129221916199 0.06886895000934601 0.6493688821792603
0.532780647277832 0.0710049420595169 0.6477975249290466
0.5341248512268066 0.07208114117383957 0.6470062136650085
0.5349903702735901 0.07179262489080429 0.6470062136650085
0.5377048254013062 0.073961041867733 0.6454100608825684
0.5492085814476013 0.08114385604858398 0.6396885514259338
0.55350661277771 0.0845617800951004 0.6371699571609497
0.5544002652168274 0.0842638909816742 0.6371699571609497
0.5573098063468933 0.08657317608594894 0.6354671716690063
0.5602498650550842 0.08890414237976074 0.6337476968765259
0.5626382827758789 0.08977819234132767 0.6328805088996887
0.564130425453186 0.09095793217420578 0.6320086717605591
0.4295606017112732 0.10871335119009018 0.6450390219688416
0.42940619587898254 0.10132033377885818 0.648918628692627
0.43026402592658997 0.10103438794612885 0.648918628692627
0.43034908175468445 0.09550159424543381 0.6517866849899292
0.43155792355537415 0.08584675192832947 0.6566077470779419
0.43656066060066223 0.08409743756055832 0.6566506624221802
0.44264426827430725 0.08348939567804337 0.6559104919433594
0.4447513222694397 0.08536753803491592 0.6545659899711609
0.44651851058006287 0.08527199178934097 0.6543086767196655
0.44985055923461914 0.0839456096291542 0.6544212698936462
0.4522697925567627 0.07792256772518158 0.6571395397186279
0.4547508955001831 0.0769779160618782 0.6572008728981018
0.45639732480049133 0.07631158083677292 0.6572620272636414
0.45805391669273376 0.07570062577724457 0.6572927236557007
0.46036118268966675 0.07394155114889145 0.6578087210655212
0.46194666624069214 0.0730162262916565 0.6580150723457336
0.46337634325027466 0.07138415426015854 0.6586175560951233
0.46562856435775757 0.06948409229516983 0.6592162251472473
0.4678533971309662 0.06751169264316559 0.6598575115203857
0.46868008375167847 0.06723613291978836 0.6598575115203857
0.4732453227043152 0.06393737345933914 0.6607837677001953
0.478933185338974 0.06169576197862625 0.6609635353088379
0.4805663824081421 0.06109358370304108 0.6609936952590942
0.48218590021133423 0.060438938438892365 0.6610536575317383
0.4838045835494995 0.05978410318493843 0.6611137390136719
0.48462769389152527 0.05950973555445671 0.6611137390136719
0.4862455427646637 0.05885569006204605 0.6611736416816711
0.4886854887008667 0.0579272024333477 0.66123366355896
0.49030184745788574 0.057273756712675095 0.6612935066223145
0.49207237362861633 0.05717312917113304 0.6610382795333862
0.49403637647628784 0.057743534445762634 0.6603996753692627
0.4951169192790985 0.05836259573698044 0.6598896384239197
0.4962009787559509 0.05898427218198776 0.6593772768974304
0.5104727149009705 0.05780617892742157 0.6575121879577637
0.5150548219680786 0.06055869907140732 0.6552819609642029
