ply
format ascii 1.0
element vertex 808
property float x
property float y
property float z
end_header
0.550247311592102 -0.02176225185394287 0.6833449602127075
0.5681537389755249 -0.09984872490167618 0.6484192609786987
0.5706241130828857 -0.07592956721782684 0.663387656211853
0.5680967569351196 -0.073920339345932 0.6630937457084656
0.5555799603462219 -0.017632655799388885 0.687920868396759
0.5523654222488403 -0.0189750287681818 0.6853362917900085
0.5670765042304993 -0.0978778675198555 0.6480336785316467
0.5741217732429504 -0.07770197093486786 0.6635194420814514
0.5664569735527039 -0.07184791564941406 0.6624895334243774
0.5640308856964111 -0.0696442648768425 0.6623629927635193
0.5775837898254395 -0.04166768863797188 0.6859884262084961
0.5722022652626038 -0.029095420613884926 0.6900792121887207
0.569610595703125 -0.023427318781614304 0.6918293833732605
0.563386082649231 -0.015962941572070122 0.6925347447395325
0.5538526177406311 -0.017045117914676666 0.6864957213401794
0.5512472987174988 -0.019566306844353676 0.6835792064666748
0.6150274872779846 -0.12339340150356293 0.6599403023719788
0.6117701530456543 -0.11996142566204071 0.6600399017333984
0.5727449059486389 -0.10161932557821274 0.6482386589050293
0.5706570148468018 -0.09989500045776367 0.6480312943458557
0.5723968148231506 -0.07580584287643433 0.6627684831619263
0.5653407573699951 -0.07014678418636322 0.6619715094566345
0.5648719668388367 -0.0696779265999794 0.6619715094566345
0.5639158487319946 -0.06877169013023376 0.6619430184364319
0.5758470892906189 -0.03559105470776558 0.6876826286315918
0.5694481730461121 -0.02169179543852806 0.6919623613357544
0.5603563189506531 -0.016282759606838226 0.6898607611656189
0.557729959487915 -0.01587897352874279 0.6885927319526672
0.5561146140098572 -0.016076775267720222 0.6875581741333008
0.5556875467300415 -0.015649670735001564 0.6875581741333008
0.5535498261451721 -0.016536403447389603 0.6858326196670532
0.5875943303108215 -0.11171039938926697 0.650068461894989
0.5742283463478088 -0.10189690440893173 0.6480357050895691
0.5707165002822876 -0.07382194697856903 0.6620922088623047
0.569221019744873 -0.0725836232304573 0.6619449257850647
0.5681917071342468 -0.07181239128112793 0.6617972254753113
0.5677235126495361 -0.07134411484003067 0.6617972254753113
0.575667142868042 -0.03380237892270088 0.6878268718719482
0.5616376996040344 -0.015601687133312225 0.6902138590812683
0.5607640743255615 -0.015814026817679405 0.6895924210548401
0.5593318939208984 -0.01578480564057827 0.6887896060943604
0.5570240616798401 -0.014925068244338036 0.6879609823226929
0.6057318449020386 -0.11781643331050873 0.656086802482605
0.575766921043396 -0.10205593705177307 0.6479343771934509
0.5782085061073303 -0.07747045159339905 0.6634464263916016
0.5748134851455688 -0.07581048458814621 0.6624506115913391
0.5726508498191833 -0.07448961585760117 0.6619675755500793
0.5716028809547424 -0.07376150786876678 0.6617838740348816
0.5665674209594727 -0.06971762329339981 0.6612147092819214
0.5587233901023865 -0.01571618765592575 0.6877069473266602
0.6014394760131836 -0.11560527980327606 0.6540199518203735
0.5725144743919373 -0.07365234196186066 0.6615195274353027
0.5735341310501099 -0.02542302943766117 0.6898698806762695
0.557256817817688 -0.01378850731998682 0.6871971487998962
0.5551202893257141 -0.013676072470843792 0.6860319375991821
0.5510933995246887 -0.01606588438153267 0.6823382377624512
0.6100507974624634 -0.11607111990451813 0.657848596572876
0.5789312124252319 -0.10216431319713593 0.6479108333587646
0.5683331489562988 -0.06962676346302032 0.6605775952339172
0.579818069934845 -0.03763468191027641 0.685679018497467
0.5709554553031921 -0.017846040427684784 0.6919870972633362
0.597862958908081 -0.11196449398994446 0.6523066759109497
0.5899152755737305 -0.10798244178295135 0.6500102877616882
0.5794714689254761 -0.07582789659500122 0.6625820398330688
0.5777235627174377 -0.0751110166311264 0.6619850993156433
0.5665022134780884 -0.012166180647909641 0.6919357776641846
0.5600448250770569 -0.014181450940668583 0.6870295405387878
0.5581599473953247 -0.013750706799328327 0.6861875653266907
0.5565633177757263 -0.01190613117069006 0.6863310933113098
0.5820961594581604 -0.1022246703505516 0.6479281783103943
0.578728199005127 -0.07480407506227493 0.6618971228599548
0.5770976543426514 -0.07386046648025513 0.6614983677864075
0.5705874562263489 -0.06995632499456406 0.6599847674369812
0.5695945024490356 -0.069127157330513 0.6598895192146301
0.5745152831077576 -0.022175265476107597 0.6900153756141663
0.56882244348526 -0.011978302150964737 0.692631185054779
0.567643404006958 -0.01165217999368906 0.6921359300613403
0.5605586767196655 -0.01356700249016285 0.6869092583656311
0.5587856769561768 -0.013998140580952168 0.68562912940979
0.5538692474365234 -0.011615701019763947 0.6841574907302856
0.6037076115608215 -0.11170978099107742 0.6541010737419128
0.5857316851615906 -0.07640688121318817 0.6641936302185059
0.5829822421073914 -0.03972524031996727 0.6839582920074463
0.5778394341468811 -0.02790805697441101 0.6878460645675659
0.5681027173995972 -0.011102449148893356 0.6919633746147156
0.5639296770095825 -0.009974636137485504 0.6901896595954895
0.5600610971450806 -0.013345525600016117 0.6859728097915649
0.6215266585350037 -0.12179602682590485 0.6577469110488892
0.611968457698822 -0.11119867861270905 0.6583536267280579
0.5801487565040588 -0.07395396381616592 0.6615231037139893
0.5745670199394226 -0.07107247412204742 0.659945547580719
0.5724197030067444 -0.06972680240869522 0.6594772338867188
0.57810378074646 -0.02653922699391842 0.6880277395248413
0.5724539160728455 -0.01403691153973341 0.6920309066772461
0.5656196475028992 -0.009709006175398827 0.6905667781829834
0.5561875700950623 -0.009687412530183792 0.6850692629814148
0.5497745871543884 -0.013199123553931713 0.6792711615562439
0.6212112903594971 -0.11960466206073761 0.657985508441925
0.5996331572532654 -0.10773756355047226 0.6522958278656006
0.592141330242157 -0.1044468879699707 0.6498343348503113
0.5863558053970337 -0.10174441337585449 0.6480279564857483
0.5858723521232605 -0.10126082599163055 0.6480279564857483
0.5822427868843079 -0.0742403194308281 0.6617329716682434
0.5777804255485535 -0.07198631763458252 0.6604390740394592
0.5836765766143799 -0.03773574158549309 0.6839615106582642
0.5810418128967285 -0.03190070018172264 0.6858364939689636
0.5757551193237305 -0.019607851281762123 0.6899415254592896
0.5720423460006714 -0.01169313583523035 0.6924035549163818
0.5684049129486084 -0.009879167191684246 0.6913352608680725
0.5583582520484924 -0.011844332329928875 0.6842972040176392
0.5939019322395325 -0.10396596044301987 0.6502683162689209
0.5918431878089905 -0.07455812394618988 0.6663397550582886
0.5776193737983704 -0.07120213657617569 0.6599534153938293
0.5784079432487488 -0.024174757301807404 0.688051700592041
0.5714693069458008 -0.010615413077175617 0.6919422745704651
0.5586137771606445 -0.011589930392801762 0.6838151812553406
0.5578706860542297 -0.010592779144644737 0.6839644908905029
0.5996584296226501 -0.10525977611541748 0.6520172357559204
0.595689058303833 -0.07381444424390793 0.6682106256484985
0.5889562964439392 -0.07381584495306015 0.6642418503761292
0.590182363986969 -0.04801848903298378 0.6801683306694031
0.5818079113960266 -0.029840001836419106 0.685946524143219
0.5731261968612671 -0.01135275885462761 0.6917255520820618
0.5670999884605408 -0.007932164706289768 0.6901899576187134
0.5639439821243286 -0.00735802436247468 0.6886682510375977
0.5577490925788879 -0.009847879409790039 0.6835498213768005
0.5561991930007935 -0.007946809753775597 0.6837566494941711
0.5532118082046509 -0.007935750298202038 0.6820024847984314
0.6223223805427551 -0.11619937419891357 0.6580719351768494
0.6199013590812683 -0.1106332540512085 0.6599311232566833
0.5878728628158569 -0.04153759405016899 0.6818411946296692
0.5728147625923157 -0.009893099777400494 0.6916453838348389
0.5580028295516968 -0.009595501236617565 0.6830659508705139
0.5496239066123962 -0.009717756882309914 0.6780410408973694
0.6199180483818054 -0.10934360325336456 0.6598538160324097
0.595518946647644 -0.1013992577791214 0.6500988602638245
0.5935831069946289 -0.07185148447751999 0.6664681434631348
0.5868075489997864 -0.07181554287672043 0.6624726057052612
0.5680146217346191 -0.0068483902141451836 0.6898461580276489
0.5650779604911804 -0.005982660222798586 0.6886183619499207
0.5859531164169312 -0.033579882234334946 0.6838548183441162
0.5750247836112976 -0.011970586143434048 0.6902052760124207
0.5744333267211914 -0.011825568974018097 0.6899397373199463
0.5734339356422424 -0.011257410049438477 0.6896834373474121
0.5518768429756165 -0.005967721808701754 0.6800113916397095
0.6284736394882202 -0.12367195636034012 0.654706597328186
0.6266649961471558 -0.11974256485700607 0.6559711694717407
0.6237488389015198 -0.11368187516927719 0.6578462719917297
0.6059074401855469 -0.10148956626653671 0.6544777750968933
0.6034157276153564 -0.06969349086284637 0.6719524264335632
0.5977464318275452 -0.06930487602949142 0.6688035130500793
0.5839806795120239 -0.06974862515926361 0.6603299379348755
0.5918236970901489 -0.04463041573762894 0.6799853444099426
0.5803663730621338 -0.019642332568764687 0.6880538463592529
0.5774891376495361 -0.013548515737056732 0.6899719834327698
0.5765078663825989 -0.011928372085094452 0.6903530359268188
0.5730332732200623 -0.009923539124429226 0.6894766092300415
0.5722982287406921 -0.007955032400786877 0.6902118921279907
0.5700461864471436 -0.006173691246658564 0.6899315118789673
0.5588074326515198 -0.008780013769865036 0.6816752552986145
0.5580041408538818 -0.007867012172937393 0.6817408800125122
0.557625949382782 -0.00737945968285203 0.6818060874938965
0.5564455986022949 -0.005980169400572777 0.6819365620613098
0.5560681223869324 -0.005493334028869867 0.6820018291473389
0.6019700169563293 -0.10016218572854996 0.6520506143569946
0.5957247018814087 -0.06967832893133163 0.6665470004081726
0.5916440486907959 -0.0697985589504242 0.6640344262123108
0.5882483124732971 -0.06978064030408859 0.6620143055915833
0.5918962359428406 -0.0434962622821331 0.679915726184845
0.5839712023735046 -0.025969330221414566 0.6856582760810852
0.5772286057472229 -0.011999517679214478 0.6899805665016174
0.5723668336868286 -0.007968341000378132 0.6894837021827698
0.5709821581840515 -0.005944123957306147 0.6898661851882935
0.5498534440994263 -0.006754179019480944 0.6767455339431763
0.6306135058403015 -0.125916987657547 0.6529106497764587
0.6295322179794312 -0.12350104004144669 0.6537114381790161
0.6179247498512268 -0.0979829728603363 0.6620550155639648
0.5864202380180359 -0.029892336577177048 0.6839999556541443
0.5676255822181702 -0.003826378844678402 0.6883612275123596
0.6302055716514587 -0.12392861396074295 0.6529921293258667
0.6187940239906311 -0.09779321402311325 0.661849319934845
0.6159830689430237 -0.0969223827123642 0.6606820821762085
0.6062964200973511 -0.09855379164218903 0.6538735628128052
0.5956264734268188 -0.06771465390920639 0.6660067439079285
0.5898396968841553 -0.03568141162395477 0.6817957758903503
0.5753130912780762 -0.00997826736420393 0.688519299030304
0.5741251707077026 -0.00969144981354475 0.6879771947860718
0.5735293030738831 -0.009547597728669643 0.6877053380012512
0.5634714365005493 -0.001757045858539641 0.686341404914856
0.5561929941177368 -0.0036081571597605944 0.6808494329452515
0.5519516468048096 -0.0032328590750694275 0.6785235404968262
0.6277450919151306 -0.11504966020584106 0.6559955477714539
0.6158884167671204 -0.09597200900316238 0.6603524088859558
0.5917571783065796 -0.06768091768026352 0.6628618240356445
0.5725928544998169 -0.007980488240718842 0.6873185634613037
0.5720688700675964 -0.005712443962693214 0.6883707642555237
0.5711730122566223 -0.0039966776967048645 0.6888654232025146
0.5685040950775146 -0.0027995374985039234 0.6879775524139404
0.5663269758224487 -0.0018755990313366055 0.6872214078903198
0.5656805634498596 -0.001780503080226481 0.6868887543678284
0.5583567023277283 -0.005757641512900591 0.6800705790519714
0.6312267780303955 -0.1238752231001854 0.6519024968147278
0.6295865178108215 -0.11938729137182236 0.6536257266998291
0.6137405633926392 -0.09539853036403656 0.658552885055542
0.6038191318511963 -0.09576436877250671 0.6523280143737793
0.5999249219894409 -0.09546905755996704 0.6501505374908447
0.5905441641807556 -0.03365318477153778 0.6818786263465881
0.5878759026527405 -0.027942873537540436 0.6837191581726074
0.5818238258361816 -0.01486519817262888 0.6879703402519226
0.5768906474113464 -0.009921859949827194 0.6879764795303345
0.5721471309661865 -0.005709020886570215 0.6876553893089294
0.5717352628707886 -0.0052971444092690945 0.6876553893089294
0.5707067847251892 -0.0037679432425647974 0.687958300113678
0.5586445927619934 -0.0054595633409917355 0.6796360015869141
0.5578568577766418 -0.004529200494289398 0.6797224283218384
0.5571314096450806 -0.0035182740539312363 0.6798949837684631
0.6075407862663269 -0.09515078365802765 0.6540892124176025
0.6056742668151855 -0.06386919319629669 0.6719400882720947
0.6017597317695618 -0.0612809881567955 0.6711353063583374
0.5819666385650635 -0.013726305216550827 0.6879826784133911
0.5657886862754822 -0.0008376646437682211 0.6859864592552185
0.5643088221549988 8.309147960972041e-05 0.6856471300125122
0.5562705993652344 -0.0017879747319966555 0.6796337366104126
0.6316149830818176 -0.12193424999713898 0.6515763401985168
0.6259157657623291 -0.10577122122049332 0.6579449772834778
0.620009183883667 -0.09308820962905884 0.6620692610740662
0.597373366355896 -0.06390205025672913 0.6660561561584473
0.5969640016555786 -0.04392720386385918 0.6779643297195435
0.5856716632843018 -0.019737910479307175 0.6858139038085938
0.5806078314781189 -0.009700074791908264 0.6888410449028015
0.5743017196655273 -0.007863380014896393 0.6861208081245422
0.57332444190979 -0.007258356083184481 0.685894250869751
0.5688395500183105 -0.002627664478495717 0.6859829425811768
0.5678033828735352 -0.0020919046364724636 0.6856785416603088
0.5673898458480835 -0.001678384025581181 0.6856785416603088
0.5580592751502991 -0.003442024113610387 0.6789262294769287
0.6320246458053589 -0.12125292420387268 0.651371419429779
0.6296018362045288 -0.1117214635014534 0.6557106971740723
0.6239771246910095 -0.09956879168748856 0.6596956253051758
0.582634449005127 -0.011909362860023975 0.6879676580429077
0.5801599621772766 -0.009482287801802158 0.6879386305809021
0.5797507166862488 -0.009072927758097649 0.6879386305809021
0.5746381878852844 -0.007486644666641951 0.6857863068580627
0.5724970102310181 -0.005535355769097805 0.6856701970100403
0.5718801617622375 -0.004411034286022186 0.6859800815582275
0.5708492994308472 -0.003878263756632805 0.6856759786605835
0.5638912320137024 0.00032125916914083064 0.6839922070503235
0.5817356109619141 -0.010308491066098213 0.6876331567764282
0.5765864849090576 -0.007790661416947842 0.6860224008560181
0.5760576725006104 -0.007552848197519779 0.6858441829681396
0.566957414150238 -0.0014783380320295691 0.6839917898178101
0.5659149885177612 -0.0009390946943312883 0.6836838126182556
0.5644550919532776 1.7933130948222242e-05 0.6833759546279907
0.5564098954200745 0.00010907028627116233 0.67850661277771
0.5535487532615662 0.002243559807538986 0.6780617833137512
0.5518507957458496 0.002028025919571519 0.6768903136253357
0.5496230721473694 0.00020750347175635397 0.674411952495575
0.5976879000663757 -0.04077305644750595 0.6779583692550659
0.5897392630577087 -0.02339695207774639 0.6837466359138489
0.5841012597084045 -0.011991940438747406 0.6872873306274414
0.5783403515815735 -0.008370558731257915 0.6859736442565918
0.5778308510780334 -0.008107372559607029 0.6858225464820862
0.574424147605896 -0.005999618675559759 0.6850249767303467
0.5704274773597717 -0.0036849314346909523 0.6839923858642578
0.5694953203201294 -0.003002951620146632 0.6838385462760925
0.567936897277832 -0.00219716876745224 0.6833766102790833
0.5595270395278931 -0.0017506701406091452 0.678487241268158
0.5586394667625427 -0.0019402464386075735 0.6778260469436646
0.5578139424324036 -0.0010645356960594654 0.6778567433357239
0.633110761642456 -0.11391083151102066 0.6539427638053894
0.6274352073669434 -0.10171666741371155 0.657956600189209
0.6218593716621399 -0.08998732268810272 0.6617456078529358
0.6099673509597778 -0.08968225866556168 0.6546106338500977
0.6131229996681213 -0.07151088863611221 0.6677430868148804
0.6009329557418823 -0.04596038907766342 0.6759698987007141
0.5813482403755188 -0.010135181248188019 0.6859701871871948
0.5808414816856384 -0.009873560629785061 0.6858192086219788
0.5734721422195435 -0.005470463074743748 0.6839928030967712
0.5715101957321167 -0.004256962798535824 0.6835319995880127
0.5654767155647278 -0.0007360274903476238 0.6819848418235779
0.5640119910240173 0.00022402923787012696 0.6816741228103638
0.5601997971534729 -0.0009438203414902091 0.6786075234413147
0.5573089122772217 0.0001500631042290479 0.6775011420249939
0.6340428590774536 -0.1173148900270462 0.6515542268753052
0.6254968047142029 -0.09559299051761627 0.6596910953521729
0.6074563264846802 -0.05773105099797249 0.6719317436218262
0.5956364870071411 -0.032965511083602905 0.6799263954162598
0.5933614373207092 -0.027706433087587357 0.6817691326141357
0.5843459367752075 -0.011893398128449917 0.6859670877456665
0.5838415622711182 -0.01163333561271429 0.68581622838974
0.5765061378479004 -0.0072498624213039875 0.6839932203292847
0.5759934186935425 -0.00698507996276021 0.6838401556015015
0.5740383267402649 -0.005775527097284794 0.683379590511322
0.5685474872589111 -0.002537352731451392 0.6819884777069092
0.5676103234291077 -0.001851963927038014 0.6818330883979797
0.5561020970344543 0.002394123701378703 0.6773483753204346
0.619759202003479 -0.0834563598036766 0.6628095507621765
0.6156711578369141 -0.08589547127485275 0.65876704454422
0.5931458473205566 -0.02598145231604576 0.6819238066673279
0.58722323179245 -0.013824096880853176 0.6857851147651672
0.5858260989189148 -0.012868707999587059 0.6855115294456482
0.5795292854309082 -0.009023560211062431 0.6839931011199951
0.5779973864555359 -0.00823264755308628 0.6835342049598694
0.5716077089309692 -0.004331966396421194 0.6819926500320435
0.5705700516700745 -0.0037958568427711725 0.6816819906234741
0.5635663270950317 0.00043087286758236587 0.6799619197845459
0.5614060163497925 0.0004868814430665225 0.6786588430404663
0.5597774982452393 0.00029216427356004715 0.677529513835907
0.6080858111381531 -0.05561937391757965 0.6720145344734192
0.6051537990570068 -0.04981699585914612 0.6737973690032959
0.5993058085441589 -0.03738892823457718 0.677884578704834
0.5829529762268066 -0.011201990768313408 0.6839931011199951
0.581526517868042 -0.01026693731546402 0.6836879253387451
0.5805087089538574 -0.009741774760186672 0.6833819150924683
0.574657142162323 -0.006120388396084309 0.6819965243339539
0.5741412043571472 -0.00585399242118001 0.6818416714668274
0.5736249089241028 -0.005587288178503513 0.6816864609718323
0.5666522979736328 -0.0013804129557684064 0.6799685955047607
0.5656031370162964 -0.000837455503642559 0.6796541213989258
0.5641328692436218 0.0001250575587619096 0.6793387532234192
0.5604352951049805 0.0010758256539702415 0.6776328086853027
0.5539370775222778 0.006218255497515202 0.6767905354499817
0.6139261722564697 -0.06667705625295639 0.6679565906524658
0.5859545469284058 -0.01296258345246315 0.6839931011199951
0.5840279459953308 -0.011770108714699745 0.6835358142852783
0.5781090259552002 -0.008316705003380775 0.681999921798706
0.577695369720459 -0.007903150282800198 0.681999921798706
0.5697281956672668 -0.0031843935139477253 0.6799761056900024
0.5598153471946716 0.0021296939812600613 0.6771114468574524
0.5580453276634216 0.0017720431787893176 0.675786018371582
0.5576862096786499 0.0022774997632950544 0.6758771538734436
0.556210458278656 0.00424334779381752 0.6761825084686279
0.550896942615509 0.006195697467774153 0.6740886569023132
0.6114584803581238 -0.059846535325050354 0.6698631048202515
0.6058060526847839 -0.047713615000247955 0.6739120483398438
0.603005051612854 -0.041848503053188324 0.6758261322975159
0.5999707579612732 -0.03536389023065567 0.677981972694397
0.5972496867179871 -0.02967110648751259 0.6798385381698608
0.5903573036193848 -0.015642549842596054 0.6842969655990601
0.588945746421814 -0.014716779813170433 0.683993399143219
0.5879411101341248 -0.01419922336935997 0.6836891770362854
0.5875309705734253 -0.013788986951112747 0.6836891770362854
0.5806260704994202 -0.009828852489590645 0.6818493008613586
0.5732091069221497 -0.005397971719503403 0.6799837946891785
0.5717546343803406 -0.004445360507816076 0.6796701550483704
0.5707136988639832 -0.003907443955540657 0.6793559193611145
0.564741849899292 -0.0002139006246579811 0.6779325008392334
0.5642143487930298 5.9152807807549834e-05 0.677773654460907
0.5636861324310303 0.00033257450559176505 0.6776145696640015
0.5606154799461365 0.0021257554180920124 0.6768162846565247
0.5587218999862671 0.002571598393842578 0.6759118437767029
0.5568310022354126 0.004002997186034918 0.6756248474121094
0.5554945468902588 0.005184652749449015 0.6755279898643494
0.6239410638809204 -0.08389431238174438 0.6618033051490784
0.6179068088531494 -0.0803682804107666 0.6602318286895752
0.6178014874458313 -0.07145079225301743 0.6657532453536987
0.5924254655838013 -0.01782567985355854 0.6834535598754883
0.5909271240234375 -0.015950245782732964 0.6836898326873779
0.5836454033851624 -0.011599867604672909 0.6818532347679138
0.5817058682441711 -0.010399588383734226 0.6813898682594299
0.5762624740600586 -0.007188660092651844 0.6799911260604858
0.575746476650238 -0.006922084838151932 0.6798349022865295
0.5742965340614319 -0.005972461309283972 0.6795213222503662
0.5682517290115356 -0.0024458016268908978 0.6779435276985168
0.5678333044052124 -0.0020275358110666275 0.6779435276985168
0.5673084855079651 -0.0017560243140906096 0.6777847409248352
0.5540247559547424 0.006139408331364393 0.6744086742401123
0.5499062538146973 0.006766344886273146 0.6722208261489868
0.6359362006187439 -0.10732650756835938 0.6537804007530212
0.6236245632171631 -0.08194881677627563 0.6619910597801208
0.6179515719413757 -0.06996838748455048 0.6659546494483948
0.6149935722351074 -0.06379882246255875 0.6679727435112
0.6036584973335266 -0.03979804739356041 0.6759318113327026
0.5979003310203552 -0.027724139392375946 0.6799006462097168
0.5949277877807617 -0.02152356691658497 0.6819289326667786
0.5866539478302002 -0.013364719226956367 0.6818568706512451
0.585642397403717 -0.012842856347560883 0.6815490126609802
0.584215521812439 -0.01190760638564825 0.6812402009963989
0.5793048739433289 -0.008973375894129276 0.6799981594085693
0.5778626799583435 -0.008028240874409676 0.6796857714653015
0.571331799030304 -0.004251998383551836 0.6779548525810242
0.5708097219467163 -0.003982360940426588 0.6777961850166321
0.5632367730140686 0.0005414398619905114 0.6758800148963928
0.5617535710334778 0.0015123306075111032 0.6755581498146057
0.5606892704963684 0.002064339816570282 0.6752362847328186
0.5555567145347595 0.005129668861627579 0.673937201499939
0.5540540218353271 0.006113019771873951 0.6736109852790833
0.5535137057304382 0.006393247749656439 0.6734474301338196
0.6331499218940735 -0.09987442940473557 0.6558618545532227
0.6300861239433289 -0.09297832101583481 0.658277153968811
0.6181023716926575 -0.06849004328250885 0.6661576628684998
0.5980890393257141 -0.026418007910251617 0.6800594925880432
0.5896524786949158 -0.015123249031603336 0.6818606853485107
0.5818260312080383 -0.010488558560609818 0.6798493266105652
0.5808029770851135 -0.009960463270545006 0.679537296295166
0.574400782585144 -0.006051826290786266 0.6779658794403076
0.5738816261291504 -0.005783711560070515 0.6778077483177185
0.5663432478904724 -0.0012810482876375318 0.6758943796157837
0.5658154487609863 -0.0010079953353852034 0.6757338047027588
0.5586991310119629 0.003286329796537757 0.673955500125885
0.5577397346496582 0.00398704968392849 0.67379230260849
0.5572023987770081 0.0042651137337088585 0.673629105091095
0.5509462356567383 0.007918932475149632 0.6719890236854553
0.5499752163887024 0.008627498522400856 0.6718235015869141
0.6368274092674255 -0.10570859163999557 0.6536464095115662
0.6277011036872864 -0.0865989401936531 0.6599564552307129
0.6155619621276855 -0.061736952513456345 0.6679977774620056
0.6126523017883301 -0.055689506232738495 0.6699808239936829
0.609783411026001 -0.04972640424966812 0.6719365119934082
0.6069541573524475 -0.04384579136967659 0.6738650798797607
0.6043072938919067 -0.037763357162475586 0.6760365962982178
0.5955779552459717 -0.019630787894129753 0.6819799542427063
0.5940492749214172 -0.017799871042370796 0.6821709871292114
0.5930505990982056 -0.017285678535699844 0.6818646788597107
0.59163898229599 -0.01635993830859661 0.6815574765205383
0.5906351804733276 -0.015843020752072334 0.6812497973442078
0.5848500728607178 -0.012262105010449886 0.6798567175865173
0.5843414664268494 -0.01199979055672884 0.6797009706497192
0.5838322639465332 -0.011737177148461342 0.6795452237129211
0.577458918094635 -0.007845818996429443 0.6779764890670776
0.5694390535354614 -0.003096830565482378 0.675909161567688
0.5679682493209839 -0.0021338884253054857 0.6755882501602173
0.5618301033973694 0.001449130242690444 0.6739733219146729
0.5607636570930481 0.0020025901030749083 0.67364901304245
0.5535715222358704 0.006341102067381144 0.6718453764915466
0.547807514667511 0.007853824645280838 0.6691584587097168
0.6219425797462463 -0.07339729368686676 0.6638343334197998
0.6015788316726685 -0.031030643731355667 0.6777812838554382
0.5963003039360046 -0.019680699333548546 0.6816297769546509
0.5941226482391357 -0.017852220684289932 0.6814085245132446
0.5882760286331177 -0.0144423246383667 0.6798639297485352
0.587863564491272 -0.014029767364263535 0.6798639297485352
0.5873575210571289 -0.013768825680017471 0.6797087788581848
0.5809216499328613 -0.010048638097941875 0.6779873967170715
0.5805063247680664 -0.009633214212954044 0.6779873967170715
0.5799923539161682 -0.00936801452189684 0.6778297424316406
0.5725240111351013 -0.004905987996608019 0.6759241223335266
0.5714784264564514 -0.004365833941847086 0.6756035685539246
0.5705356001853943 -0.0036760226357728243 0.675443172454834
0.5649499297142029 -0.00038133046473376453 0.6739911437034607
0.5638882517814636 0.00016815983690321445 0.6736664175987244
0.5567299127578735 0.004487386904656887 0.6718667149543762
0.555650532245636 0.00504697859287262 0.6715372800827026
0.5541426539421082 0.00603367667645216 0.6712068319320679
0.6023226976394653 -0.03347550332546234 0.6759119629859924
0.6019196510314941 -0.03302960470318794 0.6759392619132996
0.6011330485343933 -0.029696447774767876 0.6775580048561096
0.5912781357765198 -0.016203220933675766 0.6798709630966187
0.5907748341560364 -0.015943987295031548 0.6797158122062683
0.5839574933052063 -0.011829338036477566 0.6779977679252625
0.5760156512260437 -0.007126589305698872 0.6759386658668518
0.575597882270813 -0.006708851084113121 0.6759386658668518
0.5740370154380798 -0.005902687553316355 0.6754587888717651
0.5675309896469116 -0.001932158600538969 0.673846960067749
0.5598779916763306 0.002641384257003665 0.6718892455101013
0.5578412413597107 0.003900806186720729 0.6713951826095581
0.5521149635314941 0.007279657758772373 0.6699029803276062
0.5515697598457336 0.007562394253909588 0.6697360873222351
0.5504776835441589 0.008128879591822624 0.669402003288269
0.6318665742874146 -0.0898924246430397 0.6579861044883728
0.6287070512771606 -0.0835825502872467 0.6599946618080139
0.6255406737327576 -0.07749007642269135 0.6618601083755493
0.616930365562439 -0.05959567427635193 0.6677791476249695
0.6047179698944092 -0.033974193036556244 0.676328182220459
0.6033293604850769 -0.03421793505549431 0.6752873659133911
0.6008952260017395 -0.027978401631116867 0.6777136921882629
0.6001162528991699 -0.02588094025850296 0.678554117679596
0.599438488483429 -0.023620879277586937 0.6795629858970642
0.5942700505256653 -0.01795748621225357 0.6798784136772156
0.5937694311141968 -0.017699910327792168 0.6797235608100891
0.5864746570587158 -0.013341633602976799 0.6778513193130493
0.585965633392334 -0.013079456053674221 0.6776940822601318
0.5840203762054443 -0.011875526048243046 0.677221417427063
0.5790778398513794 -0.0089227594435215 0.6759528517723083
0.571052074432373 -0.0041710142977535725 0.6738654375076294
0.5706318616867065 -0.0037507377564907074 0.6738654375076294
0.5695798993110657 -0.003207129193469882 0.6735414862632751
0.5634369254112244 0.0003775618097279221 0.6719104051589966
0.5619454383850098 0.0013539016945287585 0.6715818643569946
0.5604503750801086 0.0023326000664383173 0.6712527275085449
0.5557132959365845 0.004991497378796339 0.6699278950691223
0.5478789806365967 0.009671690873801708 0.6679168343544006
0.54744952917099 0.010100970976054668 0.6679168343544006
0.6379244923591614 -0.10087301582098007 0.653994083404541
0.6225795149803162 -0.06993195414543152 0.6639661192893982
0.6195988059043884 -0.0637819841504097 0.6659925580024719
0.6031182408332825 -0.03486570343375206 0.673943817615509
0.601794421672821 -0.031301349401474 0.6753764748573303
0.6012850999832153 -0.029854971915483475 0.6759756207466125
0.6002460718154907 -0.02585276961326599 0.6778702139854431
0.5987415909767151 -0.021619191393256187 0.6796152591705322
0.5972514748573303 -0.019705770537257195 0.6798858642578125
0.5957556962966919 -0.01893640123307705 0.6794213056564331
0.5894919037818909 -0.015111386775970459 0.6778620481491089
0.5821292996406555 -0.010712404735386372 0.6759671568870544
0.5816153883934021 -0.010447134263813496 0.6758080124855042
0.5806839466094971 -0.009764805436134338 0.6756488084793091
0.5776823163032532 -0.008013688027858734 0.6748493909835815
0.5741413235664368 -0.005982395261526108 0.6738841533660889
0.5736185908317566 -0.005712440237402916 0.6737222671508789
0.5676208734512329 -0.0020032429601997137 0.6722590327262878
0.5665610432624817 -0.0014550464693456888 0.6719319820404053
0.5656076669692993 -0.0007578666554763913 0.6717681288719177
0.5640107989311218 6.852524529676884e-05 0.6712754964828491
0.5588744878768921 0.003138334024697542 0.6699542999267578
0.5579092502593994 0.0038429589476436377 0.6697877645492554
0.5573691129684448 0.004122561309486628 0.6696209907531738
0.550528883934021 0.008080319501459599 0.667777955532074
0.549551248550415 0.008793479762971401 0.6676090359687805
0.6179307699203491 -0.05795707926154137 0.6678373217582703
0.6160199046134949 -0.05389942601323128 0.6692138910293579
0.611828625202179 -0.04548736661672592 0.6719204187393188
0.6058979034423828 -0.03337788209319115 0.6758826375007629
0.6019635796546936 -0.034869786351919174 0.6724031567573547
0.6018751263618469 -0.0338117741048336 0.6730247735977173
0.5978267788887024 -0.02001665160059929 0.6792747974395752
0.5924986004829407 -0.01687517575919628 0.6778726577758789
0.5919950008392334 -0.016615644097328186 0.677716076374054
0.5905725955963135 -0.015682402998209 0.6774023175239563
0.5851700305938721 -0.012495871633291245 0.6759812235832214
0.5841464996337891 -0.011968422681093216 0.6756632328033447
0.5772191286087036 -0.007787762675434351 0.6739019155502319
0.5757595896720886 -0.006831222213804722 0.6735793948173523
0.5696743130683899 -0.003280922072008252 0.6719537973403931
0.5676659345626831 -0.002038859063759446 0.6714625358581543
0.5620228052139282 0.0012901616282761097 0.669978678226471
0.5614864230155945 0.001567828468978405 0.669812798500061
0.5605244040489197 0.002270870143547654 0.6696465015411377
0.5542619228363037 0.005927050951868296 0.6679754257202148
0.5537172555923462 0.006209470797330141 0.6678071618080139
0.6359184384346008 -0.09358024597167969 0.6556808948516846
0.6186771988868713 -0.05798753350973129 0.6674826145172119
0.617094874382019 -0.05882062762975693 0.6659293174743652
0.6157806515693665 -0.05758519470691681 0.6658787131309509
0.6160238981246948 -0.055618833750486374 0.6672996282577515
0.615451455116272 -0.05135416239500046 0.6696741580963135
0.6070417165756226 -0.03383814916014671 0.6755304336547852
0.6046484112739563 -0.03483825922012329 0.6733480095863342
0.6026756763458252 -0.03620556369423866 0.6711999773979187
0.6022533774375916 -0.035783495754003525 0.6711999773979187
0.6018659472465515 -0.035294823348522186 0.6712650656700134
0.6019372344017029 -0.031485944986343384 0.6737604141235352
0.6012440919876099 -0.027981624007225037 0.6755682229995728
0.5999741554260254 -0.023260945454239845 0.6777873039245605
0.5959069728851318 -0.019044358283281326 0.6778834462165833
0.5886147618293762 -0.014687983319163322 0.6759954690933228
0.5876913070678711 -0.014010998420417309 0.6758369207382202
0.5871818661689758 -0.013748414814472198 0.6756781339645386
0.5802863836288452 -0.009586546570062637 0.6739201545715332
0.5797690153121948 -0.009319650009274483 0.6737592220306396
0.5777946710586548 -0.008098253048956394 0.6732749342918396
0.572776734828949 -0.0051001980900764465 0.6719760298728943
0.5717254281044006 -0.004557248204946518 0.6716489791870117
0.5707772970199585 -0.0038635595701634884 0.6714853048324585
0.5646270513534546 -0.0002745767997112125 0.6698381900787354
0.5640928149223328 1.7814501234170166e-06 0.669672429561615
0.5568944215774536 0.004345717839896679 0.6678367257118225
0.5464995503425598 0.005013456102460623 0.6615813374519348
0.5444507002830505 0.006402201484888792 0.6611566543579102
0.5438112020492554 0.006601046770811081 0.660873293876648
0.6250061988830566 -0.07270095497369766 0.6612594723701477
0.6243610978126526 -0.07124540209770203 0.6617822051048279
0.6239253282546997 -0.07080981880426407 0.6617822051048279
0.6240119934082031 -0.06752435117959976 0.6639569997787476
0.6154850125312805 -0.060028765350580215 0.663291871547699
0.6140021681785583 -0.06056927517056465 0.6619866490364075
0.6147782206535339 -0.0559726245701313 0.6654517650604248
0.6150265336036682 -0.05401424318552017 0.6668752431869507
0.6152023077011108 -0.049487367272377014 0.6699080467224121
0.6095957159996033 -0.03773954138159752 0.6738688945770264
0.6043753623962402 -0.035618316382169724 0.6718701124191284
0.6023902893066406 -0.03700226545333862 0.6696972846984863
0.6019666790962219 -0.03657854348421097 0.6696972846984863
0.601631224155426 -0.035984620451927185 0.6698639988899231
0.6018253564834595 -0.0331486351788044 0.6718183159828186
0.6006574034690857 -0.025730567052960396 0.6758492588996887
0.6001295447349548 -0.023183323442935944 0.6771517395973206
0.5992609858512878 -0.021282697096467018 0.6778172850608826
0.5979827046394348 -0.020126918330788612 0.6777382493019104
0.5974835157394409 -0.01987031288444996 0.6775819659233093
0.5940640568733215 -0.017910724505782127 0.6766402125358582
0.5911275744438171 -0.01619778759777546 0.6758511662483215
0.5907132625579834 -0.015783369541168213 0.6758511662483215
0.583759605884552 -0.011796710081398487 0.6739376187324524
0.5817971229553223 -0.01058200467377901 0.6734554171562195
0.5762880444526672 -0.007333651650696993 0.6719973683357239
0.5758678913116455 -0.006913407240062952 0.6719973683357239
0.5677562355995178 -0.0021103392355144024 0.6698635220527649
0.5672249794006348 -0.0018356593791395426 0.6696980595588684
0.5600595474243164 0.002488241996616125 0.667865514755249
0.5595200061798096 0.0027677170000970364 0.6676976680755615
0.5522525906562805 0.007153235841542482 0.6658390760421753
0.6266804933547974 -0.07190808653831482 0.662022054195404
0.6248963475227356 -0.07340431958436966 0.6599003076553345
0.621800422668457 -0.06141086295247078 0.6656553149223328
0.6185346841812134 -0.05902408808469772 0.6650866866111755
0.6175827980041504 -0.0598151870071888 0.6639595031738281
0.6166236996650696 -0.06061220169067383 0.6628234386444092
0.6133127212524414 -0.0624849870800972 0.6594706177711487
0.6119073629379272 -0.0628056675195694 0.6583541035652161
0.6109325289726257 -0.06357114762067795 0.6572286486625671
0.6144572496414185 -0.052838314324617386 0.6664506196975708
0.6147059798240662 -0.0509057492017746 0.6678614020347595
0.6142085194587708 -0.04791795089840889 0.6694720387458801
0.608495831489563 -0.033927079290151596 0.6748266220092773
0.6066576242446899 -0.035100676119327545 0.6728784441947937
0.6040992736816406 -0.03640564903616905 0.6703797578811646
0.6014096736907959 -0.03172997385263443 0.6716643571853638
0.6014829874038696 -0.02917303889989853 0.6733655333518982
0.5941383242607117 -0.01796354539692402 0.6758654117584229
0.5936344265937805 -0.017704160884022713 0.675707221031189
0.5868044495582581 -0.013582098297774792 0.6739556193351746
0.5858759880065918 -0.012901742942631245 0.673795223236084
0.5788477659225464 -0.008871397003531456 0.6718562841415405
0.5779078006744385 -0.008183104917407036 0.6716934442520142
0.5712973475456238 -0.004361855331808329 0.6698894500732422
0.5708746910095215 -0.003939142916351557 0.6698894500732422
0.5698169469833374 -0.0033925026655197144 0.6695587038993835
0.5636393427848816 0.00021191866835579276 0.6678943634033203
0.5616014003753662 0.0014724032953381538 0.6673914790153503
0.5558719038963318 0.004851945675909519 0.6658715009689331
0.5467967987060547 0.006224697455763817 0.6608895063400269
0.6393244862556458 -0.09568988531827927 0.6539666056632996
0.6247861385345459 -0.07411178946495056 0.6585330963134766
0.6244359612464905 -0.07188057899475098 0.6597533822059631
0.6239985823631287 -0.07144331187009811 0.6597533822059631
0.6206912994384766 -0.05860630422830582 0.6659351587295532
0.6183755993843079 -0.05975143611431122 0.6636902093887329
0.6164573431015015 -0.06135000288486481 0.6614088416099548
0.6140706539154053 -0.06253477931022644 0.6590919494628906
0.613083004951477 -0.0633540004491806 0.6579200625419617
0.6120871305465698 -0.06418008357286453 0.65673828125
0.6095619201660156 -0.0670023187994957 0.6532692909240723
0.6134478449821472 -0.05402397736907005 0.6642087697982788
0.6130173802375793 -0.05359342321753502 0.6642087697982788
0.6134606599807739 -0.051235005259513855 0.66602623462677
0.6137142777442932 -0.04931071028113365 0.6674389839172363
0.6137128472328186 -0.04795762151479721 0.6683159470558167
0.6131038665771484 -0.045252226293087006 0.6696757078170776
0.6122090816497803 -0.04188058152794838 0.6712822914123535
0.6102021932601929 -0.035757876932621 0.6739523410797119
0.6084998846054077 -0.03417282924056053 0.6738762855529785
0.6063914895057678 -0.035882145166397095 0.671399712562561
0.602731466293335 -0.038078878074884415 0.667600691318512
0.6017596125602722 -0.03871777281165123 0.666555643081665
0.6012226939201355 -0.03600689768791199 0.6679659485816956
0.6017236709594727 -0.033810023218393326 0.6697158217430115
0.6013662815093994 -0.02721804939210415 0.6737600564956665
0.6005585193634033 -0.023982636630535126 0.6753349304199219
0.5999761819839478 -0.022709663957357407 0.6757828593254089
0.5971382856369019 -0.019723141565918922 0.6758792996406555
0.5957219004631042 -0.018793854862451553 0.6755633354187012
0.5898383259773254 -0.015361424535512924 0.6739732623100281
0.5878932476043701 -0.014157409779727459 0.6734925508499146
0.5819191336631775 -0.010672365315258503 0.6718780994415283
0.5809826254844666 -0.009986245073378086 0.6717156767845154
0.5744038224220276 -0.006183479446917772 0.6699150204658508
0.5738784074783325 -0.005911978427320719 0.6697502136230469
0.5667814612388611 -0.0016311724903061986 0.6679232716560364
0.5658226013183594 -0.0009299317025579512 0.667756199836731
0.5590506196022034 0.0029871726874262094 0.6659042835235596
0.5575370788574219 0.003977596294134855 0.6655651926994324
0.5569939017295837 0.004259925801306963 0.6653957962989807
0.5502263307571411 0.008389496244490147 0.6636847853660583
0.5451683402061462 0.008059574291110039 0.660189688205719
0.5440934896469116 0.008696336299180984 0.6599054336547852
0.6269145607948303 -0.07373004406690598 0.6593259572982788
0.6246753334999084 -0.0748235359787941 0.657157838344574
0.6245037317276001 -0.07368983328342438 0.6577836871147156
0.6237289905548096 -0.06944450736045837 0.6600415110588074
0.6245854496955872 -0.06424161791801453 0.6639834046363831
0.6241554021835327 -0.06381145119667053 0.6639834046363831
0.6235101222991943 -0.06391523033380508 0.663496196269989
0.6220751404762268 -0.05855557695031166 0.6660494208335876
0.6182156801223755 -0.06048298999667168 0.6622848510742188
0.6162900924682617 -0.06209218129515648 0.659985363483429
0.615854024887085 -0.061656102538108826 0.659985363483429
0.6107438206672668 -0.0675872415304184 0.6528022885322571
0.6084045171737671 -0.0670342892408371 0.6516402363777161
0.6073688864707947 -0.067893847823143 0.6504073739051819
0.6058730483055115 -0.06830618530511856 0.6491660475730896
0.6123456954956055 -0.052629195153713226 0.663575291633606
0.6128920912742615 -0.050059977918863297 0.6656020879745483
0.6127229332923889 -0.047716401517391205 0.6670166850090027
0.6123478412628174 -0.04318712651729584 0.6697190999984741
0.6119263768196106 -0.04276558756828308 0.6697190999984741
0.6117700934410095 -0.041784364730119705 0.6702558994293213
0.6114590167999268 -0.03983327001333237 0.6713228225708008
0.6061238646507263 -0.0366680733859539 0.6699112057685852
0.6057027578353882 -0.03624682128429413 0.6699112057685852
0.6035419702529907 -0.037996672093868256 0.6673673391342163
0.6013646721839905 -0.039734091609716415 0.6648205518722534
0.6004906296730042 -0.03765341639518738 0.6656054258346558
0.6014190316200256 -0.029740741476416588 0.6713569760322571
0.6009300947189331 -0.025867708027362823 0.6735584735870361
0.5999374985694885 -0.021821800619363785 0.6755449175834656
0.5977169871330261 -0.02003598026931286 0.6752620339393616
0.5928617715835571 -0.017134500667452812 0.6739910244941711
0.5918484926223755 -0.016612784937024117 0.6736713647842407
0.5909253358840942 -0.015935789793729782 0.6735112071037292
0.5849791169166565 -0.012467579916119576 0.6718990206718445
0.5839493274688721 -0.011936148628592491 0.6715749502182007
0.5774991512298584 -0.007998817600309849 0.6699401140213013
0.5699126124382019 -0.003467255039140582 0.6679527163505554
0.5678927302360535 -0.0022182846441864967 0.6674513220787048
0.5622175931930542 0.0011291810078546405 0.6659371256828308
0.561678409576416 0.001408380107022822 0.6657678484916687
0.5607107877731323 0.002115599811077118 0.6655985116958618
0.5544123649597168 0.005792130250483751 0.6638926267623901
0.5538644790649414 0.006076138000935316 0.6637210249900818
0.5461217761039734 0.008186781778931618 0.6600572466850281
0.5438739061355591 0.00934275146573782 0.6593468189239502
0.6268103122711182 -0.07443800568580627 0.6579585075378418
0.6263717412948608 -0.07399952411651611 0.6579585075378418
0.6237342357635498 -0.06983737647533417 0.658953070640564
0.6237230896949768 -0.06679871678352356 0.6609284281730652
0.622895359992981 -0.06583105027675629 0.6610196232795715
0.6203883290290833 -0.06005457416176796 0.6631526350975037
0.6180547475814819 -0.06121935322880745 0.6608704328536987
0.6147048473358154 -0.06321883201599121 0.6573803424835205
0.6127200126647949 -0.06487768143415451 0.6550029516220093
0.6071649789810181 -0.06868541240692139 0.6488945484161377
0.6056632399559021 -0.06910242885351181 0.6476427316665649
0.6035375595092773 -0.07086227089166641 0.6451078057289124
0.6116733551025391 -0.05166385695338249 0.6629412174224854
0.6118961572647095 -0.04845786839723587 0.6651781797409058
0.6121454238891602 -0.04523685947060585 0.6674423813819885
0.611329197883606 -0.041687995195388794 0.6692249774932861
0.6102933883666992 -0.0373753122985363 0.6713628768920898
0.6043509840965271 -0.03791460394859314 0.6671343445777893
0.6032606363296509 -0.03880036994814873 0.6658449172973633
0.6010491847991943 -0.04059690609574318 0.6632300019264221
0.5995255708694458 -0.04101736471056938 0.6619616150856018
0.600972592830658 -0.03571965545415878 0.6663621664047241
0.6013623476028442 -0.03128696233034134 0.6695084571838379
0.6008069515228271 -0.023946590721607208 0.6739349365234375
0.5953707695007324 -0.018642399460077286 0.6738490462303162
0.5880287885665894 -0.014255745336413383 0.6719208359718323
0.5875166654586792 -0.01399189606308937 0.6717588901519775
0.5840126872062683 -0.01198290940374136 0.670783519744873
0.5805835723876953 -0.00980750098824501 0.6699655055999756
0.579542875289917 -0.009270664304494858 0.6696368455886841
0.5775555372238159 -0.008041301742196083 0.6691422462463379
0.5730324983596802 -0.00529696187004447 0.6679819226264954
0.5719754695892334 -0.004750887863337994 0.6676483750343323
0.570491373538971 -0.003779282793402672 0.6673142313957214
0.565373420715332 -0.0007221653359010816 0.6659696698188782
0.5576050281524658 0.003919319715350866 0.6639294624328613
0.5570600628852844 0.004201639909297228 0.6637581586837769
0.5475085973739624 0.007878292351961136 0.6599254012107849
0.5469737648963928 0.00819561816751957 0.6597833633422852
0.6293719410896301 -0.07286365330219269 0.6598236560821533
0.6253752112388611 -0.07544774562120438 0.6555178761482239
0.6239513754844666 -0.07124470174312592 0.6573362946510315
0.6216901540756226 -0.06922116875648499 0.6571808457374573
0.6211767196655273 -0.05999153479933739 0.6628836989402771
0.6202350854873657 -0.06078609451651573 0.6617478728294373
0.6178930997848511 -0.06195998191833496 0.6594473719596863
0.6145291328430176 -0.06397728621959686 0.6559263467788696
0.6120920181274414 -0.06666795164346695 0.6525713801383972
0.6100642681121826 -0.06689389050006866 0.651096761226654
0.6090380549430847 -0.06774953752756119 0.6498653292655945
0.6080031394958496 -0.06861221790313721 0.6486237049102783
0.6069595813751221 -0.06948222219944 0.6473717093467712
0.6043893098831177 -0.07078652828931808 0.6448367238044739
0.6112894415855408 -0.04736663028597832 0.6646749973297119
0.611592173576355 -0.045380350202322006 0.6661726832389832
0.6111500859260559 -0.043665021657943726 0.6670058369636536
0.6101568341255188 -0.0392124205827713 0.669269323348999
0.6098520159721375 -0.037270739674568176 0.6703402996063232
0.6092820763587952 -0.03588716313242912 0.6708726286888123
0.605583131313324 -0.0382569283246994 0.6669018268585205
0.6040728688240051 -0.038717303425073624 0.6656123399734497
0.6007546782493591 -0.04142085090279579 0.6616725325584412
0.5980561375617981 -0.04282651096582413 0.6589871048927307
0.596906304359436 -0.04376006871461868 0.657623827457428
0.6014307141304016 -0.027756238356232643 0.6710556149482727
0.5987893342971802 -0.02081868425011635 0.6738664507865906
0.5978737473487854 -0.020146770402789116 0.6737070679664612
0.5973716378211975 -0.01988835632801056 0.6735475659370422
0.5914841294288635 -0.016454700380563736 0.6719421148300171
0.5905580520629883 -0.015775566920638084 0.6717805862426758
0.5875840783119202 -0.014040907844901085 0.6709696650505066
0.5840763449668884 -0.012029780074954033 0.6699903607368469
0.5836567282676697 -0.011610067449510098 0.6699903607368469
0.5815839767456055 -0.010540974326431751 0.6693336367607117
0.5756155252456665 -0.006849020719528198 0.6678442358970642
0.5679841637611389 -0.0022906013764441013 0.665833592414856
0.5669148564338684 -0.0017377168405801058 0.665495753288269
0.5612147450447083 0.0016243064310401678 0.6639657616615295
0.5607858896255493 0.0020529998000711203 0.6639657616615295
0.559701144695282 0.0026148203760385513 0.6636236310005188
0.5533742904663086 0.006307490170001984 0.6619001030921936
0.5518404245376587 0.007311053108423948 0.661553144454956
0.5503029227256775 0.008316940627992153 0.6612052917480469
0.6305890679359436 -0.07324393838644028 0.6595377922058105
0.6283910870552063 -0.07432454079389572 0.6573861241340637
0.6266000270843506 -0.07586655765771866 0.6551989912986755
0.624598503112793 -0.0731351375579834 0.6556781530380249
0.6236416101455688 -0.06933993101119995 0.6575406193733215
0.6214393973350525 -0.07024284452199936 0.6555030345916748
0.6228946447372437 -0.05914146080613136 0.6637424230575562
0.6186927556991577 -0.06189393252134323 0.659179151058197
0.6167596578598022 -0.06352420896291733 0.656840980052948
0.6157820820808411 -0.06434778869152069 0.655659019947052
0.6133575439453125 -0.06557492166757584 0.6532628536224365
0.606752872467041 -0.0702843889594078 0.6458386778831482
0.6062978506088257 -0.06982934474945068 0.6458386778831482
