ply
format ascii 1.0
element vertex 816
property float x
property float y
property float z
end_header
0.5180435180664062 0.039072707295417786 0.6481812000274658
0.5214682817459106 0.035772375762462616 0.6493766903877258
0.5222863554954529 0.03549967706203461 0.6493766903877258
0.5252774953842163 0.033632177859544754 0.6498591899871826
0.5260941386222839 0.033359915018081665 0.6498591899871826
0.5275850296020508 0.032428085803985596 0.6500998139381409
0.5282998085021973 0.031882185488939285 0.6502696871757507
0.5309784412384033 0.029248079285025597 0.6512341499328613
0.5321772694587708 0.027586856856942177 0.651932418346405
0.5335849523544312 0.026489024981856346 0.6522808074951172
0.5351167917251587 0.023380564525723457 0.6537192463874817
0.5371871590614319 0.021695930510759354 0.6542699337005615
0.5382324457168579 0.02203109860420227 0.6538912653923035
0.5443103909492493 0.02344895713031292 0.6519843935966492
0.5461851954460144 0.02351859211921692 0.651599645614624
0.5518831610679626 0.034985482692718506 0.6441988945007324
0.40552231669425964 0.039778899401426315 0.6676226258277893
0.40641820430755615 0.040647923946380615 0.6669739484786987
0.4132787883281708 0.03792766109108925 0.6672150492668152
0.4140394628047943 0.03761987015604973 0.6672452688217163
0.4163280129432678 0.03674842044711113 0.667305052280426
0.4177504777908325 0.03543245047330856 0.6677733659744263
0.4191168546676636 0.03376142308115959 0.6684483289718628
0.42030733823776245 0.030938653275370598 0.6697962880134583
0.4225790798664093 0.03011144883930683 0.6698351502418518
0.423343300819397 0.029882173985242844 0.6698212027549744
0.4241074025630951 0.029652446508407593 0.6698070764541626
0.4263969957828522 0.028939969837665558 0.6697790026664734
0.42869076132774353 0.028251774609088898 0.6697365045547485
0.4302338659763336 0.0278723556548357 0.669661283493042
0.4325830042362213 0.02749474346637726 0.6694362163543701
0.4341288208961487 0.027114713564515114 0.669360876083374
0.4364434778690338 0.026514125987887383 0.669266402721405
0.448354035615921 0.02502216026186943 0.6678893566131592
0.4503724277019501 0.015351577661931515 0.6728876829147339
0.45250800251960754 0.014051039703190327 0.6732151508331299
0.4531984329223633 0.013527004979550838 0.6733781695365906
0.4545767605304718 0.01248091645538807 0.6737041473388672
0.4560144543647766 0.011709006503224373 0.6738669276237488
0.4580721855163574 0.010146703571081161 0.6743535995483398
0.46229955554008484 0.007582386024296284 0.6749954223632812
0.4650845527648926 0.005790942348539829 0.6754748821258545
0.46671274304389954 0.00583227863535285 0.6751506924629211
0.47101590037345886 0.0067502353340387344 0.6738436818122864
0.4728068709373474 0.007337665650993586 0.6731857061386108
0.4744582176208496 0.00738159054890275 0.6728554964065552
0.47626376152038574 0.007972370833158493 0.6721929311752319
0.4771701395511627 0.008269158191978931 0.6718601584434509
0.4841737747192383 0.009556158445775509 0.6698485612869263
0.4879148304462433 0.01370337326079607 0.6668513417243958
0.48868346214294434 0.013447162695229053 0.6668513417243958
0.49095046520233154 0.018168069422245026 0.6638090014457703
0.49326708912849426 0.022992536425590515 0.6606997847557068
0.4956353008747101 0.027925467118620872 0.6575205326080322
0.4980558454990387 0.032966386526823044 0.654272198677063
0.503720223903656 0.045515697449445724 0.6462511420249939
0.505167543888092 0.04723659157752991 0.6450270414352417
0.5062910318374634 0.04790211841464043 0.6444495916366577
0.5092282295227051 0.04561213031411171 0.6451780796051025
0.5114327073097229 0.04393450543284416 0.64570152759552
0.5121195316314697 0.04323557764291763 0.6459630131721497
0.5134579539299011 0.041746288537979126 0.6465423107147217
0.5141076445579529 0.0409509651362896 0.646863579750061
0.5155777931213379 0.039883602410554886 0.6471841335296631
0.5175123810768127 0.03751436993479729 0.6481423377990723
0.5183318257331848 0.03724122792482376 0.6481423377990723
0.5196126699447632 0.03567025065422058 0.6487780213356018
0.5217220187187195 0.0338842011988163 0.6493797302246094
0.5224688053131104 0.0334186777472496 0.6494997143745422
0.5246940851211548 0.03199100121855736 0.6498807072639465
0.5262167453765869 0.03115629032254219 0.6500627994537354
0.5275996923446655 0.029950644820928574 0.6504764556884766
0.528204083442688 0.029118280857801437 0.6508267521858215
0.5302186012268066 0.027189167216420174 0.651525616645813
0.5314153432846069 0.0255384910851717 0.652221143245697
0.5322237014770508 0.02526904083788395 0.652221143245697
0.5333948731422424 0.023580048233270645 0.6529421210289001
0.5343701839447021 0.021412834525108337 0.6539657115936279
0.5358702540397644 0.020606014877557755 0.6541358828544617
0.5369119048118591 0.020939107984304428 0.6537583470344543
0.5390029549598694 0.02160770073533058 0.6529994606971741
0.5408596396446228 0.021673977375030518 0.6526187062263489
0.5429689288139343 0.022347038611769676 0.6518545150756836
0.5498735904693604 0.03007603995501995 0.6462821960449219
0.40217429399490356 0.038961999118328094 0.6677634119987488
0.4047171473503113 0.04044105112552643 0.6664663553237915
0.40784701704978943 0.03991648182272911 0.6661770939826965
0.4174017906188965 0.033457983285188675 0.6680018901824951
0.4187643826007843 0.03179727867245674 0.668674111366272
0.4388541281223297 0.026717986911535263 0.6677727699279785
0.43954598903656006 0.0260782390832901 0.6680013537406921
0.44031548500061035 0.025855131447315216 0.6679821610450745
0.4426784813404083 0.02546069212257862 0.6677634119987488
0.44430240988731384 0.025432651862502098 0.6674771904945374
0.4467083513736725 0.025213373824954033 0.6671524047851562
0.44903236627578735 0.016840394586324692 0.6713873744010925
0.450422078371048 0.015785476192831993 0.6717172265052795
0.4560736119747162 0.012134673073887825 0.6727020740509033
0.45813485980033875 0.01056906208395958 0.6731919646263123
0.45956945419311523 0.009798627346754074 0.6733546257019043
0.4602564573287964 0.009290472604334354 0.6735103130340576
0.46238836646080017 0.00807660911232233 0.6737910509109497
0.4630788564682007 0.007594930473715067 0.6739310622215271
0.46827811002731323 0.005721698049455881 0.6740093231201172
0.46916648745536804 0.006012609228491783 0.6736822128295898
0.4699147045612335 0.005763200111687183 0.6736822128295898
0.47604918479919434 0.007271748501807451 0.6717014312744141
0.4786173105239868 0.007611860055476427 0.6710346937179565
0.48227235674858093 0.00880248099565506 0.6696919202804565
0.4871918559074402 0.011318233795464039 0.6673758625984192
0.4902060925960541 0.015736909583210945 0.664352536201477
0.49250441789627075 0.02051304094493389 0.6612638831138611
0.4948522448539734 0.025392137467861176 0.6581078767776489
0.4972536861896515 0.030385145917534828 0.6548782587051392
0.49805283546447754 0.03011876344680786 0.6548782587051392
0.500516951084137 0.0352194607257843 0.6515775918960571
0.504646360874176 0.045594021677970886 0.6450273394584656
0.506575882434845 0.045923829078674316 0.6444852352142334
0.5094730854034424 0.0435466468334198 0.6452716588973999
0.5116342902183533 0.041765209287405014 0.6458633542060852
0.5135846734046936 0.03938557207584381 0.6468271613121033
0.515697181224823 0.03753407672047615 0.6474668383598328
0.5163410305976868 0.03674788028001785 0.6477857232093811
0.5169836282730103 0.03596334159374237 0.6481038928031921
0.5197135210037231 0.03333607316017151 0.6490604877471924
0.52183598279953 0.0316183976829052 0.6496238112449646
0.5225394368171692 0.031041117385029793 0.6498144865036011
0.523242175579071 0.030464431270956993 0.650005578994751
0.5239438414573669 0.02988847717642784 0.650196373462677
0.5247556567192078 0.02961787022650242 0.650196373462677
0.5268518328666687 0.027889227494597435 0.6507703065872192
0.5282641649246216 0.026792369782924652 0.6511197090148926
0.528864860534668 0.02596752904355526 0.6514676809310913
0.5306583642959595 0.02350420132279396 0.652506947517395
0.5326509475708008 0.021603649482131004 0.6531962752342224
0.5337576866149902 0.019788291305303574 0.654002845287323
0.5345592498779297 0.019521119073033333 0.654002845287323
0.5355969071388245 0.019851861521601677 0.6536256074905396
0.5416330695152283 0.021249504759907722 0.6517250537872314
0.5426879525184631 0.02158544957637787 0.6513417363166809
0.5445551872253418 0.02165219560265541 0.6509574055671692
0.5479082465171814 0.025275614112615585 0.6483147144317627
0.5532958507537842 0.03592811897397041 0.6413764357566833
0.40314027667045593 0.04136164113879204 0.6653059720993042
0.40468376874923706 0.04089754447340965 0.6652780175209045
0.4061988294124603 0.04018361121416092 0.6653950810432434
0.4069558084011078 0.03982686251401901 0.6654530763626099
0.4084826111793518 0.03922877460718155 0.6655031442642212
0.41000106930732727 0.03856450691819191 0.6655915975570679
0.41153064370155334 0.03799992427229881 0.665621817111969
0.4122922122478485 0.037691809237003326 0.6656525731086731
0.41447198390960693 0.03598583862185478 0.6662002205848694
0.4164525866508484 0.032901179045438766 0.6675562858581543
0.4170513451099396 0.031469546258449554 0.6682450771331787
0.4277823269367218 0.028387272730469704 0.6679685711860657
0.428565114736557 0.028261389583349228 0.6678928136825562
0.4301106631755829 0.027881499379873276 0.6678175330162048
0.43244001269340515 0.027368003502488136 0.6676698923110962
0.4347507953643799 0.026735123246908188 0.667593240737915
0.43670162558555603 0.028572943061590195 0.6662021279335022
0.43740469217300415 0.027970297262072563 0.6664077043533325
0.4475333094596863 0.02548331953585148 0.6659102439880371
0.4483667016029358 0.0255466066300869 0.6657200455665588
0.4508277475833893 0.025521758943796158 0.665274977684021
0.45047205686569214 0.01622047834098339 0.67054283618927
0.45261481404304504 0.014914393424987793 0.6708738803863525
0.4539996385574341 0.01386243011802435 0.6712039113044739
0.4546906650066376 0.01333744265139103 0.6713684797286987
0.4561331570148468 0.012562217190861702 0.6715334057807922
0.45751044154167175 0.011515511199831963 0.6718618869781494
0.46455055475234985 0.0071260384283959866 0.6730042695999146
0.4666500687599182 0.005810682661831379 0.6733487844467163
0.47059717774391174 0.005360694602131844 0.672864556312561
0.4723844826221466 0.005943718366324902 0.6722053289413452
0.47328150272369385 0.006236072164028883 0.6718747019767761
0.47403261065483093 0.005985652562230825 0.6718747019767761
0.47493264079093933 0.006278539076447487 0.6715426445007324
0.4802218973636627 0.007501956541091204 0.6698728799819946
0.4828105568885803 0.007844013161957264 0.6691989898681641
0.48651617765426636 0.009092267602682114 0.667809784412384
0.48946845531463623 0.013326942920684814 0.66489177942276
0.4917483329772949 0.01805608533322811 0.6618216037750244
0.49407824873924255 0.022888606414198875 0.6586853265762329
0.4964591860771179 0.02782704494893551 0.6554792523384094
0.4996988773345947 0.032612185925245285 0.6521995067596436
0.504104495048523 0.043885570019483566 0.6450734734535217
0.5076530575752258 0.04358306899666786 0.6445813179016113
0.5096421837806702 0.041263312101364136 0.6455078721046448
0.5117672681808472 0.03940487280488014 0.646151065826416
0.513060450553894 0.03781599551439285 0.6467986702919006
0.5151646733283997 0.03595916926860809 0.6474451422691345
0.5178895592689514 0.03330409526824951 0.6484215259552002
0.5190412402153015 0.03140084445476532 0.6492714285850525
0.5210816264152527 0.029477804899215698 0.6499661207199097
0.5217873454093933 0.028915364295244217 0.6501491665840149
0.5231930613517761 0.02778521366417408 0.6505194902420044
0.5240020155906677 0.02751556597650051 0.6505194902420044
0.5260942578315735 0.025802694261074066 0.6510872840881348
0.5281166434288025 0.023931676521897316 0.6517566442489624
0.5287147164344788 0.023113803938031197 0.6521022915840149
0.5297917127609253 0.021182052791118622 0.6529822945594788
0.530593991279602 0.020914621651172638 0.6529822945594788
0.531058669090271 0.019771229475736618 0.6535351276397705
0.5315216183662415 0.01863251067698002 0.6540851593017578
0.5324535965919495 0.018707389011979103 0.6538698673248291
0.5363631844520569 0.019429076462984085 0.6527376770973206
0.5384496450424194 0.02009264938533306 0.6519773602485657
0.5392546653747559 0.0198243148624897 0.6519773602485657
0.5464614033699036 0.02172059938311577 0.6495736241340637
0.5512571930885315 0.03097180835902691 0.6435055732727051
0.41352158784866333 0.035424456000328064 0.6657544374465942
0.4148977994918823 0.03375381976366043 0.6664345264434814
0.41619059443473816 0.03153336048126221 0.6674383282661438
0.4184814691543579 0.030820071697235107 0.6674103736877441
0.42001137137413025 0.030360892415046692 0.6673817038536072
0.4215414524078369 0.02990148961544037 0.6673529744148254
0.42230305075645447 0.029647625982761383 0.6673529744148254
0.4246090352535248 0.029023680835962296 0.6672717928886414
0.4352319538593292 0.029772983863949776 0.6648650169372559
0.43671631813049316 0.02897271327674389 0.6650364995002747
0.438183069229126 0.028087953105568886 0.6652582287788391
0.43888238072395325 0.027466921135783195 0.6654762625694275
0.4402866065502167 0.0262751467525959 0.6658822298049927
0.4418332278728485 0.025845669209957123 0.6658340096473694
0.44265350699424744 0.025872014462947845 0.6656655669212341
0.44429734349250793 0.02592439576983452 0.6653286218643188
0.44841310381889343 0.026003200560808182 0.6645150184631348
0.45172885060310364 0.026095490902662277 0.6638427972793579
0.4505220949649811 0.01665712520480156 0.6693643927574158
0.4519738554954529 0.01587628200650215 0.6695306897163391
0.4526684880256653 0.015348254702985287 0.6696974039077759
0.45405566692352295 0.014293950982391834 0.6700294017791748
0.4582828879356384 0.01151187065988779 0.6707993745803833
0.46042707562446594 0.01028989814221859 0.6710842847824097
0.4611220061779022 0.009804904460906982 0.6712268590927124
0.46256688237190247 0.009070415049791336 0.6713685393333435
0.46464383602142334 0.007620383985340595 0.6717934012413025
0.46608397364616394 0.006888232659548521 0.6719347238540649
0.46678030490875244 0.006431658286601305 0.6720609068870544
0.4721737504005432 0.0052481661550700665 0.6717162728309631
0.4790930449962616 0.00650426559150219 0.6697173118591309
0.4844287633895874 0.00773405097424984 0.6680293083190918
0.48535165190696716 0.008032770827412605 0.6676890254020691
0.4887373447418213 0.010938831605017185 0.665425181388855
0.4909990131855011 0.015620673075318336 0.6623749136924744
0.49331048130989075 0.020405100658535957 0.6592587232589722
0.49567273259162903 0.02529551275074482 0.6560729742050171
0.4964645802974701 0.025031520053744316 0.6560729742050171
0.4988883435726166 0.030028266832232475 0.6528158187866211
0.5034107565879822 0.04168984293937683 0.645426869392395
0.5078169107437134 0.04126516729593277 0.6448408961296082
0.5091202855110168 0.039667095988988876 0.6454941034317017
0.5105892419815063 0.03859740495681763 0.6458194851875305
0.5112364888191223 0.037802912294864655 0.6461441516876221
0.513343870639801 0.03594700247049332 0.6467915773391724
0.5152503252029419 0.0335361510515213 0.6477876901626587
0.5158314108848572 0.03258615732192993 0.648212194442749
0.5172032713890076 0.031311556696891785 0.648670494556427
0.5183154344558716 0.0293137114495039 0.6495831608772278
0.5188691020011902 0.028319556266069412 0.6500377058982849
0.520328164100647 0.027339832857251167 0.6503146290779114
0.522436261177063 0.02566470019519329 0.6508604884147644
0.5246421694755554 0.024283163249492645 0.6512227058410645
0.5253401398658752 0.023725681006908417 0.6514047384262085
0.5267569422721863 0.022675402462482452 0.651729166507721
0.5272296071052551 0.021526452153921127 0.6522855162620544
0.5281694531440735 0.019241496920585632 0.65339195728302
0.5294342637062073 0.017839526757597923 0.6539417505264282
0.5301282405853271 0.0173038300126791 0.6541129350662231
0.5311549305915833 0.017630718648433685 0.6537374258041382
0.5321838855743408 0.01795714721083641 0.6533616781234741
0.5371299982070923 0.019005993381142616 0.6518477201461792
0.5400247573852539 0.019399913027882576 0.6510857343673706
0.5431824922561646 0.02040010318160057 0.649933934211731
0.5450502634048462 0.020466327667236328 0.6495473384857178
0.5492645502090454 0.026127148419618607 0.6455827951431274
0.4029102921485901 0.04081946238875389 0.6637699007987976
0.40443795919418335 0.040207650512456894 0.663827657699585
0.4051981568336487 0.0398726724088192 0.6638736128807068
0.4067181944847107 0.039203766733407974 0.6639648079872131
0.4082494378089905 0.038637109100818634 0.6639966368675232
0.4131736159324646 0.033349841833114624 0.6660487651824951
0.41456589102745056 0.03183862939476967 0.6666386127471924
0.42921820282936096 0.028112594038248062 0.6659863591194153
0.4299815893173218 0.027858132496476173 0.6659863591194153
0.4307461082935333 0.027611685916781425 0.6659813523292542
0.4329475462436676 0.031015334650874138 0.6636525988578796
0.4344676434993744 0.030393140390515327 0.6637176275253296
0.43597590923309326 0.029708225280046463 0.6638199687004089
0.4367375373840332 0.02940995618700981 0.6638454794883728
0.4426525831222534 0.026136210188269615 0.6645780205726624
0.4443109333515167 0.02625156007707119 0.6642021536827087
0.4451533555984497 0.026367882266640663 0.663978099822998
0.4467666745185852 0.026228221133351326 0.663754403591156
0.44845709204673767 0.02644949033856392 0.6633126139640808
0.4520265460014343 0.01631283015012741 0.6683491468429565
0.454111784696579 0.014726833440363407 0.6688504815101624
0.45556584000587463 0.013971182517707348 0.6690033078193665
0.45626649260520935 0.013481881469488144 0.6691467761993408
0.4583646059036255 0.012017272412776947 0.6695776581764221
0.4591183364391327 0.011766028590500355 0.6695776581764221
0.4605129063129425 0.010792461223900318 0.6698643565177917
0.4640786349773407 0.008738054893910885 0.670351505279541
0.46765804290771484 0.0036469909828156233 0.6725461483001709
0.46854379773139954 0.003934961277991533 0.6722177863121033
0.4701792895793915 0.00397457042708993 0.6718886494636536
0.47107014060020447 0.004263742361217737 0.6715582609176636
0.4763098359107971 0.005469006951898336 0.6698969602584839
0.47887614369392395 0.005804083310067654 0.6692266464233398
0.48328712582588196 0.006731834728270769 0.667876660823822
0.4842067062854767 0.007028501480817795 0.6675371527671814
0.4860590696334839 0.00764604564756155 0.6668421626091003
0.48824965953826904 0.00935989897698164 0.6654658317565918
0.49025648832321167 0.013206531293690205 0.6629238128662109
0.49254947900772095 0.017943795770406723 0.659826934337616
0.4948923587799072 0.022784249857068062 0.6566625237464905
0.4980856776237488 0.02747000753879547 0.6534255743026733
0.5027137398719788 0.03948339819908142 0.6457940340042114
0.5041127800941467 0.04106315225362778 0.6446423530578613
0.507294237613678 0.03965325653553009 0.644838809967041
0.5094138979911804 0.037790022790431976 0.6454902291297913
0.5100614428520203 0.036997489631175995 0.6458147764205933
0.5113525986671448 0.03541749715805054 0.6464616656303406
0.5134252905845642 0.03349241614341736 0.6471565961837769
0.5145552754402161 0.031492993235588074 0.6480703353881836
0.5164841413497925 0.029225725680589676 0.6489847302436829
0.5175948739051819 0.02724146470427513 0.6498934626579285
0.5181477069854736 0.026253603398799896 0.6503455638885498
0.5189531445503235 0.025985127314925194 0.6503455638885498
0.5202814936637878 0.024661356583237648 0.6508415937423706
0.5209237933158875 0.023944862186908722 0.6511242389678955
0.5223672986030579 0.022961322218179703 0.6514074802398682
0.5236436724662781 0.021533561870455742 0.6519714593887329
0.524279773235321 0.020821545273065567 0.6522529125213623
0.5248178243637085 0.019850311800837517 0.6526985764503479
0.5260889530181885 0.018447406589984894 0.6532499194145203
0.5265592932701111 0.017314936965703964 0.6537992358207703
0.5270278453826904 0.01618678867816925 0.6543465256690979
0.5347790122032166 0.01759551651775837 0.652098536491394
0.5358158946037292 0.017923904582858086 0.6517195701599121
0.5418474078178406 0.019307786598801613 0.6498087048530579
0.5429015159606934 0.019641051068902016 0.6494231224060059
0.5447676181793213 0.019705967977643013 0.649036169052124
0.5474774241447449 0.021775351837277412 0.6473628878593445
0.5526612997055054 0.03189608454704285 0.640692949295044
0.4096181094646454 0.037402454763650894 0.6634931564331055
0.4102414548397064 0.03597738593816757 0.6641806960105896
0.41221028566360474 0.032650161534547806 0.6656892895698547
0.413707971572876 0.03193876892328262 0.6658090949058533
0.41446995735168457 0.03168477490544319 0.6658090949058533
0.4160006642341614 0.031225234270095825 0.6657805442810059
0.41829365491867065 0.030511388555169106 0.6657524108886719
0.4205905795097351 0.02982170134782791 0.6657093167304993
0.4221298098564148 0.02941133640706539 0.6656512022018433
0.4244767427444458 0.029034262523055077 0.6654224395751953
0.42602312564849854 0.0286539439111948 0.6653459072113037
0.4314104914665222 0.03191184252500534 0.6624913811683655
0.4360073506832123 0.030212385579943657 0.6625855565071106
0.4382796287536621 0.029226254671812057 0.6627151966094971
0.4404086768627167 0.027495866641402245 0.6632915735244751
0.4426628649234772 0.02646118402481079 0.6634517312049866
0.4493201673030853 0.026865079998970032 0.6619705557823181
0.4500923156738281 0.026607653126120567 0.6619705557823181
0.45278021693229675 0.02755984477698803 0.6609265208244324
0.45132097601890564 0.01700354553759098 0.667163074016571
0.45207932591438293 0.01675076223909855 0.667163074016571
0.45347893238067627 0.0157180093228817 0.6674830317497253
0.45418283343315125 0.015226379968225956 0.6676285862922668
0.4563521444797516 0.014024914242327213 0.6678982973098755
0.4620629847049713 0.010610285215079784 0.6687520146369934
0.4635220766067505 0.009908919222652912 0.6688730716705322
0.4642264246940613 0.009459305554628372 0.6689944863319397
0.46638616919517517 0.008310046046972275 0.6692366600036621
0.46708840131759644 0.00786143820732832 0.66935795545578
0.468336820602417 0.0032442861702293158 0.6717311143875122
0.4733971655368805 0.0038994019851088524 0.6704084277153015
0.4751940965652466 0.004480176139622927 0.6697421073913574
0.4804796278476715 0.005691381637006998 0.6680629253387451
0.48139286041259766 0.005985743831843138 0.6677247285842896
0.48214972019195557 0.005733460653573275 0.6677247285842896
0.48972761631011963 0.01149856299161911 0.6630415320396423
0.49179545044898987 0.015504124574363232 0.6603904962539673
0.4941197335720062 0.020296599715948105 0.6572462320327759
0.4974994659423828 0.02560988999903202 0.6536082625389099
0.502021074295044 0.03729119896888733 0.6461595296859741
0.5046496391296387 0.039913225919008255 0.6441841125488281
0.5074244141578674 0.037257011979818344 0.645162045955658
0.5095365643501282 0.03540540114045143 0.6458099484443665
0.5107756853103638 0.0336831696331501 0.6465493440628052
0.512721061706543 0.03140388801693916 0.6474705338478088
0.5138460397720337 0.029407531023025513 0.6483863592147827
0.5144059062004089 0.02841387875378132 0.648842453956604
0.5157694816589355 0.02715252712368965 0.6492976546287537
0.516836404800415 0.02506166137754917 0.6502780914306641
0.5172843933105469 0.023785937577486038 0.6509143710136414
0.5180861949920654 0.023518629372119904 0.6509143710136414
0.5192238688468933 0.021684883162379265 0.6517354249954224
0.5198394656181335 0.02090751752257347 0.6520588397979736
0.5204532742500305 0.020131822675466537 0.6523812413215637
0.5212512612342834 0.01986582577228546 0.6523812413215637
0.522518515586853 0.01844106987118721 0.652947723865509
0.5231521725654602 0.017736177891492844 0.6532259583473206
0.5244892835617065 0.016525695100426674 0.6536582708358765
0.5249612927436829 0.015403085388243198 0.6542034149169922
0.5267587900161743 0.015430765226483345 0.653849184513092
0.5285723209381104 0.015488820150494576 0.6534752249717712
0.5326745510101318 0.01678548939526081 0.6519702672958374
0.5365815758705139 0.017500411719083786 0.6508309841156006
0.5384257435798645 0.017561113461852074 0.6504499316215515
0.5466063022613525 0.019612960517406464 0.6477506160736084
0.5506372451782227 0.02699943259358406 0.6428195834159851
0.4034394323825836 0.03992642089724541 0.6622871160507202
0.4092874228954315 0.035350874066352844 0.6637752652168274
0.4098891317844391 0.03377404436469078 0.664555013179779
0.41065260767936707 0.03351955488324165 0.664555013179779
0.41973522305488586 0.029922837391495705 0.6648777723312378
0.42902296781539917 0.032619133591651917 0.6615954041481018
0.43058329820632935 0.03221017122268677 0.6615327596664429
0.4321766495704651 0.03199165686964989 0.6613550186157227
0.4344995319843292 0.031257513910532 0.6613326072692871
0.43603232502937317 0.03068014606833458 0.6613703370094299
0.4374394714832306 0.029415782541036606 0.6618208289146423
0.43821027874946594 0.029158854857087135 0.6618208289146423
0.43955960869789124 0.027620447799563408 0.662437915802002
0.4443676769733429 0.027058973908424377 0.6618480682373047
0.44681087136268616 0.026935450732707977 0.6614563465118408
0.45199620723724365 0.027991710230708122 0.6598783731460571
0.4528992474079132 0.02832449972629547 0.6595188975334167
0.45140546560287476 0.017594363540410995 0.6658818125724792
0.4521653950214386 0.01734105497598648 0.6658818125724792
0.45790573954582214 0.01385846920311451 0.6667711138725281
0.4586152136325836 0.013401232659816742 0.6668956279754639
0.4600820541381836 0.012695896439254284 0.6670188307762146
0.46149900555610657 0.011790664866566658 0.6672638654708862
0.46220633387565613 0.011338365264236927 0.6673862338066101
0.4643750488758087 0.010184141807258129 0.6676313281059265
0.46508046984672546 0.009733261540532112 0.6677531599998474
0.46653982996940613 0.009031509049236774 0.6678752899169922
0.468649685382843 0.007682968396693468 0.6682407855987549
0.472436785697937 0.003455669851973653 0.6699211001396179
0.47408223152160645 0.00349471066147089 0.6695881485939026
0.4793509840965271 0.004698101431131363 0.667910635471344
0.48468339443206787 0.005916110705584288 0.6662135720252991
0.48561739921569824 0.006251320708543062 0.6658470630645752
0.48637741804122925 0.0059979818761348724 0.6658470630645752
0.48812946677207947 0.009041703306138515 0.6637915968894958
0.4934326112270355 0.018088193610310555 0.6576639413833618
0.4942145347595215 0.017827557399868965 0.6576639413833618
0.49807026982307434 0.02747979201376438 0.6514657735824585
0.5012965202331543 0.03499549999833107 0.6465978622436523
0.5028991103172302 0.037246622145175934 0.6450192928314209
0.5048950910568237 0.037851180881261826 0.6442993879318237
0.5069058537483215 0.035664912313222885 0.6451584100723267
0.5089386701583862 0.033592794090509415 0.6459487080574036
0.5095092058181763 0.032587215304374695 0.646411120891571
0.5100780129432678 0.031584687530994415 0.6468715071678162
0.5120109915733337 0.029296990483999252 0.6478028893470764
0.5131138563156128 0.027255071327090263 0.6487517356872559
0.5144667625427246 0.025970660150051117 0.6492236852645874
0.5154158473014832 0.02354522794485092 0.6504191160202026
0.5163117051124573 0.021009348332881927 0.6516870856285095
0.5175538659095764 0.01948656141757965 0.6523149609565735
0.5181643962860107 0.018704310059547424 0.6526427865028381
0.5187740325927734 0.01792393997311592 0.652970016002655
0.5201754570007324 0.01688046008348465 0.6532964110374451
0.521268367767334 0.015009296126663685 0.654150664806366
0.5217101573944092 0.013801823370158672 0.6547514200210571
0.5226684212684631 0.013991844840347767 0.6544622778892517
0.5254806876182556 0.014367951080203056 0.653718113899231
0.5303512215614319 0.015390931628644466 0.6522189378738403
0.5313765406608582 0.015713779255747795 0.6518418192863464
0.5332034230232239 0.01577157713472843 0.6514644026756287
0.5373475551605225 0.01707647182047367 0.6499417424201965
0.5381501317024231 0.016808953136205673 0.6499417424201965
0.5402401089668274 0.01746535673737526 0.6491754055023193
0.54314786195755 0.017857402563095093 0.6484041810035706
0.5452613830566406 0.018519731238484383 0.6476293802261353
0.5486615300178528 0.022218039259314537 0.6448914408683777
0.5494775772094727 0.0219460166990757 0.6448914408683777
0.40255114436149597 0.03987744450569153 0.6615381240844727
0.4040847420692444 0.039311688393354416 0.6615691781044006
0.4063257575035095 0.037958648055791855 0.6619131565093994
0.4077185392379761 0.03622841089963913 0.6626330018043518
0.41966497898101807 0.029928840696811676 0.663950502872467
0.4204471707344055 0.029803138226270676 0.663874089717865
0.4227764904499054 0.029297053813934326 0.6637205481529236
0.424344003200531 0.029045158997178078 0.6635664701461792
0.426668643951416 0.02847990393638611 0.6634472012519836
0.4321598708629608 0.032258305698633194 0.6602583527565002
0.4386890232563019 0.027632616460323334 0.6616510152816772
0.44025805592536926 0.02728024683892727 0.6615537405014038
0.44270777702331543 0.027235478162765503 0.6611155271530151
0.4486050009727478 0.027870485559105873 0.659636378288269
0.449521541595459 0.02829287387430668 0.6592229604721069
0.4502972662448883 0.028034262359142303 0.6592229604721069
0.45404052734375 0.029952483251690865 0.6574229598045349
0.45446741580963135 0.016865553334355354 0.6647822856903076
0.45665445923805237 0.01568641886115074 0.6650376915931702
0.4580783247947693 0.014762487262487411 0.6652935147285461
0.46025821566581726 0.01358694676309824 0.6655486822128296
0.4623839557170868 0.012206822633743286 0.6659305691719055
0.46314188838005066 0.011954177170991898 0.6659305691719055
0.46813660860061646 0.008979170583188534 0.6666752696037292
0.46792352199554443 0.001865737373009324 0.6707595586776733
0.4686685800552368 0.0016173867043107748 0.6707595586776733
0.4713335633277893 0.002475574379786849 0.6697671413421631
0.47656986117362976 0.003669031197205186 0.6680961847305298
0.47822704911231995 0.003708485048264265 0.6677597165107727
0.4844614863395691 0.005213079042732716 0.6657228469848633
0.48786136507987976 0.008191391825675964 0.6633855104446411
0.4898677170276642 0.012037898413836956 0.6608185768127441
0.4914313852787018 0.01438210066407919 0.659188985824585
0.49428829550743103 0.0180991031229496 0.6565346717834473
0.4976353645324707 0.026106595993041992 0.6513477563858032
0.5005162358283997 0.03252231329679489 0.6471545696258545
0.5022742748260498 0.03528011590242386 0.6452538371086121
0.5042887330055237 0.03596070781350136 0.6444848775863647
0.50629061460495 0.033773455768823624 0.6453486680984497
0.508233368396759 0.03145192563533783 0.6463004350662231
0.5093507766723633 0.029398106038570404 0.6472564339637756
0.5107132792472839 0.02810712717473507 0.6477322578430176
0.5112664699554443 0.027088765054941177 0.6482064127922058
0.5122932195663452 0.02484445460140705 0.6492878794670105
0.5127500295639038 0.02357165887951851 0.6499250531196594
0.5143726468086243 0.02054068259894848 0.6513407230377197
0.5146978497505188 0.018932634964585304 0.652193009853363
0.5148374438285828 0.016812365502119064 0.6533717513084412
0.5158488154411316 0.014683571644127369 0.6543904542922974
0.5163013935089111 0.01348405797034502 0.6549868583679199
0.518404483795166 0.011988666839897633 0.6554380059242249
0.5194020867347717 0.012303845956921577 0.6550705432891846
0.522409200668335 0.013254246674478054 0.6539599895477295
0.5242074131965637 0.013308970257639885 0.6535879373550415
0.5262322425842285 0.013947833329439163 0.6528412103652954
0.5349982976913452 0.015674056485295296 0.6501983404159546
0.5360344648361206 0.015999244526028633 0.6498169898986816
0.5420616269111633 0.01737043261528015 0.6478956341743469
0.54497891664505 0.017761629074811935 0.6471207141876221
0.552859902381897 0.027629662305116653 0.6400169134140015
0.40537697076797485 0.03736419975757599 0.6614879965782166
0.4059915244579315 0.03577733412384987 0.662276029586792
0.40675732493400574 0.035522062331438065 0.662276029586792
0.4073663651943207 0.033944252878427505 0.6630604863166809
0.40806064009666443 0.03311113640666008 0.6634036302566528
0.4103550314903259 0.03239692375063896 0.6633744835853577
0.41188696026802063 0.031936608254909515 0.6633460521697998
0.4126530885696411 0.03170669078826904 0.6633312106132507
0.414182186126709 0.0312222670763731 0.6633169054985046
0.416485995054245 0.030566418543457985 0.6632530093193054
0.41803061962127686 0.03018641658127308 0.6631758809089661
0.42578640580177307 0.03354334458708763 0.6597869396209717
0.42655885219573975 0.03328586369752884 0.6597869396209717
0.4281604290008545 0.033122844994068146 0.6595750451087952
0.43053725361824036 0.032695699483156204 0.6593668460845947
0.4321359395980835 0.03248455375432968 0.6591835618019104
0.43284177780151367 0.031828999519348145 0.6594231128692627
0.43430817127227783 0.03085535392165184 0.6596994400024414
0.43568888306617737 0.029419057071208954 0.6602566242218018
0.43704837560653687 0.02790144830942154 0.6608636975288391
0.44353199005126953 0.02751971036195755 0.659848690032959
0.4443855583667755 0.02767416276037693 0.659598171710968
0.44601425528526306 0.027570728212594986 0.6593473553657532
0.4478108584880829 0.028275158256292343 0.6586039662361145
0.4496448040008545 0.029117465019226074 0.6577752232551575
0.45042261481285095 0.02885819971561432 0.6577752232551575
0.4522920548915863 0.029812244698405266 0.656875729560852
0.4532823860645294 0.030530089512467384 0.6562777161598206
0.4542902410030365 0.031312618404626846 0.6556400656700134
0.45626336336135864 0.032635338604450226 0.6545104384422302
0.45391491055488586 0.018247541040182114 0.6631629467010498
0.4546312689781189 0.017782174050807953 0.663292407989502
0.45610949397087097 0.017062958329916 0.6634213328361511
0.4582514762878418 0.0156714990735054 0.6638078689575195
0.46043750643730164 0.01449190080165863 0.6640654802322388
0.46403768658638 0.012392938137054443 0.6645781397819519
0.4647481143474579 0.01194115448743105 0.6647006273269653
0.4661853611469269 0.011111448518931866 0.6649007201194763
0.46837863326072693 0.010030263103544712 0.6651001572608948
0.4690953195095062 0.009616645984351635 0.6651999354362488
0.469347208738327 0.0012141003971919417 0.6699445247650146
0.4702349007129669 0.0014991883654147387 0.6696135997772217
0.47276392579078674 0.0018219089834019542 0.6689481735229492
0.4754544496536255 0.0026845624670386314 0.667944610118866
0.4763553738594055 0.0029733090195804834 0.6676085591316223
0.48073673248291016 0.003884129924699664 0.6662564873695374
0.4824056327342987 0.00392466364428401 0.6659155488014221
0.48332178592681885 0.004217642359435558 0.6655746698379517
0.48748576641082764 0.006984048057347536 0.6632050275802612
0.48996102809906006 0.012385282665491104 0.65965336561203
0.49357870221138 0.018633360043168068 0.6554021835327148
0.49436280131340027 0.01837198995053768 0.6554021835327148
0.4970044791698456 0.02410184219479561 0.6516317129135132
0.49974313378334045 0.030070515349507332 0.6477065086364746
0.5015205144882202 0.0329035259783268 0.6457527279853821
0.5035825967788696 0.03375738114118576 0.6448736786842346
0.5044366121292114 0.03361817076802254 0.644790768623352
0.5055689215660095 0.031552352011203766 0.6457533836364746
0.5061323046684265 0.030524104833602905 0.6462327837944031
0.5075011849403381 0.02923015132546425 0.6467106938362122
0.5086167454719543 0.027191048488020897 0.6476617455482483
0.5091623663902283 0.02614755555987358 0.6481534242630005
0.5099657773971558 0.0258797537535429 0.6481534242630005
0.5104278326034546 0.024602772668004036 0.6487936973571777
0.5108882188796997 0.023331504315137863 0.6494314074516296
0.5113067626953125 0.021948764100670815 0.6501402854919434
0.512437105178833 0.020068606361746788 0.6509979963302612
0.5127378702163696 0.018378712236881256 0.6519047021865845
0.5126093029975891 0.015475255437195301 0.6535851955413818
0.5123295783996582 0.012169137597084045 0.6555241942405701
0.5126263499259949 0.010529173538088799 0.6564030647277832
0.5143934488296509 0.01058006752282381 0.6560384035110474
0.515381395816803 0.010892077349126339 0.6556724905967712
0.5163716673851013 0.01120499987155199 0.6553056240081787
0.5201449990272522 0.011885755695402622 0.6541996002197266
0.5211466550827026 0.012201360426843166 0.6538293957710266
0.5269845724105835 0.01352742686867714 0.651963472366333
0.5287962555885315 0.013582729734480381 0.6515873074531555
0.5347266793251038 0.014926517382264137 0.6496933102607727
0.538641631603241 0.015633217990398407 0.6485456228256226
0.5407328605651855 0.01628733240067959 0.6477751135826111
0.5468166470527649 0.017666233703494072 0.6458317041397095
0.5508434772491455 0.02279461733996868 0.6421409845352173
0.4023204445838928 0.039332229644060135 0.659999430179596
0.40503352880477905 0.03507250174880028 0.661919891834259
0.4056776165962219 0.03376886248588562 0.662542998790741
0.4210917055606842 0.02968943864107132 0.6619369983673096
0.4226408898830414 0.029308516532182693 0.6618598699569702
0.4319540560245514 0.031781550496816635 0.6586682200431824
0.43480822443962097 0.02939392812550068 0.6594901084899902
0.4370070993900299 0.027990063652396202 0.6598737239837646
0.43860137462615967 0.027766883373260498 0.6596975922584534
0.44025254249572754 0.027833661064505577 0.6593441367149353
0.44443970918655396 0.028210904449224472 0.658329427242279
0.44533511996269226 0.02855978161096573 0.6579591035842896
0.44611039757728577 0.028301309794187546 0.6579591035842896
0.4515318274497986 0.030389025807380676 0.6557305455207825
0.4525219202041626 0.031109238043427467 0.6551293134689331
0.45363757014274597 0.03239631652832031 0.6541799306869507
0.45479926466941833 0.03387177735567093 0.6531141996383667
0.45479586720466614 0.018703754991292953 0.6617947816848755
0.45627814531326294 0.017982127144932747 0.6619247198104858
0.45842596888542175 0.01658569648861885 0.6623143553733826
0.46061766147613525 0.015401996672153473 0.6625736355781555
0.4620521366596222 0.014512344263494015 0.6628091931343079
0.4635373055934906 0.013840747997164726 0.6629103422164917
0.4642590284347534 0.013423486612737179 0.6630110740661621
0.4664222300052643 0.012173745781183243 0.6633139252662659
0.4671834111213684 0.011920013464987278 0.6633139252662659
0.4686223268508911 0.011088443920016289 0.6635150909423828
0.4700593054294586 0.01025791559368372 0.6637163162231445
0.4743431508541107 0.0017034424236044288 0.6677942276000977
0.48051872849464417 0.0031863474287092686 0.6657679677009583
0.48401835560798645 0.003809382440522313 0.6647437810897827
0.4910224378108978 0.013111472129821777 0.6580844521522522
0.4930904805660248 0.01707325503230095 0.6554231643676758
0.49637800455093384 0.02211061865091324 0.6519131660461426
0.49893248081207275 0.027499116957187653 0.6483423709869385
0.5007731318473816 0.030546527355909348 0.6462472081184387
0.5020160675048828 0.031660038977861404 0.6453729271888733
0.504847526550293 0.029331494122743607 0.6461657881736755
0.5067744851112366 0.027024995535612106 0.6471177935600281
0.5072969794273376 0.025904076173901558 0.6476596593856812
0.5077646374702454 0.024628371000289917 0.6483006477355957
0.508210301399231 0.023298732936382294 0.6489763259887695
0.5093721747398376 0.021474260836839676 0.649798572063446
0.5096811056137085 0.019771989434957504 0.6507141590118408
0.5098720192909241 0.017741158604621887 0.6518397927284241
0.5096089839935303 0.014408719725906849 0.6537970900535583
0.5103954672813416 0.014146564528346062 0.6537970900535583
0.5094417333602905 0.008876144886016846 0.6569951176643372
0.5104179382324219 0.009184272028505802 0.6566324234008789
0.5123775005340576 0.009802955202758312 0.6559044122695923
0.5141428112983704 0.009852767921984196 0.6555389761924744
0.519888699054718 0.011152946390211582 0.6536993384361267
0.5208889842033386 0.011467392556369305 0.6533284187316895
0.5226806402206421 0.011519870720803738 0.6529569625854492
0.525706946849823 0.012469476088881493 0.6518359184265137
0.5305731892585754 0.013480695895850658 0.6503291130065918
0.5315983295440674 0.013801383785903454 0.6499499082565308
0.5323948860168457 0.013535823673009872 0.6499499082565308
0.5394093990325928 0.015208927914500237 0.6476543545722961
0.5404553413391113 0.01553498487919569 0.647268533706665
0.542308509349823 0.015594306401908398 0.6468809843063354
0.5454723238945007 0.016578085720539093 0.6457147002220154
0.548886775970459 0.018102288246154785 0.6441909074783325
0.4014403223991394 0.03936898708343506 0.659198522567749
0.40206995606422424 0.03779280558228493 0.6599831581115723
0.4034595191478729 0.03594857081770897 0.6607759594917297
0.40480050444602966 0.033749017864465714 0.6617825031280518
0.406329870223999 0.033264145255088806 0.6617678999900818
0.4086291491985321 0.03257370740175247 0.6617245078086853
0.410159170627594 0.032088976353406906 0.6617096066474915
0.41092583537101746 0.03185887634754181 0.6616951823234558
0.4124593436717987 0.03139805793762207 0.6616665720939636
0.41477683186531067 0.030830906704068184 0.661548376083374
0.4163404107093811 0.03057977184653282 0.6613931059837341
0.418670654296875 0.030073432251811028 0.6612380146980286
0.4194542169570923 0.029947634786367416 0.6611607074737549
0.42327362298965454 0.03394177183508873 0.6581365466117859
0.4248891770839691 0.03387610986828804 0.6578648686408997
0.42647814750671387 0.03362313657999039 0.6577057838439941
0.42811158299446106 0.03363294526934624 0.6573874950408936
0.43034881353378296 0.03233163431286812 0.6577066779136658
0.4310609698295593 0.031705137342214584 0.6579300761222839
0.433154821395874 0.029621515423059464 0.6587255001068115
0.4361611306667328 0.028151609003543854 0.6589940786361694
0.439415842294693 0.028041750192642212 0.658434271812439
0.44026586413383484 0.028196651488542557 0.6581825017929077
0.44111761450767517 0.02835197187960148 0.6579306125640869
0.44274643063545227 0.028257474303245544 0.657673180103302
0.44805848598480225 0.029971277341246605 0.655672550201416
0.44899672269821167 0.03048103302717209 0.6552004218101501
0.4518031179904938 0.031896453350782394 0.653850793838501
0.4529593884944916 0.03338096663355827 0.6527771353721619
0.4545542299747467 0.03687915578484535 0.6504637598991394
0.45644786953926086 0.01890641637146473 0.6604198217391968
0.45860612392425537 0.017525458708405495 0.6607996821403503
0.4600992798805237 0.016849739477038383 0.6609020233154297
0.46227723360061646 0.015590103343129158 0.6612082123756409
0.4644911289215088 0.014497081749141216 0.661412239074707
0.4659561216831207 0.013732579536736012 0.6615707278251648
0.466690331697464 0.013360075652599335 0.6616440415382385
0.46818771958351135 0.01273350603878498 0.6617171764373779
0.46965399384498596 0.011989844962954521 0.6618634462356567
0.47038689255714417 0.01161844003945589 0.6619362831115723
0.46893310546875 -0.00016002131451386958 0.6689765453338623
0.47159650921821594 0.000690782384481281 0.6679788827896118
0.4723435044288635 0.00044178395182825625 0.6679788827896118
0.47667840123176575 0.0013347904896363616 0.66663658618927
0.4784852862358093 0.0019104040693491697 0.6659602522850037
0.4793921709060669 0.0021995059214532375 0.6656206250190735
0.48471599817276 0.0034004654735326767 0.6639121770858765
0.4863952398300171 0.0034397572744637728 0.6635683178901672
0.48788854479789734 0.005614644382148981 0.6620338559150696
0.49055367708206177 0.011608587577939034 0.6580828428268433
0.4926370084285736 0.015627983957529068 0.6553763151168823
0.49587494134902954 0.02051723562180996 0.6519492864608765
0.4980458617210388 0.024684153497219086 0.6491419672966003
0.5000001192092896 0.028107115998864174 0.646802544593811
0.5012675523757935 0.029310865327715874 0.6458688974380493
0.5020731091499329 0.02904234640300274 0.6458688974380493
0.5035681128501892 0.028143832460045815 0.6460989117622375
0.5041313171386719 0.027127359062433243 0.6465747356414795
0.5046327710151672 0.025928808376193047 0.647166907787323
0.5062975883483887 0.022884191945195198 0.6485958695411682
0.5066145658493042 0.02116958610713482 0.6495200991630554
0.5069044828414917 0.019390512257814407 0.6504857540130615
0.5045459270477295 0.007191195152699947 0.6579411625862122
0.5064776539802551 0.007800568360835314 0.6572213768959045
0.5074469447135925 0.008106517605483532 0.6568601131439209
0.5082233548164368 0.007847702130675316 0.6568601131439209
0.5111491084098816 0.008768866769969463 0.6557714343070984
0.5168577432632446 0.010058090090751648 0.6539391279220581
0.5176419019699097 0.009796695783734322 0.6539391279220581
0.5244349241256714 0.011416051536798477 0.6517090797424316
0.527249813079834 0.011784502305090427 0.6509591341018677
0.5341843366622925 0.01343454234302044 0.6486846208572388
0.5362524390220642 0.014078290201723576 0.6479189991950989
0.5370525121688843 0.013811581768095493 0.6479189991950989
0.5430803894996643 0.015168261714279652 0.6459868550300598
0.5441333651542664 0.015494097955524921 0.6455977559089661
0.5470571517944336 0.015881313011050224 0.6448166966438293
0.5481199026107788 0.016210781410336494 0.6444234251976013
0.4011135995388031 0.037083253264427185 0.659628689289093
0.4017390310764313 0.03549863398075104 0.6604213118553162
0.4039333462715149 0.03382574021816254 0.660963237285614
0.4208415448665619 0.03443298861384392 0.6573673486709595
0.42241641879081726 0.03410746157169342 0.6572527289390564
0.4240383803844452 0.034081727266311646 0.656956136226654
0.429394394159317 0.03188648819923401 0.6571921706199646
0.4322732985019684 0.02959839068353176 0.6579572558403015
0.43613797426223755 0.028347069397568703 0.6579360365867615
0.4385925531387329 0.028329355642199516 0.6574749946594238
0.44373488426208496 0.02936551161110401 0.6558908224105835
0.4446427822113037 0.029768558219075203 0.6554844379425049
0.4455598294734955 0.03020753525197506 0.6550552845001221
0.4463390111923218 0.02994789183139801 0.6550552845001221
0.44726017117500305 0.030387500301003456 0.6546254754066467
0.4492301344871521 0.03185408562421799 0.6534024477005005
0.4503379166126251 0.03315332904458046 0.6524412631988525
0.4524290859699249 0.035085923969745636 0.650926411151886
0.4559025764465332 0.020328927785158157 0.6587598919868469
0.45667213201522827 0.020072413608431816 0.6587598919868469
0.457410603761673 0.01968090422451496 0.6588431000709534
0.4581490457057953 0.019289633259177208 0.6589271426200867
0.4603927731513977 0.018251121044158936 0.6590943932533264
0.46112993359565735 0.017862951382994652 0.6591766476631165
0.4626091420650482 0.01711193472146988 0.6593246459960938
0.46411609649658203 0.01648089848458767 0.6593987345695496
0.4655929207801819 0.015731170773506165 0.6595473885536194
0.46633055806159973 0.015356726013123989 0.6596214175224304
0.4685717225074768 0.014352508820593357 0.6597694754600525
0.46930816769599915 0.013978702016174793 0.659843385219574
0.4700443744659424 0.013605093583464622 0.6599175333976746
0.4722813665866852 0.012602925300598145 0.6600653529167175
0.47049814462661743 -0.0002813106111716479 0.6678285598754883
0.4721335172653198 -0.0002468758320901543 0.6674947142601013
0.47736597061157227 0.0009290449088439345 0.6658126711845398
0.48008352518081665 0.001792063470929861 0.6647941470146179
0.48357656598091125 0.002408658852800727 0.6637682914733887
0.4880199134349823 0.0033226017840206623 0.6623886823654175
0.49192190170288086 0.01332671195268631 0.6558775305747986
0.4926990568637848 0.013067657127976418 0.6558775305747986
0.49503380060195923 0.017833717167377472 0.6526834964752197
0.49716806411743164 0.021896012127399445 0.6499344110488892
0.4990614354610443 0.02513997070491314 0.6477019786834717
0.5004915595054626 0.026874689385294914 0.6464278101921082
0.5022943615913391 0.0269615575671196 0.6460321545600891
0.5027563571929932 0.025631709024310112 0.6467095017433167
0.4979863166809082 0.005482793319970369 0.6592309474945068
0.498754620552063 0.005226693116128445 0.6592309474945068
0.5006588101387024 0.005826952867209911 0.6585193872451782
0.5016143321990967 0.006127982400357723 0.6581629514694214
0.5025723576545715 0.006430021952837706 0.6578049063682556
0.509925127029419 0.007738851476460695 0.6556391716003418
0.5156149864196777 0.009019390679895878 0.6538089513778687
