ply
format ascii 1.0
element vertex 808
property float x
property float y
property float z
end_header
0.6315268278121948 -0.018260154873132706 0.6817254424095154
0.6387553811073303 -0.014508113265037537 0.6785807013511658
0.6428284645080566 -0.012730610556900501 0.6769801378250122
0.5899646878242493 0.01756283827126026 0.6695429682731628
0.5892967581748962 0.014425145462155342 0.6712644696235657
0.5891281366348267 0.012275815941393375 0.6723940372467041
0.589759111404419 0.009877778589725494 0.6735144853591919
0.594019889831543 0.005539251025766134 0.6750090718269348
0.5960925817489624 0.0041753086261451244 0.6753541231155396
0.5927006602287292 -0.003782821586355567 0.6800090074539185
0.5934441089630127 -0.00410826550796628 0.6800491213798523
0.594184160232544 -0.004439782351255417 0.680092453956604
0.5962993502616882 -0.003950650803744793 0.6794809699058533
0.5991603136062622 -0.00213630311191082 0.6780630350112915
0.602696418762207 -0.0008221808238886297 0.6767861247062683
0.6056715250015259 -0.007072330918163061 0.6794795989990234
0.6059582829475403 -0.008185755461454391 0.6800007224082947
0.6073116660118103 -0.010647132992744446 0.6810305118560791
0.6079853773117065 -0.012655320577323437 0.6819444894790649
0.6087591052055359 -0.012913268059492111 0.6819444894790649
0.6102089881896973 -0.016685180366039276 0.6836287975311279
0.6143310070037842 -0.022021781653165817 0.6856579780578613
0.6207581162452698 -0.025002675130963326 0.6860877275466919
0.6222941875457764 -0.024045662954449654 0.6853355765342712
0.6253921389579773 -0.022115672007203102 0.6838178038597107
0.6261606216430664 -0.022371817380189896 0.6838178038597107
0.6277254223823547 -0.021398983895778656 0.6830525994300842
0.6324734687805176 -0.018447518348693848 0.6807297468185425
0.6348540782928467 -0.01771220751106739 0.6799464821815491
0.6364672183990479 -0.016711590811610222 0.6791588664054871
0.6397208571434021 -0.014693524688482285 0.6775699257850647
0.6405073404312134 -0.014955681748688221 0.6775699257850647
0.5884661674499512 0.012673266232013702 0.6713423132896423
0.5883015990257263 0.010537545196712017 0.6724681258201599
0.590087890625 0.008571767248213291 0.6731724143028259
0.5913739204406738 0.007456285413354635 0.6735260486602783
0.592170000076294 0.0071909381076693535 0.6735260486602783
0.592038094997406 -0.0034559413325041533 0.6790204048156738
0.5923337936401367 -0.004606351256370544 0.679561197757721
0.5945701003074646 -0.005566112697124481 0.6796712279319763
0.5971869826316833 -0.004172868560999632 0.6785070896148682
0.5986170172691345 -0.0032680511940270662 0.6777965426445007
0.6000540256500244 -0.0023598484694957733 0.6770836710929871
0.6036270260810852 -0.0026493510231375694 0.6766207814216614
0.6046817898750305 -0.004083413165062666 0.6771767735481262
0.6056714057922363 -0.00884511973708868 0.6794551014900208
0.6064502596855164 -0.009104777127504349 0.6794551014900208
0.6067377924919128 -0.01020591240376234 0.6799711585044861
0.6089229583740234 -0.014365210197865963 0.6817346215248108
0.6096636652946472 -0.016223693266510963 0.6825631260871887
0.6112761497497559 -0.018146472051739693 0.6832753419876099
0.6121183037757874 -0.019796855747699738 0.6839787364006042
0.6164563894271851 -0.024695640429854393 0.6857540607452393
0.6185517907142639 -0.02575153112411499 0.685937225818634
0.6193121075630188 -0.026004966348409653 0.685937225818634
0.6201445460319519 -0.026145268231630325 0.6858671307563782
0.6216762661933899 -0.025193119421601295 0.6851150393486023
0.6302388906478882 -0.020609671249985695 0.6812924742698669
0.634200394153595 -0.018894530832767487 0.6797319650650024
0.6398372650146484 -0.016153523698449135 0.6773573756217957
0.5877004861831665 0.018422406166791916 0.6675466895103455
0.5885116457939148 0.018152033910155296 0.6675466895103455
0.5879663825035095 0.015229694545269012 0.669147789478302
0.5878027677536011 0.013072049245238304 0.6702885627746582
0.587640643119812 0.010932003147900105 0.6714200973510742
0.5880908966064453 0.009989704005420208 0.6718286871910095
0.5940941572189331 0.005380823276937008 0.6731739044189453
0.5906663537025452 -0.002731933956965804 0.6779470443725586
0.591745138168335 -0.004144800826907158 0.678490400314331
0.5934005379676819 -0.0061711412854492664 0.6792508959770203
0.5941780805587769 -0.006430310197174549 0.6792508959770203
0.5980756282806396 -0.0043963161297142506 0.6775314807891846
0.6034790873527527 -0.0047157383523881435 0.6767677664756775
0.6045084595680237 -0.0061799995601177216 0.6773456931114197
0.6095410585403442 -0.01659747026860714 0.6818534135818481
0.6120314598083496 -0.020111365243792534 0.6832373738288879
0.6159331798553467 -0.02423710562288761 0.684694766998291
0.6175168752670288 -0.026110900565981865 0.6853887438774109
0.6241400837898254 -0.024426404386758804 0.6833810210227966
0.6280253529548645 -0.02275111898779869 0.6818497180938721
0.6295984983444214 -0.021777713671326637 0.6810770630836487
0.6335489749908447 -0.02007250115275383 0.6795181632041931
0.636764645576477 -0.018087131902575493 0.6779415011405945
0.6408032774925232 -0.01634068228304386 0.6763461232185364
0.5871378183364868 0.013471458107233047 0.6692320704460144
0.5902329087257385 0.00856150221079588 0.6712391972541809
0.5915247797966003 0.007451746612787247 0.6715909838676453
0.5923221707344055 0.007185944356024265 0.6715909838676453
0.5934664607048035 0.005810981150716543 0.6721051335334778
0.5914526581764221 -0.0048328605480492115 0.6779605746269226
0.596113920211792 -0.006415745709091425 0.6779761910438538
0.5975357890129089 -0.005520841106772423 0.6772674918174744
0.6011373996734619 -0.004067576490342617 0.6758939027786255
0.6021237969398499 -0.003973330371081829 0.6756753325462341
0.6027447581291199 -0.004525456577539444 0.6758537888526917
0.6048064231872559 -0.009059958159923553 0.6778449416160583
0.6051444411277771 -0.010080892592668533 0.6783148050308228
0.6066606640815735 -0.012254423461854458 0.6791779398918152
0.6073980331420898 -0.014150073751807213 0.6800323724746704
0.6106147766113281 -0.01805368810892105 0.6814970374107361
0.6119774580001831 -0.020371416583657265 0.6824615597724915
0.6136970520019531 -0.022077852860093117 0.6830480694770813
0.6141716241836548 -0.022801218554377556 0.6833407282829285
0.6151466965675354 -0.024197859689593315 0.6838954091072083
0.6219777464866638 -0.026528222486376762 0.6839229464530945
0.6235173344612122 -0.025575676932930946 0.6831642389297485
0.6273916363716125 -0.02391015738248825 0.6816341280937195
0.6313111186027527 -0.02222529985010624 0.6800861358642578
0.6344980001449585 -0.02026182971894741 0.6785199046134949
0.638504683971405 -0.01853601634502411 0.6769356727600098
0.5862411260604858 0.019014697521924973 0.6655425429344177
0.5858216285705566 0.01630725897848606 0.6670214533805847
0.5856664180755615 0.014140288345515728 0.6681734919548035
0.5863786935806274 0.011849332600831985 0.6692401170730591
0.5882113575935364 0.009940190240740776 0.669914186000824
0.5894789099693298 -0.0017997040413320065 0.6757907867431641
0.5897812843322754 -0.0029577245004475117 0.676339864730835
0.5914576649665833 -0.006663553416728973 0.6779745817184448
0.5919020771980286 -0.00753049599006772 0.6783474683761597
0.5934238433837891 -0.008103069849312305 0.678381621837616
0.5941715240478516 -0.008412521332502365 0.6784127950668335
0.5955796241760254 -0.007531634997576475 0.6777117252349854
0.599206268787384 -0.006005777977406979 0.6762915849685669
0.6028552651405334 -0.006132977548986673 0.6757261753082275
0.6039336323738098 -0.007506490685045719 0.676252543926239
0.604947030544281 -0.010585153475403786 0.6776758432388306
0.6072459816932678 -0.0145742641761899 0.6793497800827026
0.6080189943313599 -0.014831983484327793 0.6793497800827026
0.6097294092178345 -0.01816079206764698 0.6807824373245239
0.6119235754013062 -0.02063174359500408 0.6816853284835815
0.6124016642570496 -0.021358242258429527 0.6819798350334167
0.6164533495903015 -0.025229351595044136 0.6832888722419739
0.6175073981285095 -0.026480646803975105 0.6837559938430786
0.6180663108825684 -0.02705284394323826 0.6839569807052612
0.6228969097137451 -0.026720423251390457 0.6829478740692139
0.6252057552337646 -0.02602231875061989 0.6821855902671814
0.626760721206665 -0.025064604356884956 0.6814189553260803
0.6283248662948608 -0.024101149290800095 0.6806480884552002
0.6298975944519043 -0.023132391273975372 0.6798731684684753
0.6306692361831665 -0.023389611393213272 0.6798731684684753
0.6322532892227173 -0.02241586707532406 0.6790931820869446
0.6354495286941528 -0.020451435819268227 0.6775198578834534
0.6394655704498291 -0.01872488111257553 0.6759277582168579
0.6410987973213196 -0.0177230853587389 0.6751246452331543
0.5854218602180481 0.02294614166021347 0.6626590490341187
0.5862405300140381 0.022673243656754494 0.6626590490341187
0.5855097770690918 0.019312677904963493 0.6645371317863464
0.5851497650146484 0.016712790355086327 0.66595458984375
0.5849974751472473 0.014541835524141788 0.6671121120452881
0.5849723219871521 0.012637057341635227 0.6681094169616699
0.5903822183609009 0.008558850735425949 0.6692944169044495
0.5914088487625122 0.006940997205674648 0.6699593663215637
0.592206597328186 0.006675032898783684 0.6699593663215637
0.5891866087913513 -0.002492564031854272 0.6752609014511108
0.5897907018661499 -0.004799773450940847 0.6763584613800049
0.5915716290473938 -0.008284732699394226 0.6778649687767029
0.5923169255256653 -0.008597910404205322 0.6778990030288696
0.5950475931167603 -0.008643721230328083 0.6774484515190125
0.600095808506012 -0.006233035586774349 0.675315260887146
0.6036465167999268 -0.008168831467628479 0.6757072806358337
0.6059032082557678 -0.012294949032366276 0.6774657964706421
0.6062738299369812 -0.013245084322988987 0.6778958439826965
0.6083274483680725 -0.01603863388299942 0.6789954304695129
0.6135963201522827 -0.022588731721043587 0.6814932227134705
0.6141162514686584 -0.02323979139328003 0.6817423105239868
0.623063862323761 -0.028078250586986542 0.6827092170715332
0.6245817542076111 -0.02716769464313984 0.68197101354599
0.6261319518089294 -0.026214992627501488 0.681205153465271
0.6292595863342285 -0.024292783811688423 0.6796603798866272
0.6300297379493713 -0.024549534544348717 0.6796603798866272
0.6364026069641113 -0.020641431212425232 0.6765173077583313
0.6404287219047546 -0.01891402341425419 0.6749175190925598
0.5846839547157288 0.023248646408319473 0.6616442203521729
0.5839633345603943 0.019882576540112495 0.6635297536849976
0.584777295589447 0.019611213356256485 0.6635297536849976
0.5843663811683655 0.013158902525901794 0.6669754981994629
0.5864123106002808 0.011637923307716846 0.6674140095710754
0.5883575081825256 0.009940048679709435 0.6679630279541016
0.5871918201446533 0.0005673291743732989 0.6730668544769287
0.5875002145767212 -0.000600721687078476 0.6736239790916443
0.5882856249809265 -0.0008625222253613174 0.6736239790916443
0.5891977548599243 -0.004338020924478769 0.6752816438674927
0.5902786254882812 -0.005746668670326471 0.6758304834365845
0.5973464846611023 -0.007984175346791744 0.6757686138153076
0.5981258153915405 -0.008243944495916367 0.6757686138153076
0.5995535850524902 -0.007353723980486393 0.6750543713569641
0.604185163974762 -0.010624133050441742 0.6759567260742188
0.6065731048583984 -0.014478089287877083 0.6775557398796082
0.6096045970916748 -0.01870725117623806 0.6792384386062622
0.6103740334510803 -0.018963733687996864 0.6792384386062622
0.6113377213478088 -0.020422369241714478 0.6798335313796997
0.6146628856658936 -0.024020232260227203 0.6811354756355286
0.6164882779121399 -0.02552754245698452 0.6816048622131348
0.6170654892921448 -0.02607623301446438 0.6817914247512817
0.6202977895736694 -0.02824910171329975 0.6823641657829285
0.6239591240882874 -0.02830991894006729 0.6817575097084045
0.6325509548187256 -0.023772893473505974 0.6778877377510071
0.6341439485549927 -0.02279808185994625 0.6771002411842346
0.6365241408348083 -0.02207713946700096 0.6763091683387756
0.638137936592102 -0.021091582253575325 0.6755124926567078
0.5839442014694214 0.02355169504880905 0.6606277227401733
0.5832284688949585 0.020181896165013313 0.6625206470489502
0.5829910039901733 0.017797641456127167 0.6638135313987732
0.5836552381515503 0.015348562970757484 0.6649820804595947
0.5837587714195251 0.013682220131158829 0.665838360786438
0.5865898132324219 0.0010407131630927324 0.6719755530357361
0.5882987976074219 -0.0027189154643565416 0.6736495494842529
0.5892635583877563 -0.006072029937058687 0.6752398610115051
0.590042233467102 -0.006331488490104675 0.6752398610115051
0.5916565656661987 -0.01010175421833992 0.6769359111785889
0.5924305319786072 -0.010359746403992176 0.6769359111785889
0.596809983253479 -0.009098414331674576 0.6755080223083496
0.6013189554214478 -0.0076772612519562244 0.6739738583564758
0.6019837260246277 -0.008144187740981579 0.6741025447845459
0.6036154627799988 -0.010164358653128147 0.6748771071434021
0.6043742895126343 -0.01206316240131855 0.6757408380508423
0.6080954074859619 -0.016764216125011444 0.6775563955307007
0.6123130917549133 -0.022021165117621422 0.6795768141746521
0.6183270215988159 -0.02717742510139942 0.6812304854393005
0.6202600002288818 -0.02848847582936287 0.6815803647041321
0.6248804926872253 -0.028504135087132454 0.6807801127433777
0.6279903650283813 -0.026601040735840797 0.6792382001876831
0.6287578344345093 -0.026856856420636177 0.6792382001876831
0.6319066286087036 -0.024934684857726097 0.6776787042617798
0.6374776363372803 -0.022268706932663918 0.6753062009811401
0.5832033753395081 0.023855315521359444 0.6596091985702515
0.5824921131134033 0.020481176674365997 0.6615101099014282
0.5829818844795227 0.01575346291065216 0.6639135479927063
0.5844430327415466 0.013038701377809048 0.6650863289833069
0.5865458250045776 0.011621495708823204 0.6654630899429321
0.5859864950180054 0.001515223877504468 0.6708816885948181
0.5877012610435486 -0.0022521158680319786 0.6725645065307617
0.5883120894432068 -0.004565217066556215 0.6736748218536377
0.5905548334121704 -0.008916995488107204 0.6755726337432861
0.594864547252655 -0.011086872778832912 0.6759584546089172
0.596275806427002 -0.010207924991846085 0.6752481460571289
0.5999011993408203 -0.00869762897491455 0.6738168597221375
0.6009999513626099 -0.008398209698498249 0.6734659671783447
0.6025260090827942 -0.008985175751149654 0.673507571220398
0.6059032082557678 -0.014373824931681156 0.675751805305481
0.6067798137664795 -0.01602979563176632 0.6764700412750244
0.6090134978294373 -0.01849244348704815 0.6773743629455566
0.610270619392395 -0.01947631500661373 0.6776716709136963
0.610755980014801 -0.020201947540044785 0.6779685020446777
0.614163875579834 -0.02368670143187046 0.679205060005188
0.6147032976150513 -0.02430575340986252 0.679436445236206
0.616058886051178 -0.02509371004998684 0.6796132326126099
0.61723792552948 -0.026157867163419724 0.6799665689468384
0.6258485913276672 -0.028630893677473068 0.6797574758529663
0.6281252503395081 -0.02800416573882103 0.6790282726287842
0.6312649250030518 -0.026091845706105232 0.6774702072143555
0.6328482031822205 -0.02512754499912262 0.676684558391571
0.6344406604766846 -0.02415766939520836 0.6758943200111389
0.6392015814781189 -0.021321656182408333 0.6735658645629883
0.5816397666931152 0.024433841928839684 0.6585885286331177
0.5824614763259888 0.024159938097000122 0.6585885286331177
0.581775426864624 0.02082347311079502 0.6604714393615723
0.5816354155540466 0.01861635036766529 0.6616625785827637
0.581497073173523 0.016428479924798012 0.6628423929214478
0.5817729234695435 0.015087123028934002 0.6635026335716248
0.5838573575019836 0.013607531785964966 0.6639167666435242
0.584591269493103 0.002254106802865863 0.6697856783866882
0.5853813886642456 0.0019907271489501 0.6697856783866882
0.5860061645507812 -0.00035613938234746456 0.6709151864051819
0.5877217650413513 -0.004091605544090271 0.67258620262146
0.5884618163108826 -0.006147357635200024 0.673541784286499
0.5899736285209656 -0.008448085747659206 0.6744908094406128
0.5907073020935059 -0.010463301092386246 0.6754264235496521
0.5921618938446045 -0.011149916797876358 0.6755334734916687
0.6028019189834595 -0.010287826880812645 0.6732040047645569
0.6062345504760742 -0.015551705844700336 0.675380527973175
0.6067240238189697 -0.016291296109557152 0.6756850481033325
0.6123430132865906 -0.02231868915259838 0.6778795719146729
0.618527352809906 -0.027220148593187332 0.6793801784515381
0.6206024289131165 -0.028316650539636612 0.6795938014984131
0.6226741671562195 -0.029411422088742256 0.6798070669174194
0.6269087791442871 -0.0286206416785717 0.6786432862281799
0.632203996181488 -0.026285821571946144 0.67647784948349
0.6337916851043701 -0.02532106451690197 0.6756885051727295
0.636164665222168 -0.02460906095802784 0.6748947501182556
0.5808956027030945 0.024738837033510208 0.657566249370575
0.5802753567695618 0.021510882303118706 0.6593867540359497
0.5808194279670715 0.01683497615158558 0.6617693305015564
0.5845717191696167 0.013019704259932041 0.6631282567977905
0.586034893989563 0.012187158688902855 0.6633115410804749
0.5866902470588684 0.01162413228303194 0.6634940505027771
0.5839833617210388 0.0027315092738717794 0.6686856150627136
0.5857148766517639 -0.0010531989391893148 0.6703861951828003
0.5860258936882019 -0.0022172839380800724 0.6709482669830322
0.5875046849250793 -0.0046437326818704605 0.6719731688499451
0.5897573828697205 -0.008994819596409798 0.6738812923431396
0.59441077709198 -0.010558662004768848 0.6738881468772888
0.5988196730613708 -0.010924164205789566 0.673302412033081
0.6001770496368408 -0.010165427811443806 0.6726604104042053
0.6035774946212769 -0.012327337637543678 0.6732059121131897
0.6040167212486267 -0.013169955462217331 0.6735745668411255
0.6052317023277283 -0.014269140549004078 0.6739426851272583
0.6084257960319519 -0.018267907202243805 0.675498366355896
0.6142798066139221 -0.02385006472468376 0.677422285079956
0.6148725748062134 -0.02438485249876976 0.6776008009910583
0.6162305474281311 -0.025174027308821678 0.6777799129486084
0.6201189160346985 -0.027806930243968964 0.6784881353378296
0.6268359422683716 -0.028918350115418434 0.6778904795646667
0.6287347674369812 -0.028872298076748848 0.6775304675102234
0.6301611065864563 -0.028133779764175415 0.6768873929977417
0.6331453323364258 -0.026479963213205338 0.6754836440086365
0.5795899629592896 0.021927421912550926 0.6582993865013123
0.579458475112915 0.019710496068000793 0.6595016121864319
0.5802733898162842 0.0194388534873724 0.6595016121864319
0.5812305212020874 0.01562807895243168 0.6613585948944092
0.5826806426048279 0.014750649221241474 0.6615679860115051
0.5839841365814209 0.013587296940386295 0.6619558334350586
0.5833741426467896 0.003210330381989479 0.6675829291343689
0.5851112008094788 -0.0005824529216624796 0.6692920923233032
0.5857570767402649 -0.0028697510715574026 0.6703941226005554
0.5876588821411133 -0.006222972646355629 0.6718407273292542
0.5903792977333069 -0.00968625396490097 0.6732003688812256
0.5922139883041382 -0.009692125022411346 0.6728783249855042
0.5948210954666138 -0.009975031018257141 0.6725661158561707
0.5964789390563965 -0.011956327594816685 0.6733263731002808
0.5969187021255493 -0.012810654938220978 0.6737028956413269
0.5982813835144043 -0.012032121419906616 0.6730470061302185
0.6008570194244385 -0.010761357843875885 0.6719143390655518
0.602415919303894 -0.011283406056463718 0.6719159483909607
0.6061279773712158 -0.016065973788499832 0.6738016605377197
0.6102180480957031 -0.02007644809782505 0.6752089262008667
0.6175522208213806 -0.02619507908821106 0.6771634817123413
0.6182111501693726 -0.026618031784892082 0.6772711873054504
0.6202918887138367 -0.02771773934364319 0.6774870753288269
0.6209552884101868 -0.028130004182457924 0.6775887608528137
0.6224431395530701 -0.028702128678560257 0.677629292011261
0.6246939897537231 -0.02952910214662552 0.6776701211929321
0.6302324533462524 -0.02821565419435501 0.6759899258613586
0.6316565275192261 -0.027488641440868378 0.6753509640693665
0.6361427903175354 -0.025028981268405914 0.6732470989227295
0.5794034600257874 0.02535216510295868 0.6555149555206299
0.5789029598236084 0.022344492375850677 0.657209038734436
0.5786470174789429 0.017921483144164085 0.6596152186393738
0.5840540528297424 0.013590392656624317 0.66096431016922
0.5860142707824707 0.011869632638990879 0.6615342497825623
0.5834011435508728 0.001327144680544734 0.6676253080368042
0.5837178826332092 0.00015252224693540484 0.6681954264640808
0.585163414478302 -0.0023871653247624636 0.6692935228347778
0.5859153270721436 -0.0044571878388524055 0.6702644228935242
0.5907905697822571 -0.009082995355129242 0.6718662977218628
0.592629611492157 -0.009088035672903061 0.6715416312217712
0.5942496657371521 -0.00949612632393837 0.6714709401130676
0.5946919918060303 -0.010361695662140846 0.6718547940254211
0.5955771803855896 -0.012077433057129383 0.6726127862930298
0.6028235554695129 -0.012351356446743011 0.6714697480201721
0.6078358292579651 -0.01804259791970253 0.673615038394928
0.6083763241767883 -0.01868889480829239 0.6738637685775757
0.6118936538696289 -0.0220615454018116 0.6750381588935852
0.6124905943870544 -0.022599300369620323 0.6752191781997681
0.6144497990608215 -0.02392774447798729 0.6755794882774353
0.6150461435317993 -0.02445853129029274 0.6757565140724182
0.6164089441299438 -0.025244012475013733 0.6759334802627563
0.6288504600524902 -0.02907400391995907 0.675764262676239
0.6332935690879822 -0.02664143778383732 0.673675537109375
0.634066641330719 -0.02689916267991066 0.673675537109375
0.5778306126594543 0.025935126468539238 0.6544861197471619
0.5780884623527527 0.020537743344902992 0.6573304533958435
0.5779879093170166 0.018380995839834213 0.6585029363632202
0.5800411105155945 0.01678149774670601 0.6589933633804321
0.5813306570053101 0.015566392801702023 0.6594139337539673
0.58280348777771 0.014727764762938023 0.659600019454956
0.5841243863105774 0.013593501411378384 0.6599714159965515
0.58135586977005 0.004436070099473 0.6653690934181213
0.5821502804756165 0.004171275533735752 0.6653690934181213
0.5824717879295349 0.0029849475249648094 0.6659470796585083
0.5834276080131531 -0.0005462656263262033 0.6676672697067261
0.5842154026031494 -0.000808922341093421 0.6676672697067261
0.5856984257698059 -0.00500992126762867 0.6696516871452332
0.5864808559417725 -0.005270731169730425 0.6696516871452332
0.5877292156219482 -0.0080963633954525 0.6709424257278442
0.5885851383209229 -0.008212856017053127 0.6708521246910095
0.5954514145851135 -0.01245739497244358 0.671899139881134
0.5962275266647339 -0.012716114521026611 0.671899139881134
0.5972112417221069 -0.014235561713576317 0.6725372672080994
0.5986285209655762 -0.013364791870117188 0.6718178987503052
0.6000530123710632 -0.012489359825849533 0.6710948348045349
0.6037619709968567 -0.014101200737059116 0.671295702457428
0.6045398116111755 -0.014360346831381321 0.671295702457428
0.6094803810119629 -0.020106345415115356 0.673490583896637
0.6102519631385803 -0.02036358416080475 0.673490583896637
0.6178932785987854 -0.02601262927055359 0.6751517653465271
0.6185559034347534 -0.026432819664478302 0.6752582788467407
0.6200172305107117 -0.027057236060500145 0.6753318309783936
0.6222560405731201 -0.027918417006731033 0.67539381980896
0.6230031847953796 -0.028203085064888 0.6754127144813538
0.624616265296936 -0.02859114669263363 0.6753328442573547
0.6263666749000549 -0.02877098135650158 0.675116777420044
0.6319029331207275 -0.027500780299305916 0.6734482049942017
0.5770808458328247 0.026244008913636208 0.6534557938575745
0.5767031311988831 0.02345571294426918 0.6550211906433105
0.577401340007782 0.020953189581632614 0.6562409996986389
0.5773643255233765 0.01891780085861683 0.6573410034179688
0.5786303877830505 0.017631907016038895 0.6578047871589661
0.580493152141571 0.006269317120313644 0.6635759472846985
0.5810651183128357 0.0037295352667570114 0.6648381948471069
0.5825008749961853 0.00110101408790797 0.6659935712814331
0.5843507647514343 -0.002459488110616803 0.6675750613212585
0.5866377949714661 -0.006848688703030348 0.6695238947868347
0.5880734920501709 -0.007602668832987547 0.6696717143058777
0.5906959772109985 -0.007866562344133854 0.6693439483642578
0.5923203229904175 -0.008274261839687824 0.6692718267440796
0.5939947366714478 -0.010263370350003242 0.6700410842895508
0.5969807505607605 -0.014799622818827629 0.6719432473182678
0.5980921983718872 -0.014465888030827045 0.6715651750564575
0.6054808497428894 -0.016089271754026413 0.6711136698722839
0.6065388917922974 -0.017441321164369583 0.6716509461402893
0.6078609824180603 -0.01833871752023697 0.6718962788581848
0.6120613217353821 -0.022135227918624878 0.673183798789978
0.6140305995941162 -0.02345852740108967 0.6735422015190125
0.6153095364570618 -0.024389315396547318 0.6738130450248718
0.6167411804199219 -0.02507096342742443 0.6739234328269958
0.6180684566497803 -0.02591526135802269 0.6741389632225037
0.6259324550628662 -0.028191953897476196 0.6739540100097656
0.6269556879997253 -0.02806004136800766 0.6736997961997986
0.6280586123466492 -0.02780963107943535 0.6733675599098206
0.6288287043571472 -0.028066327795386314 0.6733675599098206
0.577008843421936 0.03001244366168976 0.6504360437393188
0.5760103464126587 0.023876173421740532 0.6539238095283508
0.575893759727478 0.021642498672008514 0.6551485657691956
0.576712429523468 0.02136959135532379 0.6551485657691956
0.5780299305915833 0.018213501200079918 0.6566131114959717
0.5801379680633545 0.016717221587896347 0.6570413708686829
0.581466794013977 0.015575935132801533 0.6574172377586365
0.5821301937103271 0.015006470493972301 0.6576054692268372
0.5797960162162781 0.006600644905120134 0.6625563502311707
0.5801234841346741 0.005403323099017143 0.6631431579589844
0.5818899273872375 0.0015770266763865948 0.664888322353363
0.5825839638710022 -0.0006687321001663804 0.6659743785858154
0.5845122933387756 -0.004051925614476204 0.6674516797065735
0.5852768421173096 -0.00609298050403595 0.6684143543243408
0.5911105871200562 -0.007255056872963905 0.6679927110671997
0.5938683748245239 -0.01064514834433794 0.6693246960639954
0.5943135023117065 -0.01150480005890131 0.669708251953125
0.5961477160453796 -0.01642509736120701 0.6720308661460876
0.6011766195297241 -0.014084570109844208 0.6698651313781738
0.6022295355796814 -0.013868122361600399 0.6695593595504761
0.6030325889587402 -0.01408600527793169 0.6695325970649719
0.6044183373451233 -0.014898588880896568 0.669721782207489
0.6084237694740295 -0.01911935769021511 0.6712778210639954
0.6095719337463379 -0.02029663696885109 0.6717056632041931
0.610344648361206 -0.02055421844124794 0.6717056632041931
0.6183043718338013 -0.025721153244376183 0.6730605363845825
0.6190531849861145 -0.02600960060954094 0.6730819344520569
0.6205707788467407 -0.026553906500339508 0.6731026768684387
0.6220954060554504 -0.027086829766631126 0.6731162667274475
0.6246184706687927 -0.02752235345542431 0.672897219657898
0.6265661716461182 -0.027410568669438362 0.6724868416786194
0.6289247274398804 -0.026683639734983444 0.6716713905334473
0.6313816905021667 -0.02582506276667118 0.6707673668861389
0.5754181742668152 0.030603911727666855 0.6493932008743286
0.5762507915496826 0.03032638318836689 0.6493932008743286
0.5755766034126282 0.026863038539886475 0.6513886451721191
0.5753159523010254 0.024297917261719704 0.6528230905532837
0.5752021074295044 0.022059891372919083 0.6540544033050537
0.5767779350280762 0.019412444904446602 0.6552016735076904
0.578076958656311 0.018182501196861267 0.655633270740509
0.5787252187728882 0.017569027841091156 0.6558484435081482
0.5783761739730835 0.007354897912591696 0.6614360809326172
0.5795047879219055 0.005888838786631823 0.6620256304740906
0.5801594853401184 0.003504041349515319 0.6631973385810852
0.5819826722145081 -0.0001806224463507533 0.6648619174957275
0.5827499032020569 -0.0022697604727 0.6658535003662109
0.5839168429374695 -0.0035706970375031233 0.6663467884063721
0.5853418111801147 -0.006114321760833263 0.6674659848213196
0.5861243605613708 -0.006375165656208992 0.6674659848213196
0.5888917446136475 -0.00637794379144907 0.6669682264328003
0.591616690158844 -0.008173693902790546 0.6674482226371765
0.592066764831543 -0.00904041901230812 0.6678360104560852
0.5946312546730042 -0.012742593884468079 0.6693757772445679
0.5945818424224854 -0.01772809773683548 0.6720813512802124
0.5956192016601562 -0.017513997852802277 0.6717790961265564
0.5970246195793152 -0.016656991094350815 0.671061635017395
0.5992124080657959 -0.01605297066271305 0.670340895652771
0.6054691672325134 -0.016442717984318733 0.6694228649139404
0.6060197353363037 -0.01708477921783924 0.6696708798408508
0.6122376322746277 -0.0221953634172678 0.6713147163391113
0.6143172979354858 -0.023347506299614906 0.6715625524520874
0.6156514883041382 -0.024195553734898567 0.6717811822891235
0.6163181662559509 -0.024618113413453102 0.6718893051147461
0.6185792088508606 -0.025467073544859886 0.6719409823417664
0.6200827956199646 -0.026038391515612602 0.6719791889190674
0.622530460357666 -0.026593970134854317 0.6718378067016602
0.624300479888916 -0.02675396390259266 0.6716051697731018
0.626175045967102 -0.02675843983888626 0.6712694764137268
0.6286569833755493 -0.025845102965831757 0.6703281402587891
0.6308717131614685 -0.02391856163740158 0.6688867211341858
0.6316503286361694 -0.024178091436624527 0.6688867211341858
0.5739942789077759 0.02744927443563938 0.6503523588180542
0.5746198892593384 0.0247202031314373 0.6517205238342285
0.5745089650154114 0.02247796021401882 0.6529573202133179
0.5747019648551941 0.020889462903141975 0.6537843346595764
0.5802724361419678 0.016728518530726433 0.655035138130188
0.5777531862258911 0.007844707928597927 0.6603123545646667
0.5792140960693359 0.005178159102797508 0.6614950895309448
0.5795421600341797 0.003985395655035973 0.6620832681655884
0.5802003741264343 0.0016253121430054307 0.6632446646690369
0.58370041847229 -0.004125275183469057 0.665732741355896
0.5865288972854614 -0.00575958052650094 0.6661081910133362
0.5874528288841248 -0.005760103464126587 0.6659412980079651
0.5883775949478149 -0.005760624073445797 0.6657743453979492
0.5898011922836304 -0.00655575143173337 0.6659483909606934
0.5905859470367432 -0.006817332468926907 0.6659483909606934
0.5923886895179749 -0.01028693187981844 0.6675049066543579
0.5928001999855042 -0.017800983041524887 0.6715084910392761
0.5935695767402649 -0.0180574432015419 0.6715084910392761
0.5943725109100342 -0.018254762515425682 0.6714704632759094
0.6000949740409851 -0.016285322606563568 0.6693663597106934
0.6073608994483948 -0.018126802518963814 0.6690514087677002
0.6085305213928223 -0.019282067194581032 0.6694668531417847
0.6097421646118164 -0.02035854198038578 0.6698317527770996
0.6105160117149353 -0.020616548135876656 0.6698317527770996
0.620437502861023 -0.025662973523139954 0.670775830745697
0.6250091195106506 -0.02584637515246868 0.670048177242279
0.6268929243087769 -0.025845831260085106 0.6697070598602295
0.6283883452415466 -0.02500314451754093 0.668979287147522
0.5738970637321472 0.031234560534358025 0.6473026871681213
0.5732376575469971 0.027760401368141174 0.6493141651153564
0.5730972290039062 0.025418931618332863 0.6506146192550659
0.5738140344619751 0.022896863520145416 0.6518582701683044
0.5762180685997009 0.019969135522842407 0.6530158519744873
0.578187108039856 0.01815357245504856 0.653647243976593
0.5788559317588806 0.017579475417733192 0.6538383364677429
0.577127993106842 0.008335839956998825 0.6591852903366089
0.5774625539779663 0.007130248472094536 0.6597817540168762
0.5777955055236816 0.005929725244641304 0.6603747606277466
0.5792521238327026 0.003277835203334689 0.6615540981292725
0.5799829959869385 0.0010635902872309089 0.6626271605491638
0.5811625123023987 -0.00025128223933279514 0.6631295680999756
0.5819332003593445 -0.0023422474041581154 0.6641281843185425
0.5843015313148499 -0.0048791756853461266 0.6650797724723816
0.590911328792572 -0.008071773685514927 0.6656183004379272
0.5939351916313171 -0.012647703289985657 0.667561411857605
0.5973698496818542 -0.017980007454752922 0.6698417663574219
0.5981419086456299 -0.01823735050857067 0.6698417663574219
0.5995566248893738 -0.01738033816218376 0.669118344783783
0.6022927761077881 -0.01585191860795021 0.6677889823913574
0.6040516495704651 -0.016022618860006332 0.6675626635551453
0.6060500144958496 -0.017369478940963745 0.6679335832595825
0.6125474572181702 -0.022039106115698814 0.6692972779273987
0.6146610379219055 -0.023146355524659157 0.669516384601593
0.6161012053489685 -0.023830445483326912 0.6696275472640991
0.6168538331985474 -0.024119753390550613 0.6696484684944153
0.6183826327323914 -0.024660691618919373 0.6696652770042419
0.6208711266517639 -0.0251651331782341 0.6694883704185486
0.6225283145904541 -0.025506973266601562 0.6693738102912903
0.6246140003204346 -0.025188971310853958 0.668822169303894
0.628118097782135 -0.024157322943210602 0.6676239371299744
0.5725002288818359 0.028116069734096527 0.648246169090271
0.5723971128463745 0.025843972340226173 0.6495067477226257
0.5741358399391174 0.021451009437441826 0.6515897512435913
0.5775060057640076 0.0052184173837304115 0.6598453521728516
0.5783035755157471 0.004952562041580677 0.6598453521728516
0.5793757438659668 0.0015563732013106346 0.6615052819252014
0.5817170143127441 -0.002898389706388116 0.6635130643844604
0.5821871161460876 -0.0037709088064730167 0.66390460729599
0.5829735398292542 -0.004033044911921024 0.66390460729599
0.5847037434577942 -0.004258266184478998 0.6637123823165894
0.5865564942359924 -0.004257404711097479 0.6633746027946472
0.5881924629211426 -0.004669908434152603 0.6633020043373108
0.5916866660118103 -0.010188234969973564 0.6656804084777832
0.5915533900260925 -0.017071757465600967 0.6694656014442444
0.592059850692749 -0.01780078373849392 0.6697717308998108
0.5968389511108398 -0.01906636543571949 0.6695929169654846
0.6018655896186829 -0.016750697046518326 0.6674122214317322
0.6030685305595398 -0.016279170289635658 0.6669355034828186
0.6074854731559753 -0.018256841227412224 0.6672117114067078
0.6080942749977112 -0.018797626718878746 0.667396068572998
0.6099274754524231 -0.020395679399371147 0.6679354310035706
0.6107028126716614 -0.020654121413826942 0.6679354310035706
0.6120460629463196 -0.021510254591703415 0.6681586503982544
0.6231098175048828 -0.024785766378045082 0.6679332852363586
0.6242179870605469 -0.024527717381715775 0.6675902009010315
0.6270695924758911 -0.02304367534816265 0.6662601828575134
0.5715354084968567 0.032148327678442 0.645202100276947
0.5723711252212524 0.031869903206825256 0.645202100276947
0.5717955231666565 0.02854658104479313 0.6471289396286011
0.5716952681541443 0.026270313188433647 0.6483954191207886
0.5715954899787903 0.024012243375182152 0.6496514081954956
0.5763094425201416 0.019909607246518135 0.6510393023490906
0.5781962275505066 0.01791640929877758 0.6517872214317322
0.5750695466995239 0.009589827619493008 0.6569230556488037
0.5762110948562622 0.008111227303743362 0.6575250625610352
0.5783734917640686 0.003109794342890382 0.6598719358444214
0.579549252986908 -5.831048110849224e-05 0.6613937616348267
0.580340564250946 -0.00032208289485424757 0.6613937616348267
0.5841805338859558 -0.0036349897272884846 0.6625078916549683
0.5860356688499451 -0.003633389715105295 0.6621681451797485
0.58896404504776 -0.006835940293967724 0.663388729095459
0.5902044177055359 -0.007969574071466923 0.6637836694717407
0.592016875743866 -0.011419607326388359 0.6653438806533813
0.5920137763023376 -0.018037600442767143 0.6689719557762146
0.5945499539375305 -0.02002463862299919 0.6695979833602905
0.5963097214698792 -0.02014930732548237 0.6693446040153503
0.599900484085083 -0.018706250935792923 0.6678979992866516
0.6122164726257324 -0.02140614576637745 0.6671274900436401
0.6136075854301453 -0.022182967513799667 0.6672992706298828
0.6143826842308044 -0.02244134247303009 0.6672992706298828
0.6166552901268005 -0.02330051362514496 0.6673546433448792
0.6182110905647278 -0.02380758710205555 0.6673478484153748
0.6208659410476685 -0.024063847959041595 0.6670036315917969
0.6219333410263062 -0.02386610023677349 0.6667004823684692
0.6238222122192383 -0.02386172115802765 0.6663527488708496
0.6251105666160583 -0.023328961804509163 0.6658249497413635
0.626797616481781 -0.02218545600771904 0.6648898124694824
0.5709919333457947 0.026697516441345215 0.6472815275192261
0.5714271068572998 0.023535195738077164 0.648941695690155
0.5720866918563843 0.022911695763468742 0.6491639018058777
0.5742241740226746 0.02139328047633171 0.6496071815490723
0.5744385123252869 0.010085344314575195 0.6557871103286743
0.5759211778640747 0.007395144551992416 0.6569952964782715
0.5762580633163452 0.006191389635205269 0.6575957536697388
0.5769646167755127 0.003873026231303811 0.6587411761283875
0.578549861907959 0.0014871591702103615 0.6597627997398376
0.5810475945472717 -0.0026838029734790325 0.6615989804267883
0.5828661322593689 -0.0027466886676847935 0.6613004803657532
0.5845839381217957 -0.003008645260706544 0.6611292362213135
0.5862246155738831 -0.0034208910074084997 0.6610554456710815
0.5866730213165283 -0.004327958449721336 0.6614718437194824
0.5892924070358276 -0.008092123083770275 0.6630620360374451
0.5900771617889404 -0.008353577926754951 0.6630620360374451
0.5909824371337891 -0.010089120827615261 0.6638504862785339
0.5896693468093872 -0.015824733301997185 0.6672458052635193
0.5904427170753479 -0.016082508489489555 0.6672458052635193
0.5919674634933472 -0.01827470026910305 0.6681723594665527
0.6007826924324036 -0.01894012652337551 0.6669221520423889
0.6022086143493652 -0.018082253634929657 0.6661887764930725
0.6042799353599548 -0.017717881128191948 0.6656090617179871
0.6061487793922424 -0.017707638442516327 0.6652607321739197
0.6068609356880188 -0.018078939989209175 0.6653343439102173
0.6082653999328613 -0.01885271444916725 0.6655022501945496
0.6102621555328369 -0.020188143476843834 0.6658706068992615
0.6195305585861206 -0.023385221138596535 0.6659294366836548
0.6204236149787903 -0.023461051285266876 0.6658075451850891
0.6226455569267273 -0.02293364331126213 0.6651102900505066
0.6273719668388367 -0.020009342581033707 0.6626352667808533
0.5700021982192993 0.03278658911585808 0.6430941820144653
0.5695487856864929 0.0296876709908247 0.6448873281478882
0.5694583654403687 0.027402188628911972 0.6461659669876099
0.5701923370361328 0.024857720360159874 0.6474345922470093
0.5714691877365112 0.023508140817284584 0.6479445695877075
0.5736109018325806 0.02198680490255356 0.6483901739120483
0.5764323472976685 0.01991470716893673 0.6490148305892944
0.5738059282302856 0.010582352057099342 0.6546486020088196
0.5741488337516785 0.009365431033074856 0.6552568078041077
0.5752930045127869 0.007886317558586597 0.6558626294136047
0.5759681463241577 0.005477623548358679 0.657067596912384
0.5763495564460754 0.004372332710772753 0.6576074957847595
0.577938973903656 0.0019812840037047863 0.6586345434188843
0.5787255764007568 -0.00012802588753402233 0.6596537828445435
0.5832673907279968 -0.002116984222084284 0.6599164605140686
0.5840588212013245 -0.002380782039836049 0.6599164605140686
0.5882520079612732 -0.006731584668159485 0.66154545545578
0.5889155268669128 -0.01401271391659975 0.6654418110847473
0.5896222591400146 -0.0160616897046566 0.6664425730705261
0.591921329498291 -0.0185116995126009 0.6673715114593506
0.5924274921417236 -0.01923922263085842 0.6676798462867737
0.5937021374702454 -0.02022162824869156 0.6679878830909729
0.5988300442695618 -0.020877504721283913 0.667406439781189
0.6002442836761475 -0.02002926729619503 0.6666783094406128
0.6016668677330017 -0.019174452871084213 0.6659447550773621
0.602441668510437 -0.01943276822566986 0.6659447550773621
0.6051033735275269 -0.01806693524122238 0.6647011041641235
0.612633228302002 -0.02107488177716732 0.6649760007858276
0.6141560673713684 -0.02164602465927601 0.6650117039680481
0.6156944036483765 -0.02219080924987793 0.6650287508964539
0.6165271997451782 -0.022361235693097115 0.6649699807167053
0.6222454905509949 -0.02226218394935131 0.6638630628585815
0.6237712502479553 -0.021355589851737022 0.6630821824073792
0.6245539784431458 -0.021616507321596146 0.6630821824073792
0.5692332983016968 0.03310661390423775 0.642036497592926
0.5688380599021912 0.030121121555566788 0.6437628865242004
0.5687505006790161 0.02783157490193844 0.6450469493865967
0.5687075257301331 0.025657376274466515 0.6462587714195251
0.5721717476844788 0.022856421768665314 0.6471701860427856
0.5736548900604248 0.021958380937576294 0.6473938822746277
0.5743229985237122 0.02135767601430416 0.6476028561592102
0.5720162391662598 0.012574305757880211 0.6528920531272888
0.5731711983680725 0.011080282740294933 0.653506338596344
0.5735161304473877 0.00986096914857626 0.6541178226470947
0.575341522693634 0.0059642852284014225 0.6559381484985352
0.5761322975158691 0.0038059635553508997 0.6569876670837402
0.5808790922164917 -0.0014909751480445266 0.6590443253517151
0.5827386379241943 -0.0014868216821923852 0.6586989164352417
0.5844632387161255 -0.001748936134390533 0.658525288105011
0.5859549045562744 -0.004219778813421726 0.6596181988716125
0.5876660943031311 -0.006241484545171261 0.6604220271110535
0.5890424251556396 -0.008851991966366768 0.6616135835647583
0.5881415605545044 -0.013899298384785652 0.6645744442939758
0.5895749926567078 -0.01629919931292534 0.6656389832496643
0.5903488397598267 -0.016557147726416588 0.6656389832496643
0.5942151546478271 -0.021085990592837334 0.6674330234527588
0.5963950157165527 -0.02207544445991516 0.6675786972045898
0.6011257171630859 -0.020265135914087296 0.6657030582427979
0.6059222221374512 -0.018426865339279175 0.6637997627258301
0.6068443655967712 -0.018445555120706558 0.6636396050453186
0.6084754467010498 -0.018844006583094597 0.6635593175888062
0.6106052398681641 -0.01996801048517227 0.6637890338897705
0.6113841533660889 -0.020227639004588127 0.6637890338897705
0.6121456623077393 -0.02051529474556446 0.6638072729110718
0.6144331693649292 -0.02137354575097561 0.6638608574867249
0.6160708069801331 -0.021763239055871964 0.6637738943099976
0.6188303232192993 -0.021868571639060974 0.6633228063583374
0.6196104884147644 -0.022128621116280556 0.6633228063583374
0.6207248568534851 -0.021860303357243538 0.662968635559082
0.6234909892082214 -0.020490363240242004 0.6616998314857483
0.6351916193962097 -0.003667663550004363 0.6502249240875244
0.6360073685646057 -0.003939452581107616 0.6502249240875244
0.5676244497299194 0.03370688110589981 0.6409777402877808
0.5684633255004883 0.03342726081609726 0.6409777402877808
0.5680406093597412 0.02826165407896042 0.6439257860183716
0.5687378644943237 0.02561020478606224 0.6452694535255432
0.5702289938926697 0.02470673806965351 0.6454954147338867
0.5715534090995789 0.023453740403056145 0.6459458470344543
0.5713772773742676 0.013077112846076488 0.6517435908317566
0.5717271566390991 0.01184919010847807 0.6523610353469849
0.5732268691062927 0.009140737354755402 0.6535883545875549
0.5735703110694885 0.007928061299026012 0.6541979908943176
0.5759150385856628 0.003239744110032916 0.6563685536384583
0.5771094560623169 0.0019127459963783622 0.6568844318389893
0.57795250415802 -9.48281740420498e-05 0.6578434109687805
0.5786241888999939 -0.0005974589730612934 0.6579983234405518
0.580346405506134 -0.0008591595687903464 0.6578254103660583
0.5822083950042725 -0.0008542469586245716 0.6574770212173462
0.584442675113678 -0.0019308438058942556 0.6576613783836365
0.5862891674041748 -0.005486829672008753 0.6592951416969299
0.5875384211540222 -0.006627076771110296 0.6596973538398743
0.5867547988891602 -0.013221903704106808 0.6635064482688904
0.5879884362220764 -0.014329096302390099 0.6638926267623901
0.5913209915161133 -0.01825748197734356 0.6654585003852844
0.5954530239105225 -0.022281035780906677 0.6669284105300903
0.5991733074188232 -0.02219482697546482 0.6661916375160217
0.6027840375900269 -0.020758818835020065 0.6647252440452576
0.6195372939109802 -0.02092442288994789 0.6617144346237183
0.6203198432922363 -0.02118528075516224 0.6617144346237183
0.6232091188430786 -0.019620977342128754 0.660310685634613
0.634308397769928 -0.003694055136293173 0.6494072079658508
0.6361086964607239 -0.003975339699536562 0.6492296457290649
0.5674760937690735 0.03759060427546501 0.6378147006034851
0.5668516755104065 0.0340280681848526 0.6399168372154236
0.5665763020515442 0.031270015984773636 0.6415053009986877
0.5673294067382812 0.028692621737718582 0.6428017020225525
0.5674450397491455 0.026844210922718048 0.6438109278678894
0.5722653269767761 0.02281830459833145 0.6451593041419983
0.5737701654434204 0.021960007026791573 0.6453579664230347
0.5714380145072937 0.011124946177005768 0.6518309712409973
0.5722454190254211 0.010855954140424728 0.6518309712409973
0.5732870697975159 0.007222076877951622 0.6536627411842346
0.5752981305122375 0.0037386270705610514 0.6552306413650513
0.5780872106552124 3.670593650895171e-05 0.6567757725715637
0.583509624004364 -0.0020754423458129168 0.6569453477859497
0.5843032002449036 -0.0023399582132697105 0.6569453477859497
0.5852349400520325 -0.004111297428607941 0.6577597260475159
0.5884548425674438 -0.015304225496947765 0.6634003520011902
0.5889684557914734 -0.016040008515119553 0.6637154221534729
0.5923584699630737 -0.019828684628009796 0.6651971936225891
0.5931296348571777 -0.02008575201034546 0.6651971936225891
0.5942230224609375 -0.02138766460120678 0.6657195091247559
0.5947683453559875 -0.022036902606487274 0.665980339050293
0.6036698222160339 -0.020995168015360832 0.6637454032897949
0.6051052212715149 -0.020141085609793663 0.6630025506019592
0.6083928942680359 -0.019324569031596184 0.6619367599487305
0.6102755665779114 -0.01931028626859188 0.661578893661499
0.612695574760437 -0.01996520906686783 0.6614943146705627
0.6134830713272095 -0.020215116441249847 0.6614871025085449
0.6143745183944702 -0.02029687911272049 0.6613674163818359
0.6160480380058289 -0.020639590919017792 0.6612474322319031
0.6204490661621094 -0.019655516371130943 0.6598816514015198
0.6229360103607178 -0.018732208758592606 0.6589047908782959
0.630792498588562 -0.007865343242883682 0.6513881087303162
0.6323621869087219 -0.006940409075468779 0.6505810022354126
0.6358372569084167 -0.0030443661380559206 0.6477632522583008
0.6366556882858276 -0.0033171698451042175 0.6477632522583008
0.5658595561981201 0.031707655638456345 0.6403718590736389
0.5657836198806763 0.029402365908026695 0.641675591468811
0.5666164755821228 0.029124755412340164 0.641675591468811
0.5681515336036682 0.02618885040283203 0.6430314779281616
0.5688181519508362 0.02555900625884533 0.6432596445083618
0.5703113675117493 0.024653803557157516 0.643487274646759
0.571645200252533 0.023414142429828644 0.643932044506073
0.5700935125350952 0.014086289331316948 0.6494375467300415
0.5723031163215637 0.008914748206734657 0.6519178748130798
0.5734758973121643 0.0055761816911399364 0.6535661816596985
0.5742764472961426 0.005309277679771185 0.6535661816596985
0.5759572386741638 0.001202432089485228 0.6555495858192444
0.5767526030540466 0.000937313714530319 0.6555495858192444
0.5784792304039001 0.0006759156822226942 0.6553734540939331
0.5803455114364624 0.0006825383752584457 0.6550219058990479
0.5824508666992188 -0.0006652441807091236 0.6553835868835449
0.5860352516174316 -0.006255976390093565 0.657842218875885
0.5855618119239807 -0.012322758324444294 0.661322832107544
0.5860810279846191 -0.01306532509624958 0.6616416573524475
0.5873767137527466 -0.014065595343708992 0.6619594693183899
0.5902079343795776 -0.01726997084915638 0.6632235050201416
0.5907182097434998 -0.0180022232234478 0.663537859916687
0.5960854887962341 -0.02309308387339115 0.6653843522071838
0.5996237993240356 -0.020160280168056488 0.6630846261978149
0.6002410054206848 -0.02068948559463024 0.6632652878761292
0.6022459864616394 -0.022003989666700363 0.6636268496513367
0.606774091720581 -0.0206376351416111 0.6620184779167175
0.6148061156272888 -0.01977246254682541 0.6600374579429626
0.6157004833221436 -0.019853724166750908 0.6599164605140686
0.6164840459823608 -0.02011491172015667 0.6599164605140686
0.6176004409790039 -0.01984122209250927 0.659555196762085
