ply
format ascii 1.0
element vertex 832
property float x
property float y
property float z
end_header
0.5938376188278198 0.11750179529190063 0.6760684251785278
0.6143102645874023 0.11126688122749329 0.6758196949958801
0.6163579821586609 0.11108866333961487 0.6756062507629395
0.6201781630516052 0.11236616224050522 0.6745296716690063
0.6225942373275757 0.11291883140802383 0.673956573009491
0.6243471503257751 0.11430922150611877 0.6731222867965698
0.568320095539093 0.1435188502073288 0.6675894856452942
0.5663570761680603 0.13533613085746765 0.671334981918335
0.5675283074378967 0.13285407423973083 0.6722216010093689
0.5678628087043762 0.13095742464065552 0.6729778051376343
0.5683068037033081 0.12936538457870483 0.6735903024673462
0.5687485337257385 0.1277802735567093 0.674199640750885
0.5735767483711243 0.12679031491279602 0.6739370226860046
0.5745007395744324 0.1264823079109192 0.6739370226860046
0.576339602470398 0.1258428990840912 0.6739482879638672
0.5754437446594238 0.11831015348434448 0.6772679686546326
0.5763565897941589 0.11800586432218552 0.6772679686546326
0.5770601034164429 0.1171790361404419 0.6775187849998474
0.5830698609352112 0.11164673417806625 0.6790147423744202
0.5850088000297546 0.11134091019630432 0.6788703203201294
0.5860811471939087 0.11143039911985397 0.6786812543869019
0.5928747057914734 0.11760725826025009 0.6751028895378113
0.5944604873657227 0.11640471965074539 0.6753886938095093
0.5952956676483154 0.11590408533811569 0.6754828095436096
0.5962143540382385 0.11559779942035675 0.6754828095436096
0.5987613201141357 0.11420417577028275 0.6757136583328247
0.5996536016464233 0.11383979022502899 0.6757420897483826
0.6005715727806091 0.11353379487991333 0.6757420897483826
0.6023570895195007 0.11280889809131622 0.6757968068122864
0.6042506098747253 0.11232557147741318 0.6757342219352722
0.6061245203018188 0.11179664731025696 0.6756938695907593
0.6081234216690063 0.111538365483284 0.6755207777023315
0.6100689768791199 0.11115961521863937 0.6754066944122314
0.6121843457221985 0.11113985627889633 0.6751163601875305
0.6191231608390808 0.11226359754800797 0.6736597418785095
0.6206101179122925 0.11312466859817505 0.6730842590332031
0.6232192516326904 0.11406690627336502 0.6723166108131409
0.6258755922317505 0.11730778217315674 0.6705673933029175
0.5673098564147949 0.14361493289470673 0.6666048765182495
0.5654532313346863 0.1356823593378067 0.670243501663208
0.5656980276107788 0.1335071325302124 0.671134352684021
0.5666285753250122 0.13319694995880127 0.671134352684021
0.5669344067573547 0.13121339678764343 0.6719346642494202
0.5673802495002747 0.12961918115615845 0.6725496649742126
0.5685913562774658 0.1273101419210434 0.6733607649803162
0.5705163478851318 0.1269008368253708 0.6732619404792786
0.5759989619255066 0.12490686029195786 0.6733327507972717
0.5751979351043701 0.1176188588142395 0.6765466928482056
0.5775162577629089 0.11566460877656937 0.6770493984222412
0.5782175064086914 0.11484203487634659 0.6773002743721008
0.5798675417900085 0.11381886154413223 0.6775012612342834
0.5806192755699158 0.11313147097826004 0.6776871681213379
0.5849704742431641 0.11115778237581253 0.6779102087020874
0.5864295959472656 0.1121654361486435 0.6772747039794922
0.5880183577537537 0.1134691834449768 0.6764944195747375
0.5907384753227234 0.11742526292800903 0.6744255423545837
0.605143129825592 0.11184260249137878 0.6747575998306274
0.6123011112213135 0.11125970631837845 0.6739906668663025
0.6146283149719238 0.11167562007904053 0.6734834909439087
0.6168083548545837 0.11176493763923645 0.6731364727020264
0.6211630702018738 0.11413434147834778 0.6715109348297119
0.6220923662185669 0.11382457613945007 0.6715109348297119
0.56629878282547 0.14371110498905182 0.665619432926178
0.5645480155944824 0.13602860271930695 0.6691504120826721
0.565075695514679 0.13177898526191711 0.6708902716636658
0.5664524435997009 0.129873588681221 0.6715080738067627
0.567585289478302 0.12734530866146088 0.6724265217781067
0.5725806355476379 0.1267869770526886 0.6719536185264587
0.5744489431381226 0.12621726095676422 0.6719313263893127
0.5735399723052979 0.1185828223824501 0.6753213405609131
0.5742467641830444 0.11775463819503784 0.6755742430686951
0.5811696648597717 0.11187203228473663 0.6771010160446167
0.5830114483833313 0.11132955551147461 0.677071213722229
0.5853760838508606 0.11203427612781525 0.6764331459999084
0.586838960647583 0.11304591596126556 0.6757924556732178
0.5900891423225403 0.11579697579145432 0.6741551756858826
0.5923618674278259 0.11620740592479706 0.6736565828323364
0.5941927433013916 0.11557644605636597 0.6736651062965393
0.5968077778816223 0.11433146893978119 0.6738241314888
0.5977016091346741 0.11396859586238861 0.673851728439331
0.598595380783081 0.113605797290802 0.6738799810409546
0.6004074811935425 0.11293690651655197 0.6739075779914856
0.6022859215736389 0.11241787672042847 0.6738612651824951
0.6041988134384155 0.11197161674499512 0.6737799644470215
0.6061372756958008 0.1115807294845581 0.6736704707145691
0.608195960521698 0.11144592612981796 0.6734357476234436
0.6101751327514648 0.11113262176513672 0.6732879281044006
0.6148583889007568 0.11203021556138992 0.6722375154495239
0.6170459389686584 0.11212892085313797 0.6718833446502686
0.6184952259063721 0.11291881650686264 0.6713404059410095
0.6200360655784607 0.11389196664094925 0.6707051396369934
0.622025191783905 0.11578655242919922 0.6696129441261292
0.5643407702445984 0.14412294328212738 0.6646329164505005
0.5652872323989868 0.14380745589733124 0.6646329164505005
0.5638917088508606 0.13419480621814728 0.668954074382782
0.5641435384750366 0.13203579187393188 0.6698437929153442
0.5659724473953247 0.12853848934173584 0.6710823178291321
0.5665788650512695 0.12738105654716492 0.6714915037155151
0.5685933232307434 0.12720631062984467 0.6712788343429565
0.5705426335334778 0.12685339152812958 0.6711512804031372
0.5731760263442993 0.12556412816047668 0.6713277101516724
0.5741003155708313 0.12525604665279388 0.6713277101516724
0.5732945203781128 0.11789032816886902 0.6746004223823547
0.5756192207336426 0.11593425273895264 0.6751074194908142
0.5763225555419922 0.115110382437706 0.6753599047660828
0.5778043270111084 0.11366179585456848 0.6757690906524658
0.5785576701164246 0.11297434568405151 0.6759562492370605
0.5834119319915771 0.1122058629989624 0.6755919456481934
0.584321916103363 0.11190249025821686 0.6755919456481934
0.5857829451560974 0.1129143089056015 0.6749495267868042
0.588412880897522 0.11175067722797394 0.6750721335411072
0.5919596552848816 0.11516717076301575 0.6731011867523193
0.5931306481361389 0.11544884741306305 0.672812819480896
0.6114153861999512 0.11138314753770828 0.6719428896903992
0.6125778555870056 0.11158996820449829 0.6716878414154053
0.6150933504104614 0.11239466071128845 0.670982837677002
0.6189274787902832 0.1136867105960846 0.6698817014694214
0.6208921074867249 0.11553949117660522 0.6688059568405151
0.5633417963981628 0.14425896108150482 0.6636267900466919
0.5641952157020569 0.14368410408496857 0.6637517809867859
0.5629860162734985 0.1345391869544983 0.6678610444068909
0.5632378458976746 0.13236825168132782 0.6687595248222351
0.5636656284332275 0.1306929588317871 0.6694195866584778
0.5655905604362488 0.12746617197990417 0.6705319881439209
0.571582555770874 0.12678401172161102 0.6699658632278442
0.5723415017127991 0.11802638322114944 0.6736260056495667
0.5730498433113098 0.1171988844871521 0.6738808751106262
0.580018162727356 0.11141205579042435 0.675371527671814
0.5857951641082764 0.11285115778446198 0.673923134803772
0.5874484181404114 0.11183417588472366 0.6741244196891785
0.590010404586792 0.11051474511623383 0.6743242740631104
0.59482741355896 0.11440405994653702 0.6719592213630676
0.5966414213180542 0.11373451352119446 0.671986997127533
0.5993998050689697 0.11281664669513702 0.6719868183135986
0.6003190875053406 0.11251021921634674 0.6719868183135986
0.6022321581840515 0.11206376552581787 0.671904444694519
0.6032295227050781 0.11193005740642548 0.6718188524246216
0.6042571663856506 0.11186174303293228 0.6717007756233215
0.6062080264091492 0.11149032413959503 0.6715803146362305
0.608362078666687 0.11155644059181213 0.6712430119514465
0.6154523491859436 0.11302156001329422 0.6695955395698547
0.6163793802261353 0.11271250247955322 0.6695955395698547
0.6197598576545715 0.115292988717556 0.6679993867874146
0.5631822943687439 0.14378049969673157 0.6627647280693054
0.561145544052124 0.13519562780857086 0.6667666435241699
0.5623340606689453 0.1327107846736908 0.6676691174507141
0.5631887912750244 0.12935426831245422 0.6689961552619934
0.5636826753616333 0.1278761476278305 0.6695636510848999
0.5646072030067444 0.12756797671318054 0.6695636510848999
0.5665671229362488 0.1272483617067337 0.6694189310073853
0.5686166882514954 0.12715870141983032 0.6691625118255615
0.5712716579437256 0.12591396272182465 0.6693185567855835
0.5704731941223145 0.11846710741519928 0.6726508736610413
0.5735120177268982 0.11568280309438705 0.6734158992767334
0.5742267370223999 0.11488274484872818 0.6736588478088379
0.5758940577507019 0.11388973891735077 0.6738470792770386
0.5781575441360474 0.11182758957147598 0.6744126081466675
0.5813043713569641 0.11194297671318054 0.6739094257354736
0.5827584266662598 0.11295494437217712 0.6732630133628845
0.5864822864532471 0.11191704869270325 0.6731745600700378
0.5881346464157104 0.11090106517076492 0.6733763217926025
0.5912598371505737 0.11089523881673813 0.672928512096405
0.5936260223388672 0.11395348608493805 0.6712667346000671
0.5946954488754272 0.1139940693974495 0.671095073223114
0.6096047163009644 0.11181684583425522 0.6698887348175049
0.6105279922485352 0.1115090399980545 0.6698887348175049
0.6130378246307373 0.11231044679880142 0.6691808104515076
0.5621681213378906 0.14387686550617218 0.6617757081985474
0.5602360367774963 0.1355418562889099 0.6656696796417236
0.5604974627494812 0.13336455821990967 0.6665768623352051
0.5617997646331787 0.1312050074338913 0.6673247814178467
0.5622575283050537 0.1296086311340332 0.6679508090019226
0.5695177912712097 0.11860358715057373 0.6716738939285278
0.5702294707298279 0.11777473241090775 0.6719308495521545
0.5718523859977722 0.11664281040430069 0.6721868515014648
0.5764497518539429 0.11262744665145874 0.6732639670372009
0.5772039890289307 0.11194053292274475 0.6734527945518494
0.5780165791511536 0.11140027642250061 0.6735693216323853
0.5817018747329712 0.11282341182231903 0.6724194288253784
0.5897116661071777 0.10961717367172241 0.6726520657539368
0.5893353223800659 0.10631955415010452 0.6741369366645813
0.6012386083602905 0.11197317391633987 0.6699643135070801
0.6022666096687317 0.11190608143806458 0.6698445677757263
0.6043277978897095 0.11177783459424973 0.6696019172668457
0.6063470244407654 0.11154917627573013 0.6694095134735107
0.6098257303237915 0.11216752231121063 0.6686385273933411
0.6133357286453247 0.11281562596559525 0.6678498387336731
0.6148168444633484 0.11368585377931595 0.6672582030296326
0.6165662407875061 0.11511406302452087 0.6663858890533447
0.5611535310745239 0.14397341012954712 0.6607869863510132
0.5593252182006836 0.13588835299015045 0.6645715236663818
0.5595896244049072 0.1337084174156189 0.6654823422431946
0.5599350333213806 0.13177089393138885 0.6662754416465759
0.561324954032898 0.12986350059509277 0.6669039726257324
0.5626224279403687 0.12772953510284424 0.6676449775695801
0.5645496845245361 0.12731905281543732 0.6675440669059753
0.5665878653526306 0.1272008717060089 0.6672996878623962
0.5684452056884766 0.12659507989883423 0.6672941446304321
0.5699816942214966 0.12515127658843994 0.6676994562149048
0.569274365901947 0.11791080981492996 0.6709539294242859
0.5716083645820618 0.11595213413238525 0.6714680194854736
0.5723167061805725 0.11512782424688339 0.6717243194580078
0.5738275051116943 0.11373289674520493 0.6721118688583374
0.5806455612182617 0.11269139498472214 0.6715764999389648
0.5828067660331726 0.11289730668067932 0.6711726784706116
0.584549069404602 0.11208376288414001 0.6712743043899536
0.5853765606880188 0.11157507449388504 0.67137610912323
0.5862036347389221 0.11106675118207932 0.6714771389961243
0.588768482208252 0.10974805802106857 0.6716790795326233
0.5882769227027893 0.10616861283779144 0.6733084321022034
0.5890295505523682 0.10550794750452042 0.6734868288040161
0.5902156233787537 0.10585403442382812 0.6731643676757812
0.5941733717918396 0.11258009821176529 0.6696617007255554
0.5963473916053772 0.11273766309022903 0.6692776083946228
0.5983568429946899 0.11250890046358109 0.6690853238105774
0.6087977290153503 0.1121249794960022 0.6677378416061401
0.6100543141365051 0.11253424733877182 0.667377233505249
0.6154365539550781 0.11487094312906265 0.665579080581665
0.6182448267936707 0.11853648722171783 0.6635759472846985
0.5591896176338196 0.1443863958120346 0.6597967743873596
0.5601376891136169 0.1440703570842743 0.6597967743873596
0.5584131479263306 0.13623599708080292 0.6634712815284729
0.5594627261161804 0.1304277628660202 0.6658565402030945
0.5603910088539124 0.13011834025382996 0.6658565402030945
0.5616127848625183 0.12776540219783783 0.6667069792747498
0.5676039457321167 0.11887671798467636 0.6697179079055786
0.5683181285858154 0.11804717779159546 0.6699766516685486
0.5728703141212463 0.11384705454111099 0.6711491942405701
0.5745385885238647 0.11285489052534103 0.6713398098945618
0.5760629773139954 0.11151158064603806 0.6717044711112976
0.5786768794059753 0.11286404728889465 0.6707326769828796
0.5834959149360657 0.11196243762969971 0.67042475938797
0.5866221189498901 0.10704893618822098 0.6721166968345642
0.5878307819366455 0.10502772033214569 0.672823429107666
0.5913843512535095 0.10604957491159439 0.671859622001648
0.5922930240631104 0.10574667900800705 0.671859622001648
0.5993523597717285 0.11225791275501251 0.6679860949516296
0.6002735495567322 0.11195079237222672 0.6679860949516296
0.602334201335907 0.11182212084531784 0.6677418947219849
0.6045299172401428 0.11198276281356812 0.667352020740509
0.6065776348114014 0.11180752515792847 0.6671302914619446
0.6077691316604614 0.11208226531744003 0.6668368577957153
0.6126954555511475 0.11347916722297668 0.6655083894729614
0.6167384386062622 0.11750635504722595 0.6631599068641663
0.5565621256828308 0.13689588010311127 0.6623689532279968
0.5577699542045593 0.13439781963825226 0.6632887721061707
0.5589926242828369 0.1290898472070694 0.6654374599456787
0.5606019496917725 0.12780095636844635 0.6657682061195374
0.5626055002212524 0.12759694457054138 0.6655644774436951
0.5645567774772644 0.12724348902702332 0.6654344201087952
0.5665441751480103 0.12698166072368622 0.6652587056159973
0.5671463012695312 0.12580972909927368 0.6656848788261414
0.5657422542572021 0.11935185641050339 0.6687226295471191
0.5680747628211975 0.11735395342111588 0.6692571640014648
0.5694990158081055 0.11570087820291519 0.66977459192276
0.570411741733551 0.11539662629365921 0.66977459192276
0.5719118118286133 0.11396124213933945 0.6701846122741699
0.5751012563705444 0.1116080954670906 0.6707510352134705
0.5776203870773315 0.11273202300071716 0.6698896288871765
0.5790694355964661 0.11374872177839279 0.6692319512367249
0.5808678269386292 0.1130649521946907 0.6692680716514587
0.5825273990631104 0.11204609274864197 0.6694730520248413
0.5833562016487122 0.11153718084096909 0.6695748567581177
0.584269642829895 0.1112327128648758 0.6695748567581177
0.5858716368675232 0.10762863606214523 0.6709214448928833
0.5859588384628296 0.1053910106420517 0.6718905568122864
0.586864709854126 0.10508905351161957 0.6718905568122864
0.5886409878730774 0.10440292954444885 0.6719315648078918
0.5907921195030212 0.10458143800497055 0.6715388298034668
0.5945087671279907 0.10832171887159348 0.6693547368049622
0.5970938801765442 0.11181651800870895 0.6674438118934631
0.6046435236930847 0.1121126264333725 0.6662102341651917
0.6067399382591248 0.11203961819410324 0.6659350991249084
0.6092534065246582 0.11286213248968124 0.6652069091796875
0.610704779624939 0.1136852353811264 0.6646338105201721
0.6131793260574341 0.11438517272472382 0.6639655828475952
0.6152423620223999 0.11649109423160553 0.6627400517463684
0.5571550726890564 0.14458006620407104 0.6578140258789062
0.5580266714096069 0.1440432071685791 0.6579225659370422
0.5559226274490356 0.1350545883178711 0.6621888875961304
0.5571290850639343 0.13256677985191345 0.6631073951721191
0.5575902462005615 0.13093966245651245 0.6637560725212097
0.5595906376838684 0.1278369426727295 0.6648279428482056
0.5671184062957764 0.11749012768268585 0.6682794094085693
0.5717123746871948 0.1133858859539032 0.6694118976593018
0.5724712610244751 0.11269734054803848 0.669603705406189
0.5741391777992249 0.11170585453510284 0.6697954535484314
0.5851190686225891 0.10820968449115753 0.6697230935096741
0.5894514322280884 0.10377832502126694 0.6710386872291565
0.5904889106750488 0.1037793830037117 0.6708856225013733
0.5926347970962524 0.10393504053354263 0.6705023050308228
0.5981916189193726 0.11179918050765991 0.6662245988845825
0.5993757843971252 0.11208395659923553 0.6659252643585205
0.6002983450889587 0.1117764413356781 0.6659252643585205
0.6025095582008362 0.11197672039270401 0.6655125021934509
0.6036324501037598 0.11210960149765015 0.6652892231941223
0.604785144329071 0.11230535805225372 0.6650334000587463
0.6057105660438538 0.11199687421321869 0.6650334000587463
0.6096434593200684 0.11358187347650528 0.6637588739395142
0.6111238598823547 0.11446218937635422 0.6631539463996887
0.5550081729888916 0.13540130853652954 0.6610873341560364
0.5552859902381897 0.1332211047410965 0.662010133266449
0.5571221709251404 0.12959885597229004 0.6633403897285461
0.5586532354354858 0.12807941436767578 0.6637855768203735
0.5595799684524536 0.12777049839496613 0.6637855768203735
0.5605822205543518 0.1276683807373047 0.6636831760406494
0.5626202821731567 0.1275499016046524 0.6634358763694763
0.5645739436149597 0.12719541788101196 0.6633045077323914
0.5658565759658813 0.12504705786705017 0.6640649437904358
0.5645279288291931 0.11876140534877777 0.6670388579368591
0.5652453303337097 0.11793149262666702 0.6672996282577515
0.5661607384681702 0.1176263689994812 0.6672996282577515
0.5675894618034363 0.11597051471471786 0.6678209900856018
0.5731597542762756 0.11176133900880814 0.668860673904419
0.575506865978241 0.11246843636035919 0.6682021021842957
0.5769511461257935 0.11348456889390945 0.667540431022644
0.5780110955238342 0.11353956162929535 0.6673598885536194
0.5805880427360535 0.1122128963470459 0.6675668954849243
0.5814180970191956 0.11170350760221481 0.6676694750785828
0.5822476744651794 0.11119449138641357 0.6677720546722412
0.5840668678283691 0.10561764240264893 0.6699689626693726
0.5923635363578796 0.10320894420146942 0.6698108315467834
0.5978606939315796 0.11093811690807343 0.6655858159065247
0.5993251800537109 0.11185646802186966 0.6649640798568726
0.6050071716308594 0.11267342418432236 0.6637658476829529
0.6071904301643372 0.11277766525745392 0.6633978486061096
0.6119554042816162 0.1161312535405159 0.661213755607605
0.6128904819488525 0.11581956595182419 0.661213755607605
0.5559900999069214 0.14423711597919464 0.655937135219574
0.5540916323661804 0.13574795424938202 0.6599836945533752
0.5543732047080994 0.13356570899486542 0.6609101295471191
0.5547813177108765 0.13176320493221283 0.661649227142334
0.564899206161499 0.12522153556346893 0.6630552411079407
0.563567578792572 0.11889847368001938 0.6660570502281189
0.5681185722351074 0.1146087497472763 0.6672871708869934
0.5688811540603638 0.11391809582710266 0.6674807667732239
0.570554256439209 0.11292456835508347 0.6676741242408752
0.5721613764762878 0.11177171766757965 0.6679476499557495
0.5735379457473755 0.1126410961151123 0.6673586964607239
0.5744502544403076 0.11233694106340408 0.6673586964607239
0.5826961398124695 0.10968094319105148 0.6673173904418945
0.5831342935562134 0.10576627403497696 0.6689890027046204
0.5866298079490662 0.10424405336380005 0.669147789478302
0.5875183939933777 0.10390046238899231 0.6691681742668152
0.5884074568748474 0.10355714708566666 0.6691896319389343
0.5902577042579651 0.10303854197263718 0.6691458821296692
0.5946110486984253 0.1034737229347229 0.6683093309402466
0.6014969944953918 0.11185311526060104 0.6635736227035522
0.602728545665741 0.11222755908966064 0.6632257699966431
0.6089964509010315 0.11425512284040451 0.6613998413085938
0.6108217239379883 0.11588400602340698 0.6604064106941223
0.5531741380691528 0.13609568774700165 0.6588783860206604
0.5534584522247314 0.1339101493358612 0.6598089337348938
0.5538395047187805 0.1320202648639679 0.6605938076972961
0.5557193756103516 0.12851582467556 0.6618759632110596
0.5566268563270569 0.12815117835998535 0.6619032621383667
0.5586310625076294 0.1279471516609192 0.6616968512535095
0.5605832934379578 0.12759239971637726 0.6615648865699768
0.562397301197052 0.12685778737068176 0.6616224646568298
0.5630137920379639 0.12570571899414062 0.6620441675186157
0.5626062750816345 0.1190355196595192 0.66507488489151
0.564044177532196 0.11737404018640518 0.6656007170677185
0.5711702108383179 0.11180166900157928 0.6670244336128235
0.5739181637763977 0.11352495104074478 0.6658493876457214
0.5748327970504761 0.11322006583213806 0.6658493876457214
0.5760725736618042 0.11372602730989456 0.6654400825500488
0.5785620212554932 0.11217523366212845 0.6657609939575195
0.5794769525527954 0.11187025904655457 0.6657609939575195
0.5803077220916748 0.11136037856340408 0.6658645272254944
0.5813477039337158 0.1063486710190773 0.6679418087005615
0.5822556018829346 0.10604603588581085 0.6679418087005615
0.5958898663520813 0.10625588893890381 0.6658251881599426
0.5969203114509583 0.10621225833892822 0.6656911969184875
0.5978354811668396 0.10590720921754837 0.6656911969184875
0.6041975021362305 0.11300218850374222 0.661587655544281
0.6064586639404297 0.11327168345451355 0.6611325144767761
0.6079320311546326 0.11415092647075653 0.6605223417282104
0.609688401222229 0.115636445581913 0.6596001982688904
0.5529998540878296 0.14474761486053467 0.6539492011070251
0.5513169169425964 0.13675639033317566 0.6577714681625366
0.5522547960281372 0.13644376397132874 0.6577714681625366
0.5525423884391785 0.13425549864768982 0.6587060689926147
0.5533758997917175 0.13067401945590973 0.660182535648346
0.5538537502288818 0.1290794163942337 0.6608244180679321
0.5576167106628418 0.12798286974430084 0.6607539653778076
0.5620537996292114 0.12588131427764893 0.6610319018363953
0.5607262253761292 0.11947817355394363 0.6640913486480713
0.5630844235420227 0.11751013994216919 0.6646196842193604
0.5645197033882141 0.11585409939289093 0.6651460528373718
0.5661928057670593 0.11483875662088394 0.6653503775596619
0.5677214860916138 0.11345686763525009 0.6657407283782959
0.5684839487075806 0.11276707798242569 0.6659355163574219
0.5714243650436401 0.11237755417823792 0.6656713485717773
0.5741854310035706 0.11412467807531357 0.66447913646698
0.5810980200767517 0.10565883666276932 0.6672325730323792
0.582005500793457 0.10535633563995361 0.6672325730323792
0.5846757292747498 0.10432527959346771 0.6672959327697754
0.5855655670166016 0.10398206114768982 0.6673166751861572
0.5864728093147278 0.10367964208126068 0.6673166751861572
0.588310956954956 0.10313057154417038 0.6672883629798889
0.5901843905448914 0.10266032814979553 0.6672197580337524
0.5920286178588867 0.10212239623069763 0.6671851277351379
0.60003262758255 0.1083490401506424 0.6632095575332642
0.6027758121490479 0.11209556460380554 0.6611267924308777
0.6059362292289734 0.11435797065496445 0.6596442461013794
0.6068679094314575 0.1140473484992981 0.6596442461013794
0.5519779920578003 0.14484472572803497 0.6529530882835388
0.5506888031959534 0.13491283357143402 0.6576011180877686
0.5519524216651917 0.13253618776798248 0.6584791541099548
0.5524341464042664 0.13093049824237823 0.659127414226532
0.5529143810272217 0.12933406233787537 0.6597714424133301
0.5555994510650635 0.12812109291553497 0.659913957118988
0.5566015839576721 0.12801900506019592 0.6598095893859863
0.5576146245002747 0.12794451415538788 0.6596918106079102
0.558639407157898 0.1278996765613556 0.6595589518547058
0.5604854226112366 0.1272454559803009 0.6595761775970459
0.5597625374794006 0.11961580812931061 0.6631072163581848
0.5604857206344604 0.1187828853726387 0.6633729934692383
0.5621236562728882 0.11764614284038544 0.6636378169059753
0.5635614395141602 0.11598902195692062 0.6641656756401062
0.5692214965820312 0.11195226013660431 0.6651303768157959
0.5732136368751526 0.1142183244228363 0.66351717710495
0.5740333795547485 0.113669253885746 0.6636408567428589
0.5766167044639587 0.11234212666749954 0.6638495326042175
0.577449381351471 0.11183204501867294 0.6639536023139954
0.5797812342643738 0.10738643258810043 0.6655995845794678
0.5949329137802124 0.10624469816684723 0.663846492767334
0.5969962477684021 0.10615681111812592 0.6635774970054626
0.5979127883911133 0.10585129261016846 0.6635774970054626
0.598946213722229 0.10580684244632721 0.6634424328804016
0.6022327542304993 0.1107696071267128 0.6607247591018677
0.6044242978096008 0.11326365917921066 0.6592785716056824
0.610005259513855 0.11843372136354446 0.6561242938041687
0.550955593585968 0.1449420005083084 0.6519572734832764
0.5497688055038452 0.13525980710983276 0.6564945578575134
0.5500733852386475 0.13310590386390686 0.6574190855026245
0.551490843296051 0.13118718564510345 0.6580701470375061
0.5519738793373108 0.12958930432796478 0.6587173938751221
0.5611619353294373 0.11778251081705093 0.6626541614532471
0.5633492469787598 0.11537351459264755 0.6634106040000916
0.5641166567802429 0.11468121409416199 0.6636071801185608
0.5657960176467896 0.11368531733751297 0.6638035178184509
0.5665604472160339 0.11299456655979156 0.6639998555183411
0.5683977603912354 0.11241810023784637 0.6639834046363831
0.5707401037216187 0.11312896013259888 0.6633119583129883
0.5730593800544739 0.11375731974840164 0.6626811027526855
0.5781481266021729 0.11091186106204987 0.6631988883018494
0.5791558027267456 0.10578320175409317 0.6653568148612976
0.5800466537475586 0.10543893277645111 0.6653775572776794
0.5827363133430481 0.10444854944944382 0.6654202342033386
0.5845175385475159 0.10376108437776566 0.66546231508255
0.5863616466522217 0.1032225638628006 0.6654276251792908
0.5882352590560913 0.10275157541036606 0.665358304977417
0.5901172161102295 0.10229627788066864 0.6652817726135254
0.5910256505012512 0.10199347138404846 0.6652817726135254
0.5939381122589111 0.10626089572906494 0.6629227995872498
0.6039661765098572 0.11212899535894394 0.6587753891944885
0.6066092252731323 0.11559651792049408 0.6568174362182617
0.5489895343780518 0.14538225531578064 0.6509469151496887
0.5488474369049072 0.13560719788074493 0.6553860306739807
0.5491450428962708 0.13342170417308807 0.656328558921814
0.5496145486831665 0.13175517320632935 0.6570118069648743
0.5505466461181641 0.13144448399543762 0.6570118069648743
0.5510317087173462 0.1298448145389557 0.6576614379882812
0.553640604019165 0.12840060889720917 0.6579208970069885
0.5545698404312134 0.12809087336063385 0.6579208970069885
0.5555729269981384 0.1279887557029724 0.6578161120414734
0.5565963983535767 0.12794236838817596 0.6576827764511108
0.5582438707351685 0.1267339438199997 0.6579806208610535
0.5598019361495972 0.12529189884662628 0.6583980321884155
0.55855792760849 0.11905692517757416 0.6614034175872803
0.5600050687789917 0.11739400774240494 0.6619364023208618
0.5711148381233215 0.11401709169149399 0.6617888808250427
0.5720863342285156 0.11385060846805573 0.6617175340652466
0.5746684074401855 0.11250968277454376 0.6619346737861633
0.5755025148391724 0.11199911683797836 0.6620402336120605
0.5773444771766663 0.1088547557592392 0.6631836295127869
0.5782569050788879 0.10855075716972351 0.6631836295127869
0.5835477709770203 0.10382247716188431 0.6645234227180481
0.5920265316963196 0.10658267140388489 0.6619985699653625
0.5950055718421936 0.10618919879198074 0.6617277264595032
0.5960381031036377 0.10614503920078278 0.6615923047065735
0.5969960689544678 0.1059303879737854 0.6615444421768188
0.5984982848167419 0.1045752763748169 0.6619306206703186
0.59908127784729 0.10352885723114014 0.6623163223266602
0.6001107096672058 0.10347617417573929 0.6621851325035095
0.6152076721191406 0.12954910099506378 0.6481269001960754
0.5482766032218933 0.14641809463500977 0.6494761109352112
0.5479239225387573 0.1359548419713974 0.6542754173278809
0.5482253432273865 0.1337672919034958 0.6552223563194275
0.5579110980033875 0.12577681243419647 0.6573828458786011
0.5588391423225403 0.12546740472316742 0.6573828458786011
0.5575925707817078 0.11919443309307098 0.6604167819023132
0.5590420365333557 0.11753003299236298 0.6609526872634888
0.5614152550697327 0.11560426652431488 0.6614667773246765
0.5621846914291382 0.11491100490093231 0.6616649031639099
0.5637206435203552 0.1135275587439537 0.6620607972145081
0.5677062273025513 0.11316964775323868 0.6616204380989075
0.5691360831260681 0.1141904816031456 0.6609411835670471
0.570052981376648 0.113884836435318 0.6609411835670471
0.5753623247146606 0.1115725040435791 0.6611872315406799
0.5761998891830444 0.11107292771339417 0.6612873673439026
0.5765780210494995 0.10943976789712906 0.6619706153869629
0.576339066028595 0.1063026413321495 0.6634297370910645
0.5772480964660645 0.10599963366985321 0.6634297370910645
0.5781022906303406 0.10556267946958542 0.6634993553161621
0.5807769298553467 0.10453042387962341 0.6635624170303345
0.5825769305229187 0.10388346761465073 0.663584291934967
0.5844382047653198 0.10338208824396133 0.6635302305221558
0.5862841010093689 0.10284356027841568 0.6634951233863831
0.5881600379943848 0.10237263888120651 0.6634254455566406
0.591030478477478 0.1065993681550026 0.6610735654830933
0.5981504917144775 0.1036825105547905 0.661320686340332
0.6023962497711182 0.10606898367404938 0.6595960259437561
0.6033174395561218 0.10576192289590836 0.6595960259437561
0.6103313565254211 0.1187661662697792 0.6526369452476501
0.5478089451789856 0.1450127512216568 0.6490751504898071
0.5460605025291443 0.13661636412143707 0.6531631350517273
0.547720193862915 0.132270947098732 0.6548898220062256
0.5482122302055359 0.1306668072938919 0.6555452942848206
0.5487025380134583 0.12907107174396515 0.6561976075172424
0.5526083111763 0.1283707171678543 0.6559242606163025
0.5545513033866882 0.1279851794242859 0.6558041572570801
0.5563252568244934 0.1271219402551651 0.6559283137321472
0.5557072162628174 0.11963825672864914 0.6594297289848328
0.5566260814666748 0.11933206766843796 0.6594297289848328
0.5580782294273376 0.11766642332077026 0.6599677205085754
0.5627554655075073 0.1136418953537941 0.6610894799232483
0.5644357204437256 0.11264629662036896 0.6612877249717712
0.5692203640937805 0.11434364318847656 0.6597890257835388
0.5701382756233215 0.11403767019510269 0.6597890257835388
0.5709633231163025 0.1134946197271347 0.6599109768867493
0.573470950126648 0.11196120828390121 0.6602290868759155
0.575400173664093 0.10645201802253723 0.6624444127082825
0.5816055536270142 0.10394494980573654 0.6626440286636353
0.5920948386192322 0.10652805119752884 0.6598761081695557
0.5940450429916382 0.1061779037117958 0.6597395539283752
0.5957147479057312 0.105190210044384 0.6599353551864624
0.5972182750701904 0.10383642464876175 0.6603241562843323
0.5983867645263672 0.10175061970949173 0.6610963344573975
0.600989818572998 0.10284995287656784 0.6602005958557129
0.6056327223777771 0.10837651044130325 0.656979501247406
0.6127551794052124 0.12154451757669449 0.6499032974243164
0.5451333522796631 0.13696539402008057 0.65204918384552
0.5454443097114563 0.1347714513540268 0.6530045866966248
0.5463809370994568 0.1344592422246933 0.6530045866966248
0.5467709302902222 0.13252905011177063 0.6538268327713013
0.5472654700279236 0.1309230476617813 0.6544857621192932
0.5477575063705444 0.129323348402977 0.6551415920257568
0.5486557483673096 0.1289212852716446 0.6551886796951294
0.5505871176719666 0.1285092830657959 0.6550824046134949
0.5571134686470032 0.11780271679162979 0.6589813828468323
0.5593342781066895 0.11544700711965561 0.6597191691398621
0.5602497458457947 0.1151418462395668 0.6597191691398621
0.5617892146110535 0.11375633627176285 0.6601178646087646
0.5655871629714966 0.11290546506643295 0.659928560256958
0.5670117139816284 0.1139252707362175 0.6592450737953186
0.5690672993659973 0.11388525366783142 0.6589506268501282
0.5724949836730957 0.11204514652490616 0.6592692732810974
0.5733325481414795 0.11153969913721085 0.6593725681304932
0.5742489695549011 0.11123417317867279 0.6593725681304932
0.5745564103126526 0.10683993995189667 0.6613338589668274
0.5752453804016113 0.10599008947610855 0.6616171002388
0.5761379599571228 0.10564552992582321 0.6616392135620117
0.5788322687149048 0.10465354472398758 0.6616818904876709
0.5806363224983215 0.10401325672864914 0.661699652671814
0.5815455913543701 0.10371018201112747 0.661699652671814
0.5824832320213318 0.10347455739974976 0.6616647243499756
0.5843587517738342 0.10300292074680328 0.6615943312644958
0.5862069725990295 0.10246428102254868 0.6615591645240784
0.5890362858772278 0.10663201659917831 0.6592230200767517
0.5900664925575256 0.10658852010965347 0.6590859889984131
0.5959560871124268 0.10324978083372116 0.6597150564193726
0.596871554851532 0.10294461995363235 0.6597150564193726
0.5974565148353577 0.10190299898386002 0.6601012349128723
0.5993916988372803 0.10152895003557205 0.6599782109260559
0.6008005738258362 0.10231289267539978 0.6594048142433167
0.6033240556716919 0.10321017354726791 0.658610463142395
0.6079713702201843 0.11101164668798447 0.6543379426002502
0.615208089351654 0.12435393780469894 0.6471381783485413
0.5457566976547241 0.1452077031135559 0.6470756530761719
0.5442044734954834 0.13731549680233002 0.6509326696395874
0.5445186495780945 0.13511799275875092 0.6518927216529846
0.5448856949806213 0.13309931755065918 0.6527621150016785
0.5463171005249023 0.13117922842502594 0.6534243822097778
0.5515734553337097 0.1283406913280487 0.6539225578308105
0.5525967478752136 0.128293976187706 0.6537874341011047
0.5534709095954895 0.1278207153081894 0.653870701789856
0.5544021725654602 0.12751030921936035 0.653870701789856
0.5537705421447754 0.11991370469331741 0.6574522852897644
0.5545005202293396 0.1190788596868515 0.6577234268188477
0.5561476945877075 0.11793938279151917 0.6579945087432861
0.560822606086731 0.11387134343385696 0.6591449975967407
0.5624029636383057 0.11260275542736053 0.6594852805137634
0.5672679543495178 0.11453089118003845 0.657857358455658
0.5680902600288391 0.11397535353899002 0.6579861640930176
0.5737375020980835 0.10729484260082245 0.660187304019928
0.5871213674545288 0.10695435106754303 0.658297061920166
0.5911307334899902 0.10651671886444092 0.6578850150108337
0.5921633839607239 0.10647286474704742 0.6577467322349548
0.593843400478363 0.10550033301115036 0.6579357385635376
0.5972513556480408 0.10132875293493271 0.6593286991119385
0.6006821393966675 0.10193168371915817 0.6585274934768677
0.6031633019447327 0.10273528844118118 0.6577796339988708
0.6049189567565918 0.10424824804067612 0.6568167805671692
0.6103562116622925 0.11371766775846481 0.6516422629356384
0.543776273727417 0.1456233561038971 0.6460745334625244
0.5432742238044739 0.13766571879386902 0.6498149037361145
0.5435916185379028 0.1354658007621765 0.650779128074646
0.543933629989624 0.13335886597633362 0.6516969799995422
0.5444343686103821 0.13174743950366974 0.6523612141609192
0.5458648800849915 0.12983466684818268 0.6530226469039917
0.5466160178184509 0.1289938986301422 0.6532942652702332
0.5486195087432861 0.1287892609834671 0.6530812382698059
0.5528008341789246 0.12005151808261871 0.6564618349075317
0.5549907684326172 0.11755012720823288 0.6572771668434143
0.5573946237564087 0.11567817628383636 0.6577700972557068
0.5581677556037903 0.11498404294252396 0.6579709649085999
0.5598546862602234 0.11398600041866302 0.6581715941429138
0.5639699101448059 0.1139657124876976 0.6575493812561035
0.5648869276046753 0.11366003751754761 0.6575493812561035
0.567947268486023 0.11354218423366547 0.657134473323822
0.5705406665802002 0.11221212893724442 0.6573483347892761
0.5713773965835571 0.11170154064893723 0.657454788684845
0.5722284317016602 0.1112285703420639 0.6575421094894409
0.5720049142837524 0.10805530101060867 0.6590378284454346
0.5729172229766846 0.10775118321180344 0.6590378284454346
0.5741876363754272 0.10576992481946945 0.65975421667099
0.5768841505050659 0.10477694869041443 0.6597980856895447
0.5786774158477783 0.10410622507333755 0.6598311066627502
0.5796155333518982 0.10387032479047775 0.6597959399223328
0.5805532932281494 0.10363446176052094 0.6597602963447571
0.5824018716812134 0.10309521108865738 0.6597257256507874
0.5843634605407715 0.1028217002749443 0.659550130367279
0.5871515870094299 0.10692720115184784 0.6572322845458984
0.5880696177482605 0.10662119090557098 0.6572322845458984
0.5919874906539917 0.10596208274364471 0.6569347977638245
0.5940889716148376 0.10355713218450546 0.6577194929122925
0.5953707695007324 0.10170726478099823 0.6583739519119263
0.598526656627655 0.1017087996006012 0.6578891277313232
0.6008391380310059 0.10215619951486588 0.6573287844657898
0.6017568111419678 0.10185029357671738 0.6573287844657898
0.6047530174255371 0.10376190394163132 0.655988872051239
0.6086083650588989 0.10980406403541565 0.6526158452033997
0.6127707958221436 0.11645709723234177 0.6489138007164001
0.5427477955818176 0.1457212120294571 0.6450731754302979
0.544581949710846 0.14486370980739594 0.6451870203018188
0.5426627993583679 0.13581351935863495 0.6496634483337402
0.5439848899841309 0.13040132820606232 0.6519606113433838
0.544916570186615 0.13009069859981537 0.6519606113433838
0.5505459308624268 0.1283370703458786 0.6519040465354919
0.5527936816215515 0.12584811449050903 0.6527076363563538
0.5525624752044678 0.1193537637591362 0.6557440757751465
0.5587422251701355 0.11371291428804398 0.6573986411094666
0.560457706451416 0.11279720067977905 0.6575573086738586
0.5643300414085388 0.1148589476943016 0.6560086607933044
0.5712212920188904 0.10861320793628693 0.6578328013420105
0.5714071989059448 0.10648046433925629 0.6587894558906555
0.5732115507125854 0.10583183914422989 0.6588111519813538
0.5901646614074707 0.10650575906038284 0.6558894515037537
0.5931537747383118 0.10371094942092896 0.6567195057868958
0.5944035053253174 0.10178060084581375 0.6574192643165588
0.5963741540908813 0.10148637741804123 0.657252311706543
0.5998172760009766 0.10211232304573059 0.6564319729804993
0.6032605171203613 0.10269972681999207 0.6556307077407837
0.6084669232368469 0.10936964303255081 0.6517474055290222
0.6102370023727417 0.10854416340589523 0.6518563032150269
0.5419156551361084 0.14643272757530212 0.6437556743621826
0.5407927632331848 0.13647562265396118 0.648546040058136
0.542054295539856 0.13396914303302765 0.6495136022567749
0.5436429977416992 0.1293768584728241 0.651397168636322
0.544573962688446 0.12906652688980103 0.651397168636322
0.5465769171714783 0.12886188924312592 0.6511828303337097
0.5485870838165283 0.12866926193237305 0.6509613990783691
0.5511941313743591 0.12719206511974335 0.6512432098388672
0.5506717562675476 0.11979837715625763 0.6547524929046631
0.5530558824539185 0.11782313138246536 0.6553000211715698
0.5545339584350586 0.11621543020009995 0.655816912651062
0.5554510354995728 0.11590970307588577 0.655816912651062
0.5577734708786011 0.11382759362459183 0.6564239859580994
0.5618454217910767 0.11370092630386353 0.6558530926704407
0.5632649064064026 0.11472591757774353 0.6551584601402283
0.5642386674880981 0.11456302553415298 0.6550835371017456
0.5659856200218201 0.11371059715747833 0.6552083492279053
0.5668256878852844 0.1131981834769249 0.6553164124488831
0.5685030221939087 0.11217433959245682 0.6555321216583252
0.569421112537384 0.11186832189559937 0.6555321216583252
0.5702716708183289 0.11139031499624252 0.6556223034858704
0.5704296827316284 0.10654305666685104 0.6578453183174133
0.5722348093986511 0.10589418560266495 0.6578677296638489
0.574022650718689 0.10520431399345398 0.6579105854034424
0.5767207741737366 0.10421121120452881 0.6579545140266418
0.5776543021202087 0.10396326333284378 0.6579251885414124
0.5785924196243286 0.10372671484947205 0.6578894853591919
0.580470085144043 0.10325495898723602 0.6578179001808167
0.5823203921318054 0.1027151495218277 0.6577824354171753
0.5851521492004395 0.10696031898260117 0.6553768515586853
0.5861818790435791 0.10691668093204498 0.6552373766899109
0.5881317853927612 0.10656629502773285 0.6550979614257812
0.5907054543495178 0.10522086173295975 0.6553246378898621
0.5922178030014038 0.10386515408754349 0.655719518661499
0.5934354662895203 0.10185454040765762 0.6564635634422302
0.5976593494415283 0.10188915580511093 0.6557947993278503
0.5988083481788635 0.10209815204143524 0.6555195450782776
0.600052535533905 0.10251248627901077 0.6551356315612793
0.60748690366745 0.1094503328204155 0.6507688164710999
0.5415704250335693 0.14537717401981354 0.643181324005127
0.5398603677749634 0.13682547211647034 0.6474267244338989
0.5401884913444519 0.13462869822978973 0.6483984589576721
0.5415765643119812 0.1325223743915558 0.6491634249687195
0.5420833230018616 0.1309153139591217 0.6498324871063232
0.5485838651657104 0.1286463439464569 0.6498801112174988
0.5496997833251953 0.11993660777807236 0.653760552406311
0.5560294389724731 0.11463597416877747 0.6552457809448242
0.5568033456802368 0.11394231021404266 0.6554486751556396
0.5584580898284912 0.11285490542650223 0.655697762966156
0.5696684122085571 0.10978531837463379 0.6553866863250732
0.5694832801818848 0.10668734461069107 0.6568579077720642
0.5712403655052185 0.10591502487659454 0.6569443941116333
0.5891684293746948 0.10642967373132706 0.6539238095283508
0.5897665023803711 0.10537619143724442 0.6543213129043579
0.590958297252655 0.10327883809804916 0.6551125645637512
0.5924672484397888 0.10192953795194626 0.6555064916610718
0.5945877432823181 0.10197167843580246 0.6551578640937805
0.595733106136322 0.10218077152967453 0.6548828482627869
0.5977993011474609 0.10208404809236526 0.6546077728271484
0.6002892851829529 0.10291566699743271 0.6538341641426086
0.6024758815765381 0.10305816680192947 0.6534281969070435
0.6065064072608948 0.10953115671873093 0.6497905850410461
0.6090224981307983 0.10798681527376175 0.6501192450523376
0.5392572283744812 0.13497589528560638 0.6472812294960022
0.5396851897239685 0.13309338688850403 0.6480940580368042
0.5411303639411926 0.13117264211177826 0.6487659811973572
0.5416366457939148 0.12956832349300385 0.6494365334510803
0.5425981879234314 0.1293478012084961 0.6493898034095764
0.544532060623169 0.12893453240394592 0.6492817997932434
0.5465377569198608 0.1287299245595932 0.6490647792816162
0.5483296513557434 0.12789247930049896 0.6491774320602417
0.5487269759178162 0.12007442861795425 0.6527671813964844
0.5501975417137146 0.11840324848890305 0.6533190011978149
0.5518498420715332 0.11726405471563339 0.6535940766334534
0.5525862574577332 0.1164475828409195 0.6538611054420471
0.553364098072052 0.11575178802013397 0.6540644764900208
0.5611351132392883 0.1144605353474617 0.6534579396247864
0.5622788667678833 0.11475101858377457 0.653144359588623
0.563943088054657 0.11367350816726685 0.6533881425857544
0.5648626089096069 0.1133670061826706 0.6533881425857544
0.56654292345047 0.11234220117330551 0.6536054611206055
0.567392885684967 0.11185827106237411 0.6536989808082581
0.5679722428321838 0.11067954450845718 0.6541592478752136
0.5685542821884155 0.106877900660038 0.6558446288108826
0.5702621936798096 0.10597744584083557 0.6559990048408508
0.5775682926177979 0.10358384996652603 0.6559799313545227
0.5785075426101685 0.10334756970405579 0.6559438109397888
0.5822310447692871 0.10730001330375671 0.6535179018974304
0.5841793417930603 0.10694976150989532 0.6533776521682739
0.5862412452697754 0.10686217248439789 0.6530976891517639
0.5888261795043945 0.10553145408630371 0.6533171534538269
0.5947235226631165 0.10216624289751053 0.6539707183837891
0.5967893004417419 0.10206948220729828 0.6536946892738342
0.5980032682418823 0.10242155939340591 0.6533410549163818
0.6045911312103271 0.10992360860109329 0.6488108038902283
0.6080429553985596 0.10806691646575928 0.6491402983665466
0.610543429851532 0.10880742222070694 0.6484057307243347
0.5385539531707764 0.14589090645313263 0.6411725282669067
0.5379902124404907 0.13752630352973938 0.645182192325592
0.5387277007102966 0.13335275650024414 0.6470234394073486
0.5392415523529053 0.13174158334732056 0.6476982235908508
0.5401760339736938 0.13143008947372437 0.6476982235908508
0.5465272665023804 0.1286897212266922 0.6479906439781189
0.5479847192764282 0.12687383592128754 0.6486144661903381
0.5477532148361206 0.12021293491125107 0.6517732739448547
0.5499610304832458 0.11770720779895782 0.6526033282279968
0.5523896813392639 0.11586806178092957 0.6530855298042297
0.5548610091209412 0.11417236924171448 0.6534948348999023
0.5556411147117615 0.11349321156740189 0.653690755367279
0.5564699172973633 0.11295068264007568 0.6538156867027283
0.5591508150100708 0.11463415622711182 0.6526080369949341
0.566814661026001 0.10763773322105408 0.654689610004425
0.5728800296783447 0.10469997674226761 0.6551195383071899
0.5747347474098206 0.10417013615369797 0.6550779938697815
0.5756740570068359 0.10393393784761429 0.6550421118736267
0.5812287926673889 0.10731673985719681 0.6525877118110657
0.5869647860527039 0.1059938594698906 0.6523116827011108
0.5890831351280212 0.10358680784702301 0.6531091928482056
0.5905115604400635 0.10204047709703445 0.6536112427711487
0.591427743434906 0.10173507034778595 0.6536112427711487
0.5925694108009338 0.10194291919469833 0.6533347368240356
0.5937135815620422 0.10215208679437637 0.6530579328536987
0.5994991660118103 0.10327445715665817 0.6516277194023132
0.6036086678504944 0.11000470072031021 0.6478303074836731
0.6044496893882751 0.10948886722326279 0.6479408144950867
0.6083765029907227 0.10865925252437592 0.6477159857749939
0.5375211238861084 0.14598895609378815 0.6401669383049011
0.5361098647117615 0.13819172978401184 0.6440573334693909
0.5373908281326294 0.13567200303077698 0.6450421810150146
0.537769079208374 0.1336127519607544 0.6459510326385498
0.540550172328949 0.1294209510087967 0.6474876999855042
0.5425535440444946 0.1292160600423813 0.6472695469856262
0.5444900989532471 0.12880274653434753 0.6471604704856873
0.5470170378684998 0.12706823647022247 0.6475802063941956
0.5458560585975647 0.12065847963094711 0.6507778763771057
0.5475171208381653 0.11951407790184021 0.651056170463562
0.548254132270813 0.11867805570363998 0.6513336896896362
0.5489900708198547 0.11784365773200989 0.6516111493110657
0.550643265247345 0.11670497804880142 0.6518874168395996
0.5514148473739624 0.11598411947488785 0.6521057486534119
0.553747832775116 0.11389879137277603 0.6527209877967834
0.5580854415893555 0.11450110375881195 0.651757001876831
0.5603154897689819 0.11493949592113495 0.6512011885643005
0.5619761943817139 0.11384286731481552 0.6514573097229004
0.5628184080123901 0.11332967877388 0.6515664458274841
0.564579427242279 0.1125103309750557 0.6516755819320679
0.5662835836410522 0.11154687404632568 0.6518614292144775
0.5659855008125305 0.1080952063202858 0.653532862663269
0.5691989660263062 0.10575665533542633 0.6541284322738647
0.5802260041236877 0.1073337122797966 0.6516567468643188
0.5822843313217163 0.10724608600139618 0.6513752937316895
0.584235668182373 0.10689511895179749 0.65123450756073
0.5860218405723572 0.10614963620901108 0.6513053178787231
0.5866243243217468 0.10509621351957321 0.6517065167427063
0.5938490033149719 0.10234743356704712 0.6518667936325073
0.595032274723053 0.1026371568441391 0.6515446901321411
0.5962883830070496 0.10308569669723511 0.6511368155479431
0.6034667491912842 0.10956971347332001 0.6469600796699524
0.606082022190094 0.10822777450084686 0.6471814513206482
0.5364738702774048 0.14604337513446808 0.6391835808753967
0.537371039390564 0.14553970098495483 0.639280378818512
0.5355141162872314 0.13633474707603455 0.6439192295074463
0.536454975605011 0.13602113723754883 0.6439192295074463
0.5378439426422119 0.13064904510974884 0.6462376117706299
0.5385922193527222 0.12976807355880737 0.6465356349945068
