ply
format ascii 1.0
element vertex 808
property float x
property float y
property float z
end_header
0.4808509051799774 -0.04790246859192848 0.662193238735199
0.4796455204486847 -0.04710972681641579 0.6619840264320374
0.47497138381004333 -0.04374994710087776 0.661316990852356
0.47317665815353394 -0.041484810411930084 0.6615555882453918
0.4718201756477356 -0.031666349619627 0.6658507585525513
0.4697117209434509 0.009980523027479649 0.685918390750885
0.4677950441837311 0.011776940897107124 0.6858572363853455
0.4658777117729187 0.013574345037341118 0.6857964992523193
0.4629889130592346 0.016262810677289963 0.6856947541236877
0.47553732991218567 -0.07287087291479111 0.6458982825279236
0.4765912592411041 -0.0704798772931099 0.6476520299911499
0.47606244683265686 -0.06995094567537308 0.6476520299911499
0.4757749140262604 -0.06460262835025787 0.6502285003662109
0.47679048776626587 -0.062317587435245514 0.651908814907074
0.4775567054748535 -0.059221621602773666 0.6538750529289246
0.4759507477283478 -0.05772605910897255 0.6538187861442566
0.48214274644851685 -0.04863128438591957 0.6616013646125793
0.4816550016403198 -0.048108216375112534 0.6616194844245911
0.48115038871765137 -0.04760371521115303 0.6616194844245911
0.4782210886478424 -0.04552403837442398 0.6611866354942322
0.4742008447647095 -0.041459821164608 0.6612092852592468
0.47362110018730164 -0.03589306026697159 0.663748025894165
0.4726811647415161 0.008273230865597725 0.6857545375823975
0.4664469361305237 0.014095054008066654 0.6855447292327881
0.47419315576553345 -0.07567653059959412 0.6428514122962952
0.4757887125015259 -0.07032456248998642 0.6463990807533264
0.4758617579936981 -0.06795062124729156 0.6476487517356873
0.47603660821914673 -0.06547784060239792 0.6490010023117065
0.47551119327545166 -0.0649522989988327 0.6490010023117065
0.4770769476890564 -0.05759856849908829 0.6535556316375732
0.4809458553791046 -0.051076024770736694 0.6588621735572815
0.4769841730594635 -0.04373178258538246 0.660589337348938
0.4691595137119293 -0.013844667002558708 0.671855628490448
0.46076247096061707 0.020428385585546494 0.68506920337677
0.47282469272613525 -0.0785304605960846 0.6397525668144226
0.47391176223754883 -0.07606779783964157 0.6415708661079407
0.4749833941459656 -0.07363689690828323 0.6433649063110352
0.4760451018810272 -0.07123124599456787 0.6451408267021179
0.4755139946937561 -0.07070013135671616 0.6451408267021179
0.4763065278530121 -0.06748580932617188 0.6471930742263794
0.4757726490497589 -0.06583008915185928 0.647767961025238
0.4762689769268036 -0.06300488859415054 0.649469256401062
0.4772804081439972 -0.06073208525776863 0.6511512398719788
0.4782766103744507 -0.05848940834403038 0.6528105139732361
0.47839272022247314 -0.057254452258348465 0.6535021662712097
0.47775396704673767 -0.05577833205461502 0.6539314389228821
0.480701208114624 -0.051386330276727676 0.6576904654502869
0.48166021704673767 -0.049239642918109894 0.6592813730239868
0.4822157323360443 -0.04755297303199768 0.6604297757148743
0.48008811473846436 -0.045654479414224625 0.660312294960022
0.47478973865509033 0.008456612005829811 0.6853146553039551
0.4685453474521637 0.014243649318814278 0.6850804090499878
0.4623127281665802 0.020059362053871155 0.6848669052124023
0.4579905867576599 0.024089831858873367 0.6847174167633057
0.46856069564819336 -0.08364659547805786 0.6339886784553528
0.47577014565467834 -0.07160928845405579 0.6438772082328796
0.47629454731941223 -0.06869432330131531 0.6456440687179565
0.477021723985672 -0.06107114255428314 0.6499342918395996
0.4780256748199463 -0.05881703272461891 0.6516080498695374
0.4790995717048645 -0.054304998368024826 0.6544779539108276
0.48237019777297974 -0.04741538688540459 0.659697949886322
0.48186519742012024 -0.04691062495112419 0.659697949886322
0.48102182149887085 -0.04571831226348877 0.6598771214485168
0.4799656867980957 -0.04476046934723854 0.6598267555236816
0.4789736866950989 -0.04373274743556976 0.6598448753356934
0.47010090947151184 -0.011050158180296421 0.6720778942108154
0.47630074620246887 0.00808707159012556 0.6850950121879578
0.4589921236038208 0.024108977988362312 0.6844340562820435
0.46937623620033264 -0.08154483139514923 0.6345306038856506
0.47442489862442017 -0.0744091346859932 0.6408097147941589
0.47574302554130554 -0.06369804590940475 0.6470086574554443
0.4777691960334778 -0.05915084853768349 0.6503959894180298
0.47923535108566284 -0.05419108271598816 0.6537075638771057
0.4802106022834778 -0.05200977995991707 0.6553342342376709
0.48117494583129883 -0.04985200986266136 0.6569432020187378
0.4787854552268982 -0.041863542050123215 0.6598285436630249
0.47065895795822144 0.014412296935915947 0.684641420841217
0.4644192159175873 0.020196521654725075 0.684406578540802
0.4600263237953186 0.024154961109161377 0.6841825842857361
0.4741438031196594 -0.07479790598154068 0.639523446559906
0.4752165377140045 -0.07237063348293304 0.6413326263427734
0.47468194365501404 -0.07183590531349182 0.6413326263427734
0.4757464528083801 -0.06943854689598083 0.6431219577789307
0.4767986834049225 -0.06706902384757996 0.6448908448219299
0.477037250995636 -0.06565318256616592 0.6457459926605225
0.4759076237678528 -0.06468594074249268 0.6456618905067444
0.47650057077407837 -0.06175363063812256 0.6474842429161072
0.4775116741657257 -0.05948592349886894 0.6491789817810059
0.47850966453552246 -0.05724598094820976 0.650852620601654
0.4779913127422333 -0.05672774091362953 0.650852620601654
0.47996339201927185 -0.05232365429401398 0.654148519039154
0.4809313416481018 -0.05015941709280014 0.655767560005188
0.48138168454170227 -0.04751221463084221 0.6573684811592102
0.48217225074768066 -0.04557371512055397 0.6587792634963989
0.48097530007362366 -0.04371451959013939 0.6591214537620544
0.4745880663394928 -0.016197947785258293 0.6700433492660522
0.47839266061782837 0.00826895609498024 0.6846568584442139
0.47217226028442383 0.014036153443157673 0.6844225525856018
0.46157729625701904 0.023785481229424477 0.6839852929115295
0.46105846762657166 0.02420085109770298 0.683931827545166
0.4595591425895691 0.025493457913398743 0.6838250756263733
0.458528608083725 0.02633238583803177 0.683725893497467
0.4699299931526184 -0.07981836050748825 0.6337929368019104
0.475470632314682 -0.06981296092271805 0.6418529748916626
0.47652700543403625 -0.06743596494197845 0.6436331868171692
0.4757494330406189 -0.06378257274627686 0.6451242566108704
0.47623854875564575 -0.06209701672196388 0.6462516784667969
0.4772532880306244 -0.05982271209359169 0.6479569673538208
0.4782566726207733 -0.05757395550608635 0.6496430039405823
0.4777372181415558 -0.05705462768673897 0.6496430039405823
0.4787307679653168 -0.05483533442020416 0.6513086557388306
0.47971466183662415 -0.05263924226164818 0.6529573202133179
0.48209208250045776 -0.0456935353577137 0.6577910780906677
0.4753446578979492 -0.01545682456344366 0.6699696183204651
0.46892935037612915 0.018126217648386955 0.6840550899505615
0.4670218825340271 0.019909949973225594 0.6839908957481384
0.4665394127368927 0.020351463928818703 0.6839697957038879
0.465561181306839 0.021224534139037132 0.6839151382446289
0.46208852529525757 0.02424679882824421 0.6836817264556885
0.474658340215683 -0.07313840091228485 0.6387661099433899
0.47679638862609863 -0.06376007944345474 0.6447550058364868
0.47946488857269287 -0.05295602232217789 0.6517611742019653
0.48043957352638245 -0.05077952891588211 0.653400182723999
0.4814040958881378 -0.04862668365240097 0.6550211906433105
0.4818514883518219 -0.04599122703075409 0.656624436378479
0.4827048182487488 -0.04398954659700394 0.658109188079834
0.481799840927124 -0.03972844034433365 0.6598544716835022
0.4817535877227783 -0.03564271330833435 0.6619553565979004
0.4859856069087982 0.002064184984192252 0.683765172958374
0.4804535508155823 0.00843080598860979 0.6841992139816284
0.47617247700691223 0.012425615452229977 0.6840503215789795
0.47427061200141907 0.014204603619873524 0.6839866042137146
0.4737894535064697 0.01464470662176609 0.6839649677276611
0.46058985590934753 0.026417087763547897 0.6832227110862732
0.47049108147621155 -0.07808686792850494 0.6330675482749939
0.46994534134864807 -0.07754100114107132 0.6330675482749939
0.47491559386253357 -0.07056670635938644 0.6392980813980103
0.4770303964614868 -0.06581173092126846 0.642881453037262
0.4767327308654785 -0.06050040200352669 0.6454967260360718
0.47722184658050537 -0.057716868817806244 0.6472039818763733
0.4782240390777588 -0.055482830852270126 0.6488918662071228
0.4811600148677826 -0.04893266037106514 0.6538401246070862
0.48160991072654724 -0.04628971591591835 0.655453085899353
0.4831763505935669 -0.04350145533680916 0.6577246785163879
0.4814915359020233 0.008521195501089096 0.6839818954467773
0.46908465027809143 0.02002698741853237 0.6835118532180786
0.4666103422641754 0.022177444770932198 0.6833428740501404
0.47570425271987915 -0.06854689866304398 0.639826238155365
0.47675982117652893 -0.0661754310131073 0.6416191458702087
0.47780030965805054 -0.06383450329303741 0.6433883309364319
0.47748517990112305 -0.05857263132929802 0.6459766030311584
0.47796815633773804 -0.055809542536735535 0.6476749181747437
0.4789619445800781 -0.053594574332237244 0.6493535041809082
0.47994422912597656 -0.051404643803834915 0.6510133743286133
0.48328807950019836 -0.02998647280037403 0.6639688014984131
0.4797598421573639 -0.018785906955599785 0.6679828763008118
0.4858572483062744 0.0055253226310014725 0.6838927865028381
0.48300597071647644 0.00817292183637619 0.6837860941886902
0.4763593375682831 0.01437219325453043 0.6835520267486572
0.47206005454063416 0.018346114084124565 0.683381974697113
0.46310070157051086 0.026040667667984962 0.6827201247215271
0.4613533020019531 0.026317251846194267 0.6819504499435425
0.4576573669910431 0.02510451339185238 0.6793823838233948
0.47783273458480835 -0.061583012342453 0.6436591148376465
0.4796949625015259 -0.05171937122941017 0.6498124599456787
0.4806693196296692 -0.04954799264669418 0.6514632701873779
0.48403871059417725 0.008263389579951763 0.6835697293281555
0.46865007281303406 0.02227267436683178 0.682845950126648
0.4641256034374237 0.02608448639512062 0.6824719905853271
0.4587132930755615 0.02433515153825283 0.6787135601043701
0.4751489758491516 -0.06929660588502884 0.6372596621513367
0.4762131869792938 -0.06690948456525803 0.6390761733055115
0.4772629737854004 -0.06455229967832565 0.6408695578575134
0.47758805751800537 -0.05965884402394295 0.6436166167259216
0.47745341062545776 -0.056467004120349884 0.6452255845069885
0.4784550070762634 -0.05423818901181221 0.6469261646270752
0.4856390953063965 -0.044054657220840454 0.6560677886009216
0.4857759177684784 -0.03759939968585968 0.659537672996521
0.48379752039909363 -0.023498889058828354 0.6659184694290161
0.47460517287254333 0.018044566735625267 0.6829469799995422
0.46047067642211914 0.024936974048614502 0.6791348457336426
0.4759374260902405 -0.06727971136569977 0.6377955079078674
0.4769929349422455 -0.06491322815418243 0.6396023035049438
0.47776105999946594 -0.06175756826996803 0.6416738033294678
0.47861090302467346 -0.0596599280834198 0.6432300806045532
0.47725045680999756 -0.057847511023283005 0.6434687376022339
0.47819945216178894 -0.054562393575906754 0.6457041501998901
0.47919315099716187 -0.052352335304021835 0.647395670413971
0.4817160964012146 -0.01587439514696598 0.6679863333702087
0.4860759973526001 0.008424296975135803 0.6831169724464417
0.47068148851394653 0.022367514669895172 0.6823506951332092
0.4686274826526642 0.024016965180635452 0.6821370720863342
0.4666270911693573 0.02571381814777851 0.6819767951965332
0.4661048948764801 0.026121532544493675 0.6819164156913757
0.46564680337905884 0.026579661294817924 0.6819164156913757
0.45716360211372375 0.022429559379816055 0.6752467155456543
0.4784470796585083 -0.05765135586261749 0.6432807445526123
0.47794225811958313 -0.05488855764269829 0.6444762945175171
0.4875728189945221 -0.039864324033260345 0.6575324535369873
0.4877135753631592 -0.03554344177246094 0.6598953008651733
0.4873155355453491 -0.027818910777568817 0.6637749671936035
0.48540905117988586 -0.021859319880604744 0.6659212708473206
0.48333004117012024 0.012045244686305523 0.6827747225761414
0.48096540570259094 0.014249260537326336 0.6826895475387573
0.4766053855419159 0.018135279417037964 0.6824386715888977
0.47414377331733704 0.020267317071557045 0.6822640299797058
0.4706691801548004 0.023238493129611015 0.6819973587989807
0.45872825384140015 0.02287682145833969 0.6754823923110962
0.4753825068473816 -0.0680244117975235 0.63521808385849
0.47650161385536194 -0.06557907909154892 0.637111246585846
0.47596901655197144 -0.06504637002944946 0.637111246585846
0.477881520986557 -0.06171279028058052 0.6398978233337402
0.4800064265727997 -0.05815694481134415 0.6429151892662048
0.4786686599254608 -0.055218517780303955 0.643765389919281
0.4882792532444 -0.042278800159692764 0.6557430028915405
0.4950251877307892 -0.00359540362842381 0.6798726916313171
0.4843372106552124 0.012112108990550041 0.6825389862060547
0.48004844784736633 0.016044672578573227 0.6823496222496033
0.47316139936447144 0.022005511447787285 0.681857705116272
0.4706569314002991 0.02410837635397911 0.6816444396972656
0.4555974006652832 0.020498743280768394 0.671728253364563
0.4763551950454712 -0.06579768657684326 0.6359736323356628
0.47582170367240906 -0.06526406109333038 0.6359736323356628
0.4788810610771179 -0.06061418727040291 0.6400808691978455
0.4894413948059082 -0.037863269448280334 0.6578274369239807
0.48933133482933044 -0.03383506461977959 0.6599147915840149
0.47863519191741943 0.01825723797082901 0.6819687485694885
0.47763240337371826 0.019090283662080765 0.6818781495094299
0.47615697979927063 0.02036580629646778 0.6817716956138611
0.4665728807449341 0.02830204740166664 0.6808940768241882
0.47620856761932373 -0.0660170465707779 0.6348323225975037
0.4805658161640167 -0.05316295102238655 0.6440290808677673
0.4877854585647583 -0.042901258915662766 0.6533703804016113
0.4887455999851227 -0.040769726037979126 0.6550225019454956
0.4906649589538574 -0.03343699872493744 0.6599664688110352
0.4876119792461395 -0.019619977101683617 0.6657183170318604
0.4966088831424713 -0.0038508237339556217 0.6789520978927612
0.49297213554382324 0.006135767791420221 0.6823452711105347
0.4863871932029724 0.01228310540318489 0.6821113228797913
0.4844857454299927 0.014025777578353882 0.6820265650749207
0.4839950203895569 0.014448127709329128 0.6819901466369629
0.4820674955844879 0.01617066003382206 0.681880533695221
0.4726611375808716 0.024185722693800926 0.6811368465423584
0.4701233208179474 0.026259275153279305 0.6808890700340271
0.4760614037513733 -0.06623715907335281 0.6336868405342102
0.47552579641342163 -0.0657016932964325 0.6336868405342102
0.48204168677330017 -0.05708567053079605 0.6417970657348633
0.48962029814720154 -0.023456256836652756 0.6638829112052917
0.49674904346466064 -0.0018763819243758917 0.6792699098587036
0.4963527321815491 0.004057733807712793 0.6822378635406494
0.4878830909729004 0.011933209374547005 0.6819195747375488
0.4874086081981659 0.012368270196020603 0.6818982362747192
0.4859433174133301 0.013636778108775616 0.6817928552627563
0.47861719131469727 0.02000921033322811 0.6812815070152283
0.46850213408470154 0.028304792940616608 0.6803064942359924
0.48072579503059387 -0.05976858362555504 0.6387203931808472
0.48177167773246765 -0.05744127929210663 0.6405338644981384
0.49060115218162537 -0.03459647297859192 0.6575612425804138
0.4954228103160858 -0.005968480836600065 0.6755428910255432
0.4977707862854004 0.0036572518292814493 0.6819795966148376
0.4959254562854767 0.005435766186565161 0.6819437742233276
0.4949969947338104 0.006319824606180191 0.681920051574707
0.4935764968395233 0.007620168849825859 0.6818552613258362
0.4917031228542328 0.009375126101076603 0.6817917823791504
0.4884115159511566 0.012438430450856686 0.6816689372062683
0.48404261469841003 0.016264576464891434 0.6813771724700928
0.47458741068840027 0.02420494519174099 0.6805629134178162
0.4720474183559418 0.026268616318702698 0.6803069114685059
0.4689643383026123 0.028727663680911064 0.6799713373184204
0.4809781610965729 -0.06066013127565384 0.6374407410621643
0.4815004765987396 -0.05779850855469704 0.639265239238739
0.48296988010406494 -0.05499773100018501 0.6415676474571228
0.4899778962135315 -0.03635134920477867 0.6554003953933716
0.491729736328125 -0.03030627965927124 0.6596042513847351
0.4960300326347351 -0.004432469606399536 0.6758740544319153
0.49682530760765076 -0.0027147834189236164 0.6772288680076599
0.49793776869773865 0.0011260667815804482 0.6798996329307556
0.4960060715675354 0.006411520764231682 0.6817081570625305
0.4806137681007385 0.020107828080654144 0.6807935833930969
0.47810569405555725 0.02217797189950943 0.6805574893951416
0.4725106358528137 0.02669529989361763 0.6799761652946472
0.47198525071144104 0.027094580233097076 0.6799082159996033
0.4704782962799072 0.028349364176392555 0.6797723174095154
0.48388415575027466 -0.05399838462471962 0.6416764259338379
0.48613059520721436 -0.05033198744058609 0.6448743343353271
0.4900881052017212 -0.03730732575058937 0.6540585160255432
0.4904942810535431 -0.03581332787871361 0.655086100101471
0.49164339900016785 -0.02137564867734909 0.6635154485702515
0.4969659745693207 -0.000741294352337718 0.6775532960891724
0.4908559024333954 0.012118901126086712 0.6812037229537964
0.4860455095767975 0.01638961397111416 0.6809120774269104
0.4840866029262543 0.018072715029120445 0.680762767791748
0.47656306624412537 0.024270493537187576 0.6800459027290344
0.4760422706604004 0.02467026375234127 0.679980456829071
0.47551968693733215 0.025068791583180428 0.6799132227897644
0.4740173816680908 0.026320213451981544 0.6797776222229004
0.4694308638572693 0.030026739463210106 0.6793017387390137
0.4804269075393677 -0.061396051198244095 0.634863555431366
0.47989755868911743 -0.06086660549044609 0.634863555431366
0.4812552332878113 -0.05817316100001335 0.6370609998703003
0.49137434363365173 -0.03383547067642212 0.6557515263557434
0.49118369817733765 -0.03197756037116051 0.6566559076309204
0.49220356345176697 -0.028822867199778557 0.6589203476905823
0.4896377623081207 -0.013705275021493435 0.6657289266586304
0.495640367269516 -0.004823758732527494 0.6738024353981018
0.49644142389297485 -0.003096957691013813 0.6751736402511597
0.49597981572151184 -0.0026352345012128353 0.6751736402511597
0.4975617527961731 0.0007615681970492005 0.6778745055198669
0.498340368270874 0.0024345587007701397 0.6792042851448059
0.49424654245376587 0.010055864229798317 0.681117594242096
0.4825901389122009 0.02019566297531128 0.6802948713302612
0.48007485270500183 0.02225027233362198 0.6800450682640076
0.47955745458602905 0.022650104016065598 0.6799812912940979
0.47799697518348694 0.023844828829169273 0.6797829866409302
0.47244682908058167 0.028393587097525597 0.679239809513092
0.4796198606491089 -0.06123468652367592 0.6335675120353699
0.49288588762283325 -0.027094779536128044 0.6593592166900635
0.4946337342262268 -0.006768183317035437 0.6713690757751465
0.495816707611084 -0.0018750696908682585 0.6746748089790344
0.49847304821014404 0.004368769936263561 0.6795169115066528
0.49283868074417114 0.012252202257514 0.680740475654602
0.48848050832748413 0.016051821410655975 0.6804367303848267
0.48601269721984863 0.01812915690243244 0.6802242398262024
0.48350846767425537 0.020181719213724136 0.679978609085083
0.48150646686553955 0.021830439567565918 0.6797862648963928
0.48098763823509216 0.022227918729186058 0.679720401763916
0.4784500002861023 0.02426796220242977 0.6794496178627014
0.47078737616539 0.030397823080420494 0.6786158084869385
0.49022987484931946 -0.05016850680112839 0.644448459148407
0.4935431480407715 -0.025400185957551003 0.6597722172737122
0.4939570724964142 -0.022951822727918625 0.6613340377807617
0.4932013750076294 -0.017818201333284378 0.6637229919433594
0.4952486753463745 -0.005217220168560743 0.6717162728309631
0.4960537850856781 -0.003482870291918516 0.673102080821991
0.4955904483795166 -0.003019524971023202 0.673102080821991
0.4937514066696167 -0.0020706343930214643 0.6726163625717163
0.4961850941181183 0.010160714387893677 0.680618941783905
0.4869903028011322 0.01817222498357296 0.6799731254577637
0.4855131506919861 0.019422190263867378 0.6798492074012756
0.4768770933151245 0.026330288499593735 0.6789063215255737
0.474322110414505 0.028368478640913963 0.6786242127418518
0.4722887873649597 0.030013563111424446 0.6784124374389648
0.4940125048160553 -0.03833558037877083 0.6520804762840271
0.49462372064590454 -0.021265815943479538 0.66175776720047
0.4942345917224884 -0.007172528654336929 0.6692584156990051
0.4938620328903198 -0.001957201398909092 0.6719087362289429
0.4985562860965729 0.0035633512306958437 0.677499532699585
0.4981009364128113 0.004018534906208515 0.677499532699585
0.4928721785545349 0.014059665612876415 0.6801333427429199
0.4899429976940155 0.016562873497605324 0.6799001693725586
0.48292648792266846 0.022282935678958893 0.6791906952857971
0.48038992285728455 0.02431483007967472 0.6789146065711975
0.47169387340545654 0.031228646636009216 0.6779389381408691
0.4707038998603821 0.032074324786663055 0.6778600215911865
0.4901861548423767 -0.05142334848642349 0.6419044137001038
0.4912208914756775 -0.04911961406469345 0.6437371373176575
0.4917353689670563 -0.04633614048361778 0.6455475687980652
0.4937494695186615 -0.04187052696943283 0.6491044163703918
0.4946472644805908 -0.037658728659152985 0.6519094705581665
0.49373337626457214 -0.023229163140058517 0.6593291163444519
0.49389928579330444 -0.015165997669100761 0.663846492767334
0.4948526620864868 -0.005614991299808025 0.6696130633354187
0.49566301703453064 -0.0038720164448022842 0.6710147261619568
0.49945536255836487 0.007132717873901129 0.679137647151947
0.4981500506401062 0.010297556407749653 0.6801584362983704
0.496247798204422 0.012000923976302147 0.6800491809844971
0.4952790141105652 0.012837167829275131 0.6799765229225159
0.49385908246040344 0.014124182984232903 0.6799034476280212
0.491925984621048 0.015805767849087715 0.6797654628753662
0.48893269896507263 0.01825198344886303 0.6794651746749878
0.48641645908355713 0.02027999423444271 0.6791971325874329
0.47880813479423523 0.02636369876563549 0.678360104560852
0.47679007053375244 0.028007429093122482 0.678154706954956
0.47523507475852966 0.029210437089204788 0.6779615879058838
0.47426262497901917 0.03006540797650814 0.677897036075592
0.4737434387207031 0.03046715445816517 0.6778326034545898
0.48991164565086365 -0.051791734993457794 0.6406297087669373
0.49349141120910645 -0.042206741869449615 0.6478781700134277
0.4944852888584137 -0.04000542312860489 0.6496375203132629
0.49398550391197205 -0.03950551524758339 0.6496375203132629
0.49618595838546753 -0.03386787325143814 0.6539532542228699
0.49506592750549316 -0.01984058879315853 0.6610597968101501
0.4937897026538849 -0.013351745903491974 0.6639299988746643
0.49303290247917175 -0.009332628920674324 0.6657261252403259
0.49383240938186646 -0.007579835597425699 0.6671315431594849
0.4950011074542999 -0.003601007629185915 0.6699656248092651
0.494831383228302 -0.0019162679091095924 0.670799732208252
0.5000343322753906 0.008588995784521103 0.6794487237930298
0.49997884035110474 0.009419013746082783 0.6798752546310425
0.4991295337677002 0.01036569382995367 0.6799290180206299
0.497679203748703 0.011617728509008884 0.6798197627067566
0.49484387040138245 0.014188526198267937 0.6796740293502808
0.49239400029182434 0.016255857422947884 0.6794634461402893
0.4848460853099823 0.022327110171318054 0.6786503791809082
0.4823113977909088 0.02435162663459778 0.6783694624900818
0.47772830724716187 0.028000524267554283 0.6778550744056702
0.47257375717163086 0.032038137316703796 0.6772401928901672
0.4885803461074829 -0.05450835078954697 0.637470543384552
0.4896358847618103 -0.05216164141893387 0.6393494009971619
0.4906790554523468 -0.04984327033162117 0.6412057876586914
0.4911995232105255 -0.04704234376549721 0.643040120601654
0.4922209084033966 -0.044781435281038284 0.6448524594306946
0.4956932067871094 -0.03550338372588158 0.6518937945365906
0.4952475130558014 -0.01769239269196987 0.6614837050437927
0.4944542944431305 -0.0060151107609272 0.667494535446167
0.4942770004272461 -0.0015352906193584204 0.6698704361915588
0.49366867542266846 -0.0012100276071578264 0.6697141528129578
0.49908778071403503 0.006793211679905653 0.6771265864372253
0.4907817244529724 0.018254462629556656 0.6788688898086548
0.48825985193252563 0.020269354805350304 0.6785888075828552
0.4817608892917633 0.025596389546990395 0.677941620349884
0.4807298481464386 0.026394683867692947 0.6778131127357483
0.47872933745384216 0.02804599143564701 0.6776202321052551
0.47616180777549744 0.03006300888955593 0.6773163080215454
0.4904060661792755 -0.05020740628242493 0.6399315595626831
0.48989203572273254 -0.04969338700175285 0.6399315595626831
0.49092933535575867 -0.047398172318935394 0.6417774558067322
0.4919545650482178 -0.04513010010123253 0.6436014175415039
0.49296775460243225 -0.04288873448967934 0.645404040813446
0.4939688444137573 -0.040673863142728806 0.6471854448318481
0.49446040391921997 -0.03798406198620796 0.6489474177360535
0.49518999457359314 -0.019743699580430984 0.6594547629356384
0.494787335395813 -0.011380002833902836 0.6638643741607666
0.4929472804069519 -0.009424329735338688 0.6639283299446106
0.4934273958206177 -0.007990488782525063 0.6649885177612305
0.49507206678390503 -0.004460092168301344 0.6678549647331238
0.49460434913635254 -0.0039923652075231075 0.6678549647331238
0.49966996908187866 0.008255836553871632 0.6774448752403259
0.500018835067749 0.011239527724683285 0.6792907118797302
0.4967411160469055 0.014254960231482983 0.6791454553604126
0.49424272775650024 0.01626899093389511 0.6788771748542786
0.4867395758628845 0.022354481741786003 0.6780919432640076
0.4842352867126465 0.02439623512327671 0.6778359413146973
0.48372122645378113 0.02479434199631214 0.6777715086936951
0.48224103450775146 0.026042908430099487 0.6776432991027832
0.4745246469974518 0.03207051381468773 0.6767078638076782
0.47189921140670776 0.03405659273266792 0.6763536334037781
0.4869406223297119 -0.05765949934720993 0.632941722869873
0.48801735043525696 -0.055268771946430206 0.6348681449890137
0.48908108472824097 -0.05290680006146431 0.6367712616920471
0.48961663246154785 -0.05005814880132675 0.638651430606842
0.49371057748794556 -0.04100838676095009 0.6459532380104065
0.4942018687725067 -0.038313958793878555 0.6477229595184326
0.49616262316703796 -0.03400043770670891 0.6512086987495422
0.49712488055229187 -0.031882189214229584 0.6529200077056885
0.49540990591049194 -0.021519504487514496 0.657724142074585
0.4951334297657013 -0.017842143774032593 0.6596136093139648
0.4942896366119385 -0.00997738167643547 0.6635137796401978
0.4940527081489563 -0.006418502889573574 0.665359377861023
0.49325066804885864 0.00023562645947095007 0.6686103940010071
0.5002486705780029 0.009709631092846394 0.6777614951133728
0.4997982084751129 0.010160201229155064 0.6777614951133728
0.5001115202903748 0.012216896750032902 0.6790781021118164
0.4902231693267822 0.020369624719023705 0.6781139373779297
0.48920080065727234 0.021161984652280807 0.6779860854148865
0.48823896050453186 0.02200871892273426 0.6779221892356873
0.4806998372077942 0.02811582386493683 0.6771266460418701
0.4781019389629364 0.030098779127001762 0.6767849922180176
0.47287389636039734 0.03406965732574463 0.6760864853858948
0.4723210036754608 0.03444567322731018 0.6759884357452393
0.4717678129673004 0.03482203930616379 0.6758900880813599
0.4877334237098694 -0.055651746690273285 0.6335574388504028
0.4888010621070862 -0.053282659500837326 0.6354723572731018
0.4898558259010315 -0.05094192549586296 0.6373647451400757
0.4903860092163086 -0.04811406508088112 0.6392357349395752
0.49142029881477356 -0.04583017900586128 0.6410844326019287
0.4924409091472626 -0.04357483610510826 0.6429099440574646
0.49394410848617554 -0.03864318132400513 0.6464954018592834
0.49687764048576355 -0.03219209238886833 0.6517244577407837
0.49638500809669495 -0.031699348241090775 0.6517244577407837
0.4973430037498474 -0.029601117596030235 0.6534274220466614
0.4963420331478119 -0.014629996381700039 0.6612117290496826
0.49467408657073975 -0.00485641835257411 0.6657278537750244
0.49418702721595764 0.00023621285799890757 0.6682942509651184
0.4993027448654175 0.007920132018625736 0.6754260063171387
0.4986555874347687 0.014343773946166039 0.6786447763442993
0.4961768388748169 0.016366194933652878 0.678390383720398
0.492164671421051 0.019577505066990852 0.6779441833496094
0.49171513319015503 0.020026884973049164 0.6779441833496094
0.4842260181903839 0.026137469336390495 0.6771759986877441
0.47648364305496216 0.03211480379104614 0.6761925220489502
0.47485122084617615 0.03325461223721504 0.6759179830551147
0.4711829721927643 0.03604072704911232 0.6754264831542969
0.49011486768722534 -0.048472002148628235 0.6379589438438416
0.4911510944366455 -0.046183135360479355 0.6398171782493591
0.49217361211776733 -0.0439227856695652 0.6416517496109009
0.4931860566139221 -0.04168723151087761 0.6434669494628906
0.49368521571159363 -0.03897382318973541 0.6452623009681702
0.49467965960502625 -0.0367901436984539 0.6470385193824768
0.4956614375114441 -0.03463282808661461 0.6487926244735718
0.49804767966270447 -0.027824560180306435 0.6539312601089478
0.4988451302051544 -0.02592405676841736 0.6554387807846069
0.49699291586875916 -0.012991638854146004 0.6616311073303223
0.4936480224132538 -0.006824979558587074 0.6632080674171448
0.4956357181072235 -0.0011041562538594007 0.6675161719322205
0.4950808584690094 0.00019660474208649248 0.6679329872131348
0.4936389625072479 0.001546442974358797 0.6678813695907593
0.4998846650123596 0.009380257688462734 0.6757498979568481
0.5001935958862305 0.011443364433944225 0.6770755648612976
0.4956268072128296 0.01760430634021759 0.6779663562774658
0.4926341772079468 0.020026134327054024 0.6776472926139832
0.4901452660560608 0.022057609632611275 0.6773916482925415
0.48254281282424927 0.028085708618164062 0.6765118837356567
0.477912575006485 0.03168522194027901 0.6759359836578369
0.4773734509944916 0.03206736594438553 0.6758480668067932
0.4747198224067688 0.034018564969301224 0.675455629825592
0.48663946986198425 -0.057032302021980286 0.6302842497825623
0.48824143409729004 -0.05403449386358261 0.6328625082969666
0.48930540680885315 -0.05167727544903755 0.6347802877426147
0.48983949422836304 -0.04883454367518425 0.6366729736328125
0.4944235682487488 -0.037114862352609634 0.6458115577697754
0.49540919065475464 -0.034951090812683105 0.6475768685340881
0.49638110399246216 -0.032814621925354004 0.649319052696228
0.49588608741760254 -0.03231973946094513 0.649319052696228
0.4990096986293793 -0.023740507662296295 0.6558787226676941
0.49627867341041565 -0.015700247138738632 0.6588546633720398
0.49634742736816406 -0.009809989482164383 0.6621948480606079
0.4951491951942444 -0.00911787524819374 0.6619109511375427
0.49355947971343994 -0.007863822393119335 0.6617228984832764
0.49427327513694763 -0.00525554409250617 0.6635849475860596
0.4938017725944519 -0.004784142132848501 0.6635849475860596
0.4946247339248657 -0.0030306768603622913 0.6650291681289673
0.4941655695438385 0.002065412700176239 0.6676281690597534
0.49893152713775635 0.00758066913112998 0.6733910441398621
0.5007684826850891 0.012881569564342499 0.6773918271064758
0.4990754723548889 0.015638722106814384 0.6779885292053223
0.4985691010951996 0.01603170670568943 0.6779248714447021
0.49761447310447693 0.016872689127922058 0.6778612732887268
0.4960927963256836 0.018053574487566948 0.6776702404022217
0.4886360168457031 0.024141937494277954 0.6769031882286072
0.4860854744911194 0.02613190747797489 0.6765888929367065
0.48093515634536743 0.03009972721338272 0.6759260296821594
0.4799521863460541 0.030936231836676598 0.6758439540863037
0.47833991050720215 0.03208213672041893 0.6755825281143188
0.472459077835083 0.036347199231386185 0.6746770143508911
0.4867985248565674 -0.056900180876255035 0.6294976472854614
0.48902589082717896 -0.05205032601952553 0.6334764361381531
0.488506019115448 -0.05153033137321472 0.6334764361381531
0.48956164717674255 -0.04920034110546112 0.6353797316551208
0.490761399269104 -0.04671866446733475 0.637449324131012
0.49194008111953735 -0.04427572339773178 0.6394855380058289
0.4924294948577881 -0.04154704138636589 0.6412945985794067
0.49337705969810486 -0.03939923271536827 0.6430346369743347
0.4966026246547699 -0.03051619976758957 0.6498419642448425
0.4975600838661194 -0.028423460200428963 0.651556670665741
0.4968074560165405 -0.013207372277975082 0.659687876701355
0.49742600321769714 -0.011596065945923328 0.6609414219856262
0.49725040793418884 -0.009850407019257545 0.6618239283561707
0.494462788105011 -0.007908140309154987 0.6613489985466003
0.4944245517253876 -0.003226198023185134 0.6639595627784729
0.49524161219596863 -0.001486059045419097 0.6653971076011658
0.49605047702789307 0.0002368926943745464 0.6668204069137573
0.4995180666446686 0.009048567153513432 0.6737237572669983
0.499830037355423 0.011120815761387348 0.675063967704773
0.501318633556366 0.01429104246199131 0.6776831150054932
0.49210530519485474 0.02215968258678913 0.6769272685050964
0.48447656631469727 0.028136182576417923 0.6759984493255615
0.4839470088481903 0.028520120307803154 0.6759164333343506
0.4766581654548645 0.03404486924409866 0.6749247312545776
0.4707295894622803 0.038288988173007965 0.673977792263031
0.49511459469795227 -0.035352982580661774 0.6453840136528015
0.49588048458099365 -0.03344245254993439 0.6468932032585144
0.49920397996902466 -0.024597667157649994 0.6537542939186096
0.4970472753047943 -0.015904732048511505 0.6574397683143616
0.4973369836807251 -0.011698215268552303 0.659974992275238
0.49386894702911377 -0.0056579518131911755 0.6614254117012024
0.49585461616516113 4.890230775345117e-05 0.665762722492218
0.49525216221809387 0.0040475730784237385 0.6676777005195618
0.500407874584198 0.012565129436552525 0.6753875613212585
0.5005049705505371 0.016145365312695503 0.6774609684944153
0.4980352520942688 0.01816326007246971 0.67720627784729
0.49056389927864075 0.02420942485332489 0.6764028072357178
0.48800307512283325 0.026180904358625412 0.6760703325271606
0.4874754548072815 0.026563355699181557 0.6759884357452393
0.485970139503479 0.027778616175055504 0.6758249998092651
0.4828740656375885 0.030147792771458626 0.6754150986671448
0.4802674949169159 0.03211180120706558 0.6750527620315552
0.4743911027908325 0.036359723657369614 0.6741344928741455
0.4732763171195984 0.03710273653268814 0.67392498254776
0.48851478099823 -0.052741680294275284 0.6309137940406799
0.48799261450767517 -0.05221940204501152 0.6309137940406799
0.4898660182952881 -0.048944033682346344 0.633825421333313
0.49392175674438477 -0.039938587695360184 0.6412120461463928
0.49447083473205566 -0.038243912160396576 0.6424806714057922
0.4961678385734558 -0.03106183186173439 0.6475021243095398
0.49706804752349854 -0.029027530923485756 0.6491617560386658
0.49802127480506897 -0.026946227997541428 0.6508776545524597
0.5003358125686646 -0.020361192524433136 0.6559109687805176
0.49402207136154175 -0.0036196992732584476 0.6618080139160156
0.4948442876338959 -0.0018707510316744447 0.6632619500160217
0.4963224530220032 0.003269636072218418 0.6670051217079163
0.49640995264053345 0.004266319330781698 0.6676181554794312
0.4966622591018677 0.0054184929467737675 0.668412446975708
0.4991477429866791 0.00871341023594141 0.6716814637184143
0.49946358799934387 0.01079575065523386 0.6730377674102783
0.5009828805923462 0.01400134526193142 0.6757098436355591
0.49405741691589355 0.02226128987967968 0.6764643788337708
0.4904637634754181 0.02499624527990818 0.6759787797927856
0.48993778228759766 0.025377856567502022 0.6758971810340881
0.48896294832229614 0.026208430528640747 0.6758154630661011
0.4864049255847931 0.02818772941827774 0.6754882335662842
0.4785817861557007 0.03406454622745514 0.6743876934051514
0.4763624966144562 0.03554368019104004 0.6739689111709595
0.47591081261634827 0.0359954833984375 0.6739689111709595
0.47535473108291626 0.03636618331074715 0.6738643050193787
0.47264087200164795 0.038279082626104355 0.6734112501144409
0.4699437618255615 0.04021766781806946 0.6729823350906372
0.4883713126182556 -0.052958160638809204 0.6297628879547119
0.4878479838371277 -0.05243496224284172 0.6297628879547119
0.49582743644714355 -0.03568790853023529 0.6437879204750061
0.495879203081131 -0.032461654394865036 0.6456472277641296
0.4977770149707794 -0.02724446728825569 0.6496827602386475
0.49872374534606934 -0.02517942525446415 0.6513909697532654
0.4991738796234131 -0.022654125466942787 0.6530788540840149
0.4978580176830292 -0.01312351692467928 0.6577380299568176
0.4974195063114166 -0.009700735099613667 0.6594308614730835
0.49658671021461487 -0.007675677537918091 0.6601073741912842
0.49505895376205444 -0.006362724583595991 0.659985363483429
0.4945313036441803 -0.005942849442362785 0.6599242091178894
0.4935294985771179 -0.005048664286732674 0.6598631739616394
0.49381980299949646 -0.0038174667861312628 0.6607261300086975
0.4962689280509949 0.0013890588888898492 0.6650685667991638
0.4981825351715088 0.0068957447074353695 0.6692773699760437
0.5000447034835815 0.01224637683480978 0.6733684539794922
0.5020635724067688 0.015909772366285324 0.6765915155410767
0.49344107508659363 0.02343473769724369 0.6759690642356873
0.4923925995826721 0.02419583685696125 0.6758059859275818
0.4847216010093689 0.030125916004180908 0.6748186349868774
0.482092946767807 0.03206373378634453 0.6744266748428345
0.478431761264801 0.0348111167550087 0.6739084720611572
0.47631680965423584 0.03637257218360901 0.6735943555831909
0.4709013104438782 0.040211498737335205 0.6727001070976257
0.46816331148147583 0.04212779551744461 0.6722341179847717
0.4675862789154053 0.04249100387096405 0.6721128225326538
0.4636233150959015 0.045106999576091766 0.6713488101959229
0.46197637915611267 0.04627362638711929 0.6710762977600098
0.4882752299308777 -0.05199100449681282 0.6293091177940369
0.49653512239456177 -0.03176617622375488 0.645513653755188
0.49706870317459106 -0.029088487848639488 0.6473405361175537
0.4979928433895111 -0.024984143674373627 0.6502012610435486
0.4989347755908966 -0.02293984591960907 0.6519001722335815
0.49986520409584045 -0.020919186994433403 0.6535789370536804
0.5007854104042053 -0.018921293318271637 0.6552389860153198
0.4983869791030884 -0.01161098387092352 0.6580333113670349
0.49748650193214417 -0.007720016408711672 0.6597345471382141
0.49641144275665283 0.003371667116880417 0.6654329299926758
0.4979934096336365 0.006722947582602501 0.6682393550872803
0.4987759590148926 0.00837680697441101 0.6696256399154663
0.49909383058547974 0.010467737913131714 0.6709956526756287
0.4998622238636017 0.012086148373782635 0.6723535060882568
0.5023807883262634 0.01622430421411991 0.676140546798706
0.500876784324646 0.01827310398221016 0.6764504313468933
0.49841204285621643 0.020289471372961998 0.6761952638626099
0.4964078962802887 0.021878935396671295 0.6759594678878784
0.49588558077812195 0.022258197888731956 0.6758779287338257
0.49080002307891846 0.026196662336587906 0.6752254366874695
0.48824819922447205 0.028172936290502548 0.6748979687690735
0.4814968705177307 0.03326239809393883 0.6739527583122253
0.4744393825531006 0.03818751871585846 0.672739565372467
0.46957647800445557 0.04166661202907562 0.6719523072242737
0.4690001904964447 0.04202910512685776 0.6718306541442871
0.46796882152557373 0.04284508898854256 0.6717082858085632
0.4657687246799469 0.04438186436891556 0.6713307499885559
0.46294188499450684 0.04626009985804558 0.6707910895347595
0.49752360582351685 -0.03385636955499649 0.6439830660820007
0.497764527797699 -0.02731715701520443 0.6478517651557922
0.4982881546020508 -0.025713011622428894 0.6490658521652222
0.4977984130382538 -0.025223150849342346 0.6490658521652222
0.50146484375 -0.0172154288738966 0.6557266712188721
0.4982070326805115 -0.009871112182736397 0.6580583453178406
0.49375125765800476 -0.0038798584137111902 0.6589345932006836
0.495063841342926 -0.0007099815411493182 0.661492109298706
0.4958767592906952 0.0010163713013753295 0.662941038608551
0.497016042470932 0.004879884421825409 0.6657955050468445
0.497804194688797 0.00655008340254426 0.6671982407569885
0.49890851974487305 0.010303310118615627 0.669969916343689
0.5026741027832031 0.01651630736887455 0.6756631731987
0.5019963383674622 0.017611181363463402 0.6759011745452881
0.49936366081237793 0.020328570157289505 0.6759495735168457
0.4968335032463074 0.022289149463176727 0.675624668598175
0.4942971169948578 0.024254288524389267 0.6752986311912537
0.4866293966770172 0.0301588736474514 0.6742926239967346
0.4845496714115143 0.03171982988715172 0.6739966869354248
0.48399996757507324 0.03208684176206589 0.6738924384117126
0.48134708404541016 0.03400763124227524 0.6734746694564819
0.47813305258750916 0.036304499953985214 0.6729514002799988
0.4726981818675995 0.04011347144842148 0.6720237135887146
0.47212913632392883 0.04047797992825508 0.6719068884849548
0.4716763496398926 0.0409306064248085 0.6719068884849548
0.466595321893692 0.044273149222135544 0.6709149479866028
0.4980661869049072 -0.029088562354445457 0.6461163759231567
0.4984521269798279 -0.02351592294871807 0.649526059627533
0.4993906021118164 -0.021482551470398903 0.6512267589569092
0.5003171563148499 -0.01947290636599064 0.652907133102417
0.5014700293540955 -0.015249043703079224 0.655984103679657
0.49833235144615173 -0.00782573688775301 0.6584364175796509
0.4967113435268402 -0.00565470801666379 0.6587513089179993
0.49466672539711 -0.003913072403520346 0.6585779190063477
0.49567991495132446 0.0008291862322948873 0.6618714928627014
0.4960215091705322 0.0030080964788794518 0.6633138656616211
0.4984009861946106 0.008037599734961987 0.6675538420677185
0.49794214963912964 0.008496474474668503 0.6675538420677185
0.5029913187026978 0.015961598604917526 0.6747153401374817
0.5020344257354736 0.018527427688241005 0.6756359934806824
0.5017439723014832 0.01911754161119461 0.675807535648346
0.5003066658973694 0.020361201837658882 0.6756967902183533
0.4927079677581787 0.026251496747136116 0.674718976020813
0.49016305804252625 0.028224242851138115 0.6743917465209961
0.48703882098197937 0.030545739457011223 0.6739323139190674
0.48494893312454224 0.032096683979034424 0.6736238598823547
0.48230019211769104 0.03401602432131767 0.6732063293457031
0.47633957862854004 0.03817809000611305 0.6721771359443665
0.4752247929573059 0.03891792520880699 0.6719624996185303
0.4709152579307556 0.04201321676373482 0.6712676882743835
0.4647287130355835 0.046133581548929214 0.6700852513313293
0.4641345739364624 0.046489037573337555 0.6699486970901489
0.4975672960281372 -0.041410863399505615 0.6378586888313293
0.4987994432449341 -0.025209948420524597 0.647864580154419
0.5000816583633423 -0.019750481471419334 0.651733934879303
0.5010011196136475 -0.01775769144296646 0.6534052491188049
0.49865373969078064 -0.0075037507340312 0.6579434275627136
0.4946640729904175 -0.001093542785383761 0.6593327522277832
0.49582552909851074 0.0028253092896193266 0.6622486114501953
0.4966298043727875 0.004523162730038166 0.6636846661567688
0.4974241256713867 0.006202314980328083 0.6651043891906738
0.4982125461101532 0.007866973988711834 0.666512131690979
0.5000774264335632 0.013215078972280025 0.6706520915031433
0.5024596452713013 0.01634422317147255 0.6738154888153076
0.4987243711948395 0.022350788116455078 0.675119161605835
0.49619483947753906 0.024312440305948257 0.6747931241989136
0.4900582432746887 0.029004285112023354 0.6739637851715088
0.48951831459999084 0.029373817145824432 0.6738662123680115
0.4885299801826477 0.030191566795110703 0.6737682223320007
0.4800419211387634 0.03631390258669853 0.6724103689193726
0.4772874712944031 0.038173556327819824 0.6718968152999878
0.47460299730300903 0.04010136052966118 0.6714624762535095
0.4685109555721283 0.044249266386032104 0.6703465580940247
0.4662829637527466 0.04576525837182999 0.6699379682540894
0.4994652271270752 -0.027603093534708023 0.6459771394729614
0.49910929799079895 -0.021836286410689354 0.6490917801856995
0.5012012720108032 -0.015575061552226543 0.6539002060890198
0.5022587180137634 -0.012480421923100948 0.6562904715538025
0.4985666573047638 -0.005686420947313309 0.6580760478973389
0.4970532953739166 -0.00436514662578702 0.6579654216766357
0.49655961990356445 -0.003913188353180885 0.657941460609436
0.49561914801597595 -0.0029626404866576195 0.6579473614692688
0.49528396129608154 0.0004526278062257916 0.6597203016281128
0.49562880396842957 0.0026418312918394804 0.6611790657043457
0.4980234205722809 0.007695870939642191 0.6654669642448425
0.49756288528442383 0.008156453259289265 0.6654669642448425
0.49989449977874756 0.013056235387921333 0.6696298122406006
0.5006571412086487 0.014658239670097828 0.6709908246994019
0.5012231469154358 0.016938041895627975 0.6726290583610535
0.5012580156326294 0.018703624606132507 0.6736655235290527
0.49453356862068176 0.026239708065986633 0.674132764339447
0.49304133653640747 0.027447471395134926 0.673969030380249
0.48674342036247253 0.032034605741500854 0.67298424243927
0.47983431816101074 0.0370129756629467 0.6718728542327881
0.47823381423950195 0.03816908225417137 0.6716169714927673
0.4722498953342438 0.04235851764678955 0.6705839037895203
0.46887680888175964 0.04459055885672569 0.6699269413948059
0.46665000915527344 0.046106692403554916 0.6695178747177124
0.46318870782852173 0.048312555998563766 0.6687952876091003
0.4994063973426819 -0.02357688918709755 0.6473695635795593
0.5000502467155457 -0.017822066321969032 0.6510637402534485
0.5018776059150696 -0.013885176740586758 0.6543917655944824
0.4993093013763428 -0.005889458581805229 0.6575251817703247
0.49574360251426697 -0.0018957627471536398 0.657772421836853
0.49624040722846985 0.004163697827607393 0.661557674407959
0.4981594979763031 0.009638717398047447 0.6658266186714172
0.49893882870674133 0.011275631375610828 0.6672217845916748
0.5004754066467285 0.0145022664219141 0.6699719429016113
0.5004125237464905 0.016195889562368393 0.6709131598472595
0.500040590763092 0.020182015374302864 0.6729999780654907
0.5000157952308655 0.022722983732819557 0.6744526028633118
0.4980112612247467 0.024303697049617767 0.6742079854011536
0.4960031509399414 0.025887221097946167 0.6739628911018372
0.4954816997051239 0.02626701630651951 0.673880934715271
0.4929332733154297 0.02822372317314148 0.6735392808914185
0.49031928181648254 0.030135203152894974 0.673133909702301
0.48450085520744324 0.03432740643620491 0.6721948385238647
0.4829528033733368 0.03551230952143669 0.6719853281974792
0.48180651664733887 0.03621326759457588 0.6717281937599182
0.4763874113559723 0.040001507848501205 0.6707864999771118
0.4714616537094116 0.04342025890946388 0.6699164509773254
0.47042083740234375 0.04422549158334732 0.6697803139686584
0.4641401767730713 0.04828895255923271 0.6685003042221069
0.4999402165412903 -0.019973332062363625 0.6488719582557678
0.5002973079681396 -0.018581165000796318 0.6498850584030151
0.5023747682571411 -0.011412473395466805 0.6552388072013855
0.5018994212150574 -0.010937120765447617 0.6552388072013855
0.5019166469573975 -0.00994560681283474 0.6558232307434082
0.49850282073020935 -0.0038571914192289114 0.6573718190193176
0.49669790267944336 -0.001886818208731711 0.6574676036834717
0.4949857294559479 0.00017228057549800724 0.6576684713363647
0.4952331483364105 0.0022725691087543964 0.6590279936790466
0.4960445165634155 0.003982813097536564 0.6604880094528198
0.4976428151130676 0.007351425476372242 0.6633639931678772
0.4995262622833252 0.012736642733216286 0.6675732135772705
0.4995730519294739 0.014548055827617645 0.6686491370201111
0.4996147155761719 0.016341684386134148 0.6697119474411011
0.4996354281902313 0.0172333512455225 0.6702402830123901
0.499655544757843 0.018120931461453438 0.67076575756073
0.4992479681968689 0.020336398854851723 0.6718126535415649
0.4992697238922119 0.021214254200458527 0.6723335981369019
0.49929079413414 0.02208840660750866 0.6728519201278687
0.4988870918750763 0.024272145703434944 0.6738826632499695
0.49642840027809143 0.02629428170621395 0.6736299395561218
