ply
format ascii 1.0
element vertex 813
property float x
property float y
property float z
end_header
0.2664274573326111 0.03574752062559128 0.6543728709220886
0.26978909969329834 0.03594904765486717 0.6535194516181946
0.27055755257606506 0.035415977239608765 0.653698205947876
0.27383294701576233 0.031957097351551056 0.6552264094352722
0.27553534507751465 0.025423159822821617 0.6590784788131714
0.27951401472091675 0.02578926831483841 0.6579855680465698
0.28015944361686707 0.025991473346948624 0.6577165722846985
0.2892955541610718 0.02368476428091526 0.6572397947311401
0.2997499406337738 0.022179998457431793 0.6559609770774841
0.3004503846168518 0.022078460082411766 0.6558759808540344
0.3011772632598877 0.02172386832535267 0.6559485793113708
0.30273687839508057 0.01995089463889599 0.6567574739456177
0.3097234070301056 0.019213205203413963 0.6557302474975586
0.3138425648212433 0.020019203424453735 0.6543232798576355
0.31521323323249817 0.020439723506569862 0.6537567973136902
0.3166212737560272 0.020410610362887383 0.6534726619720459
0.31999415159225464 0.022842181846499443 0.6511765718460083
0.3217932879924774 0.028560275211930275 0.6470982432365417
0.3237629234790802 0.032213933765888214 0.6443148255348206
0.3250192403793335 0.03618686646223068 0.6414795517921448
0.3257690966129303 0.03593691065907478 0.6414795517921448
0.24266688525676727 0.055551666766405106 0.6457622647285461
0.2452867478132248 0.0496007576584816 0.6490511298179626
0.2460164576768875 0.04935748130083084 0.6490511298179626
0.24840830266475677 0.04433480277657509 0.6517874002456665
0.24957329034805298 0.04192959889769554 0.6530937552452087
0.25070101022720337 0.03967888653278351 0.6543076038360596
0.2524851858615875 0.03745182976126671 0.6553650498390198
0.2535357177257538 0.03552147001028061 0.6563881039619446
0.25457921624183655 0.033604610711336136 0.6574044227600098
0.25560587644577026 0.031749382615089417 0.6583840847015381
0.257291704416275 0.029872888699173927 0.6592356562614441
0.2618270218372345 0.023277724161744118 0.6625277400016785
0.26512303948402405 0.023172825574874878 0.6618839502334595
0.2652951180934906 0.03345576301217079 0.655187726020813
0.2660100758075714 0.03321744501590729 0.655187726020813
0.26707565784454346 0.034871283918619156 0.6538865566253662
0.27134969830513 0.03364644944667816 0.6537570357322693
0.27493858337402344 0.02813306450843811 0.6565530300140381
0.2767018675804138 0.025452207773923874 0.6579083800315857
0.2799859344959259 0.026023807004094124 0.6568295955657959
0.28199318051338196 0.026192013174295425 0.6562870144844055
0.28329432010650635 0.026598984375596046 0.6557425856590271
0.2840079069137573 0.026361115276813507 0.6557425856590271
0.2877413332462311 0.023911114782094955 0.6565232276916504
0.2933286130428314 0.022900618612766266 0.6559715867042542
0.2940055727958679 0.022966405376791954 0.6557828187942505
0.29613247513771057 0.022373436018824577 0.6557080149650574
0.29824307560920715 0.021935639902949333 0.6555354595184326
0.30124276876449585 0.019603265449404716 0.6563984751701355
0.3061599135398865 0.018657010048627853 0.6559498906135559
0.31160950660705566 0.01987614668905735 0.6539838314056396
0.31232738494873047 0.019636856392025948 0.6539838314056396
0.3136938512325287 0.02005632407963276 0.6534173488616943
0.3178554177284241 0.020870281383395195 0.6519916653633118
0.31920790672302246 0.021810172125697136 0.6510911583900452
0.31979748606681824 0.023689672350883484 0.6497465372085571
0.32099267840385437 0.027501486241817474 0.6470198631286621
0.3215983808040619 0.02943565510213375 0.6456366181373596
0.3223363757133484 0.029189616441726685 0.6456366181373596
0.3235713541507721 0.03310750052332878 0.6428324580192566
0.3248295783996582 0.03709244355559349 0.6399804353713989
0.23842057585716248 0.06474186480045319 0.6397726535797119
0.2439931035041809 0.05158153921365738 0.6471151113510132
0.24724578857421875 0.045762799680233 0.6501911282539368
0.2484188675880432 0.0433468334376812 0.6515061259269714
0.2582908570766449 0.02715413272380829 0.6598876714706421
0.2592566907405853 0.025537671521306038 0.6607288122177124
0.26021677255630493 0.023930542171001434 0.6615647077560425
0.2623823583126068 0.022846035659313202 0.6618004441261292
0.2653788626194 0.03195355460047722 0.6552349925041199
0.26609212160110474 0.03171580284833908 0.6552349925041199
0.2671273350715637 0.03352295234799385 0.6538368463516235
0.26844000816345215 0.03375976160168648 0.6533985733985901
0.2738160192966461 0.0298664178699255 0.6547638177871704
0.2748225927352905 0.027771882712841034 0.6559068560600281
0.2758597433567047 0.02544722706079483 0.6571923494338989
0.27981212735176086 0.026055410504341125 0.6559411883354187
0.2805236577987671 0.025818228721618652 0.6559411883354187
0.2811715006828308 0.026020962744951248 0.6556690335273743
0.28621989488601685 0.023890558630228043 0.655960202217102
0.2904701232910156 0.022615207359194756 0.6558681130409241
0.2960323989391327 0.021865786984562874 0.6551505327224731
0.2997148036956787 0.01960051991045475 0.6558248996734619
0.30115801095962524 0.01893799751996994 0.6559426784515381
0.3025663495063782 0.01860877312719822 0.6558514833450317
0.3046216070652008 0.018723033368587494 0.6553322672843933
0.3094201683998108 0.01928565837442875 0.6539279222488403
0.3149171471595764 0.020514458417892456 0.6519392132759094
0.3195996582508087 0.02454404905438423 0.6483076810836792
0.3214026093482971 0.030315598472952843 0.6441677212715149
0.3233790695667267 0.03400339558720589 0.6413439512252808
0.3240059018135071 0.03599807620048523 0.6399125456809998
0.23879581689834595 0.06207279860973358 0.6404740810394287
0.2395431399345398 0.06182369217276573 0.6404740810394287
0.24125468730926514 0.05707820504903793 0.6431944370269775
0.24266396462917328 0.053693272173404694 0.645093560218811
0.24530841410160065 0.04763154312968254 0.6484695076942444
0.24603629112243652 0.04738887399435043 0.6484695076942444
0.24725788831710815 0.04476922005414963 0.6499110460281372
0.24959135055541992 0.03997048735618591 0.6525311470031738
0.250730961561203 0.03766141086816788 0.653788685798645
0.25252148509025574 0.03539083153009415 0.6548793911933899
0.25356897711753845 0.03347308561205864 0.6559012532234192
0.25460949540138245 0.03156859055161476 0.6569164395332336
0.25564271211624146 0.02967706136405468 0.6579242944717407
0.2563478946685791 0.02944199927151203 0.6579242944717407
0.2573471665382385 0.027690401300787926 0.658848762512207
0.2653806209564209 0.023427387699484825 0.659881591796875
0.26592370867729187 0.024081900715827942 0.6593374609947205
0.2706354260444641 0.03171224892139435 0.6533414721488953
0.2721875309944153 0.030496010556817055 0.6537971496582031
0.27770230174064636 0.025480518117547035 0.6558676362037659
0.27834638953208923 0.02568228170275688 0.6555960774421692
0.28295037150382996 0.026664195582270622 0.6539562344551086
0.28431883454322815 0.026630155742168427 0.6536810398101807
0.2883249521255493 0.02215377800166607 0.6557279229164124
0.2944972813129425 0.021908579394221306 0.6545470952987671
0.3065244257450104 0.01893574744462967 0.6538717150688171
0.3127107322216034 0.019920047372579575 0.6518868207931519
0.3133953809738159 0.020130326971411705 0.6516008973121643
0.31749966740608215 0.021858520805835724 0.6495834589004517
0.3194011449813843 0.025397296994924545 0.6468642354011536
0.3199973404407501 0.027312537655234337 0.6454869508743286
0.3212057948112488 0.03119916282594204 0.642691969871521
0.3225638270378113 0.03291818127036095 0.6412766575813293
0.32318562269210815 0.03490384295582771 0.6398472785949707
0.32381337881088257 0.03690413758158684 0.6384076476097107
0.2371322065591812 0.06557474285364151 0.6375943422317505
0.2439938485622406 0.04971266910433769 0.6464672684669495
0.24726787209510803 0.04378854110836983 0.6496257781982422
0.24843992292881012 0.041378043591976166 0.6509463787078857
0.2583431303501129 0.024989843368530273 0.6595005393028259
0.25930580496788025 0.023384610190987587 0.6603401303291321
0.2626323997974396 0.02310006506741047 0.6598013043403625
0.26554518938064575 0.02897060289978981 0.6553292274475098
0.26625508069992065 0.028733976185321808 0.6553292274475098
0.26724952459335327 0.03073165751993656 0.6538071036338806
0.26854032278060913 0.03106038272380829 0.6533109545707703
0.27142322063446045 0.029961256310343742 0.6534013748168945
0.27218592166900635 0.02942526899278164 0.6535850763320923
0.2737993597984314 0.027788108214735985 0.6543039679527283
0.2755259871482849 0.02538517862558365 0.6554983854293823
0.2808249592781067 0.026085123419761658 0.6538864374160767
0.2849263846874237 0.02596537210047245 0.6530711650848389
0.28751108050346375 0.021935733035206795 0.6551417708396912
0.29154664278030396 0.022343821823596954 0.6539958119392395
0.29224714636802673 0.022207951173186302 0.6539318561553955
0.29296720027923584 0.021914303302764893 0.6539669036865234
0.29438573122024536 0.021504707634449005 0.6539257168769836
0.2965075969696045 0.020948808640241623 0.653826892375946
0.2973918616771698 0.019187700003385544 0.6547852754592896
0.3016379475593567 0.01796775870025158 0.6546574234962463
0.30364060401916504 0.018586991354823112 0.6538161039352417
0.30431073904037476 0.018794449046254158 0.6535346508026123
0.30979493260383606 0.019567083567380905 0.6518349051475525
0.31047549843788147 0.019776472821831703 0.6515494585037231
0.31537601351737976 0.019894486293196678 0.6504051685333252
0.31607571244239807 0.01995847560465336 0.6502104997634888
0.3172967731952667 0.022704891860485077 0.648149311542511
0.3178795278072357 0.024595048278570175 0.6467867493629456
0.3197980225086212 0.02818310260772705 0.6440233588218689
0.3210080564022064 0.03208526596426964 0.6412094235420227
0.3217519521713257 0.031837303191423416 0.6412094235420227
0.3223687708377838 0.03381400555372238 0.6397831439971924
0.23891721665859222 0.05964548513293266 0.6401309967041016
0.24122276902198792 0.05535902827978134 0.6424375176429749
0.2426595240831375 0.051851291209459305 0.6444230675697327
0.24530285596847534 0.045800648629665375 0.6478129625320435
0.24602924287319183 0.045558519661426544 0.6478129625320435
0.2496093064546585 0.03802131861448288 0.6519719958305359
0.2507551908493042 0.03568049520254135 0.653256356716156
0.2536020576953888 0.031436026096343994 0.6554169058799744
0.25566986203193665 0.02766439877450466 0.6574376821517944
0.25637298822402954 0.027429983019828796 0.6574376821517944
0.25739383697509766 0.025564635172486305 0.6584376692771912
0.25836899876594543 0.023912450298666954 0.6593080163002014
0.260592520236969 0.02254127338528633 0.6597211360931396
0.26554781198501587 0.02419840730726719 0.6575515270233154
0.26562774181365967 0.02748936042189598 0.6553762555122375
0.26633596420288086 0.027253292500972748 0.6553762555122375
0.2673284709453583 0.029238862916827202 0.6538575887680054
0.26859012246131897 0.029719138517975807 0.6532669067382812
0.27291977405548096 0.027980929240584373 0.6534603834152222
0.2779958248138428 0.025745756924152374 0.653816282749176
0.27864184975624084 0.025948552414774895 0.6535425782203674
0.2792889177799225 0.026151711121201515 0.6532678008079529
0.2800021767616272 0.02591395378112793 0.6532678008079529
0.2839759588241577 0.026695597916841507 0.6518868207931519
0.28586164116859436 0.022881461307406425 0.6539754271507263
0.2886592447757721 0.02230663411319256 0.6537410020828247
0.29944008588790894 0.01782817766070366 0.6543211340904236
0.3007684648036957 0.018239909783005714 0.6537609100341797
0.3068910539150238 0.019215427339076996 0.6517831683158875
0.31384292244911194 0.01963629387319088 0.649988055229187
0.31454870104789734 0.019599674269557 0.649857759475708
0.3170926570892334 0.02355571649968624 0.6467079520225525
0.3176763653755188 0.025450702756643295 0.6453381180763245
0.31840869784355164 0.025206590071320534 0.6453381180763245
0.31900060176849365 0.027123497799038887 0.643951952457428
0.3195977509021759 0.029058871790766716 0.6425520777702332
0.3208092153072357 0.0329773835837841 0.6397181749343872
0.2388657182455063 0.058950453996658325 0.6396476030349731
0.24399486184120178 0.04785234108567238 0.6458221673965454
0.24728456139564514 0.041850488632917404 0.6490484476089478
0.249618262052536 0.03705035522580147 0.6516935229301453
0.2628838121891022 0.023354968056082726 0.6577922105789185
0.2642073631286621 0.023319220170378685 0.6575255393981934
0.26578718423843384 0.02557959221303463 0.6556926369667053
0.2664930820465088 0.02534429542720318 0.6556926369667053
0.26740705966949463 0.027753271162509918 0.6539081335067749
0.2714715600013733 0.02752646617591381 0.6531660556793213
0.27378252148628235 0.025721266865730286 0.6538469195365906
0.27452048659324646 0.02531002275645733 0.6539552807807922
0.2811279296875 0.0263533778488636 0.6518208980560303
0.2864724099636078 0.022168787196278572 0.6534013152122498
0.2871837913990021 0.021931659430265427 0.6534013152122498
0.290608674287796 0.021793343126773834 0.6527411341667175
0.2949692904949188 0.019659893587231636 0.6531886458396912
0.29650411009788513 0.018214162439107895 0.6538029909133911
0.2979205548763275 0.017778532579541206 0.6537786722183228
0.2986183762550354 0.017657451331615448 0.6537055969238281
0.29994502663612366 0.018068553879857063 0.6531444191932678
0.30399903655052185 0.01886546052992344 0.6517316102981567
0.3047144114971161 0.018626997247338295 0.6517316102981567
0.31020012497901917 0.019516468048095703 0.6499440670013428
0.3157360255718231 0.02063840627670288 0.6479928493499756
0.3174719214439392 0.026312781497836113 0.6438800096511841
0.31939658522605896 0.02993825078010559 0.6410742402076721
0.3200003504753113 0.0318957157433033 0.6396545767784119
0.23688647150993347 0.06388280540704727 0.6358771920204163
0.24117214977741241 0.05373309925198555 0.6416307687759399
0.24264691770076752 0.05005495250225067 0.6437323689460754
0.2452966868877411 0.043980810791254044 0.6471568942070007
0.2460213303565979 0.04373934864997864 0.6471568942070007
0.25077319145202637 0.03374077007174492 0.6527079343795776
0.25259336829185486 0.03130289167165756 0.6539156436920166
0.25363507866859436 0.02940981648862362 0.6549355387687683
0.25466951727867126 0.027529992163181305 0.655948281288147
0.25569674372673035 0.025662636384367943 0.6569539308547974
0.25639808177948 0.025428863242268562 0.6569539308547974
0.25741615891456604 0.02357516996562481 0.6579530835151672
0.25952139496803284 0.02283143810927868 0.6579806208610535
0.2602202892303467 0.02259848453104496 0.6579806208610535
0.26804208755493164 0.026921339333057404 0.6534093022346497
0.2782909870147705 0.026012619957327843 0.6517549157142639
0.2796533405780792 0.02597803622484207 0.6514783501625061
0.2846539616584778 0.024312475696206093 0.651477575302124
0.2883739471435547 0.021988239139318466 0.6521927118301392
0.29347527027130127 0.01939135044813156 0.6527840495109558
0.2956889271736145 0.017992500215768814 0.6532200574874878
0.3004515469074249 0.018309907987713814 0.6519632339477539
0.306585431098938 0.019255783408880234 0.6499906182289124
0.3086870014667511 0.01913137547671795 0.649610698223114
0.31423717737197876 0.01985202170908451 0.6479145288467407
0.3161029517650604 0.023361045867204666 0.6451897025108337
0.3166821002960205 0.025260714814066887 0.6438090801239014
0.3191945552825928 0.030818331986665726 0.639590322971344
0.31979870796203613 0.0327877476811409 0.6381585001945496
0.32040849328041077 0.03477541357278824 0.6367129683494568
0.23874180018901825 0.05765952542424202 0.6386240124702454
0.2426406294107437 0.04915957897901535 0.6433885097503662
0.2473009079694748 0.03992239385843277 0.6484730243682861
0.24848158657550812 0.037470489740371704 0.6498348712921143
0.24963609874248505 0.03511590510606766 0.6511380076408386
0.26383891701698303 0.02337862178683281 0.6557721495628357
0.26446348428726196 0.023576322942972183 0.6555036902427673
0.2664039134979248 0.0238315612077713 0.6549064517021179
0.26809242367744446 0.02559778280556202 0.6533656120300293
0.2700943648815155 0.025622501969337463 0.65290766954422
0.27482250332832336 0.02547062188386917 0.6519650816917419
0.27617770433425903 0.025435637682676315 0.6516895294189453
0.28143230080604553 0.026622992008924484 0.6497447490692139
0.28208595514297485 0.026827769353985786 0.6494651436805725
0.2836102247238159 0.02571207843720913 0.649867057800293
0.2845633625984192 0.023762378841638565 0.6509472727775574
0.2861505448818207 0.022110365331172943 0.6516901254653931
0.28686290979385376 0.021872911602258682 0.6516901254653931
0.2882503569126129 0.021681807935237885 0.6515104174613953
0.29038259387016296 0.021016214042901993 0.651480495929718
0.2982986271381378 0.01772596500813961 0.6519116759300232
0.2996269166469574 0.01813826896250248 0.6513460278511047
0.30368608236312866 0.018936442211270332 0.6499223709106445
0.3044026792049408 0.018697582185268402 0.6499223709106445
0.31213852763175964 0.01787770912051201 0.6487587690353394
0.3134657144546509 0.018828539177775383 0.6478368639945984
0.315320760011673 0.022322431206703186 0.6451156139373779
0.3158954381942749 0.024213043972849846 0.6437380313873291
0.31706005334854126 0.02805170603096485 0.6409411430358887
0.31779807806015015 0.027805697172880173 0.6409411430358887
0.3183918595314026 0.02974742092192173 0.6395251750946045
0.3195960819721222 0.03368475288152695 0.636654794216156
0.2439943552017212 0.04508650675415993 0.6448547840118408
0.2460138201713562 0.041927870362997055 0.646504282951355
0.2507878839969635 0.03182552009820938 0.652152955532074
0.2526215612888336 0.029313329607248306 0.6534148454666138
0.25366780161857605 0.027395129203796387 0.6544564962387085
0.2546992897987366 0.025526972487568855 0.655468225479126
0.25572362542152405 0.02367192693054676 0.6564726233482361
0.2604655921459198 0.022852564230561256 0.6559675931930542
0.2668663561344147 0.023967647925019264 0.653811514377594
0.26747646927833557 0.0242820605635643 0.6534678339958191
0.27201181650161743 0.02513325959444046 0.6518992185592651
0.27793899178504944 0.026076508685946465 0.6499618887901306
0.2785876393318176 0.026280581951141357 0.6496831774711609
0.2853265404701233 0.021952632814645767 0.6510645747184753
0.2918681502342224 0.01875808648765087 0.6517375707626343
0.2926446795463562 0.017984664067626 0.6520792841911316
0.29544395208358765 0.017381692305207253 0.6518599987030029
0.2961033284664154 0.017586832866072655 0.6515779495239258
0.3015165627002716 0.01834890805184841 0.6498745083808899
0.30919596552848816 0.01786935143172741 0.6484941840171814
0.310619056224823 0.01755204237997532 0.6483896374702454
0.3126971125602722 0.017810046672821045 0.6477586030960083
0.31381481885910034 0.02153339982032776 0.6450399160385132
0.3145414888858795 0.021291183307766914 0.6450399160385132
0.31511181592941284 0.023169996216893196 0.6436669230461121
0.3168524205684662 0.028927259147167206 0.6394608020782471
0.2366935908794403 0.061958882957696915 0.6343097686767578
0.23861800134181976 0.056371696293354034 0.6376024484634399
0.24110907316207886 0.05124754086136818 0.6404610276222229
0.2426280975341797 0.047374702990055084 0.6427022218704224
0.24528759717941284 0.04126612842082977 0.6461789608001709
0.24731729924678802 0.03800370544195175 0.6479007005691528
0.2485024482011795 0.03553120046854019 0.649283766746521
0.24965383112430573 0.03319120407104492 0.6505858898162842
0.2507951557636261 0.03087151050567627 0.65187668800354
0.25772613286972046 0.02252601459622383 0.6558946967124939
0.25834229588508606 0.02272174321115017 0.6556277871131897
0.26409438252449036 0.023636015132069588 0.6537424921989441
0.2653481960296631 0.024034030735492706 0.653199315071106
0.26992085576057434 0.024561960250139236 0.6518332362174988
0.270556777715683 0.024762269109487534 0.6515588760375977
0.2751094698905945 0.025736428797245026 0.6498996615409851
0.27646827697753906 0.02570158801972866 0.6496213674545288
0.2810838222503662 0.026688288897275925 0.6479402780532837
0.2843821942806244 0.022663814947009087 0.6498876214027405
0.2918311357498169 0.017763225361704826 0.6514971256256104
0.2925359010696411 0.017564963549375534 0.6514724493026733
0.29864224791526794 0.018001526594161987 0.6498271226882935
0.30695199966430664 0.017907870933413506 0.6480451226234436
0.3105316758155823 0.0168289914727211 0.6479693651199341
0.3136025667190552 0.022373830899596214 0.6435962319374084
0.3154768645763397 0.025933878496289253 0.6408103108406067
0.31605765223503113 0.027862397953867912 0.6393974423408508
0.3166441023349762 0.029802005738019943 0.637975811958313
0.3179808557033539 0.031515881419181824 0.6365383863449097
0.23663249611854553 0.061305005103349686 0.633797287940979
0.23855634033679962 0.05572857707738876 0.6370927095413208
0.24398867785930634 0.04327810928225517 0.6441977620124817
0.2452845424413681 0.04036491736769676 0.6458542346954346
0.2460061013698578 0.04012439772486687 0.6458542346954346
0.2473122775554657 0.03711065277457237 0.6475762724876404
0.2508026659488678 0.02991974912583828 0.6516013145446777
0.2526377737522125 0.027391957119107246 0.6528806686401367
0.25370022654533386 0.025391368195414543 0.6539802551269531
0.25472891330718994 0.02353527955710888 0.6549909114837646
0.2607121467590332 0.023107917979359627 0.6539443135261536
0.2626597285270691 0.023269012570381165 0.653403103351593
0.26713064312934875 0.02422795072197914 0.6517676711082458
0.27300310134887695 0.02516057714819908 0.6498377323150635
0.27823522686958313 0.026345331221818924 0.6478820443153381
0.28178825974464417 0.02536390721797943 0.6477461457252502
0.28250521421432495 0.02512488327920437 0.6477461457252502
0.28337666392326355 0.02378857135772705 0.6484450101852417
0.28504836559295654 0.021562723442912102 0.6495590806007385
0.2864857316017151 0.020999902859330177 0.6496150493621826
0.2885987162590027 0.02047734521329403 0.6494935750961304
0.28955426812171936 0.018359269946813583 0.650695264339447
0.29577940702438354 0.01765553653240204 0.6497796177864075
0.29644083976745605 0.01786135509610176 0.649495005607605
0.30188223719596863 0.01850866712629795 0.6478511095046997
0.30257993936538696 0.01845998875796795 0.6477287411689758
0.30400097370147705 0.018114270642399788 0.6476427912712097
0.30471184849739075 0.017941409721970558 0.6476003527641296
0.3061462342739105 0.01746676303446293 0.6475980877876282
0.308300644159317 0.016726452857255936 0.6476128101348877
0.31116175651550293 0.015868155285716057 0.6475490927696228
0.31226876378059387 0.019473083317279816 0.6448954343795776
0.3128263056278229 0.021338537335395813 0.6435256600379944
0.3152660131454468 0.02680172026157379 0.6393340826034546
0.3158474266529083 0.028738001361489296 0.6379122138023376
0.24106723070144653 0.04959835857152939 0.6396847367286682
0.24260610342025757 0.04564123600721359 0.6419916749000549
0.2439858466386795 0.04237695783376694 0.6438702940940857
0.24528148770332336 0.039466116577386856 0.6455303430557251
0.24600224196910858 0.03922586143016815 0.6455303430557251
0.24852320551872253 0.03360128402709961 0.6487353444099426
0.24967148900032043 0.03127628564834595 0.6500362157821655
0.2561904489994049 0.021831050515174866 0.6549072265625
0.25796544551849365 0.022779537364840508 0.6538754105567932
0.25858327746391296 0.022976508364081383 0.6536056995391846
0.26372432708740234 0.02369591034948826 0.6519759893417358
0.26435139775276184 0.02389497496187687 0.6517025232315063
0.26497960090637207 0.024094415828585625 0.6514288783073425
0.2701941430568695 0.024824408814311028 0.649775505065918
0.27611324191093445 0.02576540783047676 0.6478239893913269
0.2774088680744171 0.026173315942287445 0.6472612023353577
0.2894956171512604 0.017557494342327118 0.6503337621688843
0.2929280996322632 0.017311325296759605 0.649732232093811
0.2989875078201294 0.01827825978398323 0.6477315425872803
0.30318552255630493 0.01779746264219284 0.6471161246299744
0.30893027782440186 0.015785612165927887 0.6471812725067139
0.3115001320838928 0.018448831513524055 0.6448237299919128
0.3131740689277649 0.02407713606953621 0.640680193901062
0.31390631198883057 0.023833055049180984 0.640680193901062
0.3144778311252594 0.025741171091794968 0.6392743587493896
0.3150540888309479 0.027672572061419487 0.6378517150878906
0.23651036620140076 0.05999983474612236 0.6327728033065796
0.24398288130760193 0.041477661579847336 0.6435436010360718
0.2473018765449524 0.035331934690475464 0.6469292640686035
0.24968016147613525 0.030322419479489326 0.6497621536254883
0.251523494720459 0.027788100764155388 0.6510522365570068
0.2537325918674469 0.023398688063025475 0.6535064578056335
0.25537368655204773 0.021733662113547325 0.654257595539093
0.25667646527290344 0.021744323894381523 0.6539587378501892
0.2609596848487854 0.023364810273051262 0.6519109010696411
0.2667637765407562 0.024288266897201538 0.6499902009963989
0.2680302858352661 0.024689655750989914 0.6494371891021729
0.27328550815582275 0.025426268577575684 0.6477653980255127
0.2745733857154846 0.02583247981965542 0.6472037434577942
0.27925148606300354 0.02637600339949131 0.6457912921905518
0.2817024290561676 0.02361028455197811 0.6471003890037537
0.2824179232120514 0.023371785879135132 0.6471003890037537
0.2878987789154053 0.018139217048883438 0.6493886113166809
0.28867217898368835 0.017419392243027687 0.6496988534927368
0.2900966703891754 0.016901591792702675 0.6497278213500977
0.2954542338848114 0.01772420108318329 0.6479751467704773
0.29611659049987793 0.01793055050075054 0.6476883292198181
0.3009364902973175 0.017967911437153816 0.6465837359428406
0.306690514087677 0.015835793688893318 0.6467273831367493
0.31001344323158264 0.017669139429926872 0.6447515487670898
0.31128302216529846 0.0192797239869833 0.6433853507041931
0.3118363916873932 0.0211464986205101 0.642007052898407
0.3129580616950989 0.024935835972428322 0.6392101049423218
0.23837149143218994 0.05380405858159065 0.6355659365653992
0.24527552723884583 0.03767406940460205 0.6448854207992554
0.24968892335891724 0.02937081642448902 0.6494892835617065
0.2544843852519989 0.021993979811668396 0.6533832550048828
0.25820574164390564 0.023034851998090744 0.6518459320068359
0.2639809250831604 0.02395452931523323 0.6499287486076355
0.2646096646785736 0.024154333397746086 0.6496526598930359
0.26531749963760376 0.023918354883790016 0.6496526598930359
0.26983070373535156 0.02488597109913826 0.6479871273040771
0.270469069480896 0.025087932124733925 0.647707462310791
0.2764047384262085 0.02603357844054699 0.6457369327545166
0.2791900932788849 0.025636859238147736 0.6453785300254822
0.28003326058387756 0.024548230692744255 0.6459229588508606
0.2832243740558624 0.021303974092006683 0.6473922729492188
0.2840002179145813 0.020620005205273628 0.6476789116859436
0.2861082851886749 0.02012542635202408 0.6475387811660767
0.287837415933609 0.01736978255212307 0.6490074992179871
0.29259875416755676 0.01737953908741474 0.6479310989379883
0.2993992567062378 0.017959626391530037 0.6460126042366028
0.3044497072696686 0.015928814187645912 0.6462467908859253
0.30925223231315613 0.01665218360722065 0.644680380821228
0.309792697429657 0.01849985495209694 0.6433141231536865
0.3110647201538086 0.020114844664931297 0.641939640045166
0.31217727065086365 0.023886878043413162 0.639148473739624
0.31274086236953735 0.025800321251153946 0.6377320289611816
0.2363886535167694 0.05869711562991142 0.6317512392997742
0.24085381627082825 0.047824062407016754 0.638094425201416
0.24251879751682281 0.043304942548274994 0.640774130821228
0.24397724866867065 0.03968511149287224 0.6428923606872559
0.2472914159297943 0.03356138616800308 0.6462845802307129
0.24855132400989532 0.030737370252609253 0.6479098200798035
0.2515362501144409 0.025901850312948227 0.650505781173706
0.25265783071517944 0.023637544363737106 0.6517837643623352
0.25739794969558716 0.02286684513092041 0.651236891746521
0.2612086832523346 0.02362247183918953 0.6498672962188721
0.2670292258262634 0.02454981952905655 0.6479288935661316
0.2729254364967346 0.02548934705555439 0.6459652185440063
0.2742147743701935 0.02589660882949829 0.6453999280929565
0.28000351786613464 0.02359582670032978 0.6456506848335266
0.2816169261932373 0.021864090114831924 0.6464577913284302
0.28532418608665466 0.019673705101013184 0.6471027135848999
0.2860364615917206 0.01943623647093773 0.6471027135848999
0.2904655337333679 0.016798775643110275 0.6478878855705261
0.29579102993011475 0.018000110983848572 0.6458757519721985
0.2965063154697418 0.017761679366230965 0.6458757519721985
0.29858383536338806 0.017668843269348145 0.6454704403877258
0.30001699924468994 0.01718476042151451 0.645474910736084
0.30219602584838867 0.01617245562374592 0.6456681489944458
0.302921861410141 0.01583303138613701 0.6457338929176331
0.30436185002326965 0.015266836620867252 0.6457923054695129
0.3065168857574463 0.014459199272096157 0.6458526253700256
0.3079485297203064 0.013971146196126938 0.6458597779273987
0.30849385261535645 0.01563926227390766 0.6446094512939453
0.30902987718582153 0.017478840425610542 0.64324551820755
0.3095713257789612 0.019328882917761803 0.6418730020523071
0.31029602885246277 0.01908731460571289 0.6418730020523071
0.3113993704319 0.022842008620500565 0.6390861868858337
0.31195881962776184 0.02474278211593628 0.6376752257347107
0.31252285838127136 0.026667410507798195 0.6362473964691162
0.24078212678432465 0.047236524522304535 0.6375635862350464
0.24526946246623993 0.03589028865098953 0.6442423462867737
0.24728620052337646 0.032678764313459396 0.6459641456604004
0.24855802953243256 0.02980073355138302 0.6476277709007263
0.24970640242099762 0.02747487463057041 0.648945152759552
0.25346291065216064 0.02198401652276516 0.6518189907073975
0.2542201280593872 0.021468380466103554 0.651997447013855
0.2569752633571625 0.020749345421791077 0.6518620848655701
0.25915178656578064 0.023056862875819206 0.6498059034347534
0.26360905170440674 0.024015182629227638 0.648148775100708
0.26423847675323486 0.024215364828705788 0.647870659828186
0.2649475336074829 0.023979008197784424 0.647870659828186
0.27010494470596313 0.02515087090432644 0.6459107398986816
0.2760586440563202 0.026030058041214943 0.6439689993858337
0.27681365609169006 0.025551099330186844 0.6441233158111572
0.2791326344013214 0.02372855879366398 0.6448351144790649
0.28075364232063293 0.02196444384753704 0.6456647515296936
0.2854376435279846 0.01764856092631817 0.6475321054458618
0.28614750504493713 0.017412062734365463 0.6475321054458618
0.28828245401382446 0.01666061393916607 0.6475589275360107
0.29364147782325745 0.017415406182408333 0.6458361744880676
0.2943023443222046 0.01762157678604126 0.6455468535423279
0.30138295888900757 0.015858307480812073 0.6451422572135925
0.30934855341911316 0.02016489766538143 0.6404224038124084
0.3106245994567871 0.02180095575749874 0.6390249133110046
0.31117910146713257 0.023696500808000565 0.6376140117645264
0.23626692593097687 0.057397980242967606 0.6307315826416016
0.23818711936473846 0.051885802298784256 0.6340446472167969
0.24246077239513397 0.04175356402993202 0.6399660110473633
0.24396288394927979 0.0379406213760376 0.6422188878059387
0.24526657164096832 0.035001084208488464 0.6439221501350403
0.24728110432624817 0.031798217445611954 0.6456437706947327
0.2508465051651001 0.02425932139158249 0.6499620676040649
0.25862550735473633 0.02142387442290783 0.6501269936561584
0.26216641068458557 0.02364606410264969 0.6478131413459778
0.26342272758483887 0.024045713245868683 0.64725661277771
0.2672956883907318 0.024813726544380188 0.6458562612533569
0.26800796389579773 0.024576304480433464 0.6458562612533569
0.27320870757102966 0.02575725130736828 0.6438741087913513
0.2745721936225891 0.025722002610564232 0.6435893177986145
0.2760554850101471 0.024934446439146996 0.6437888145446777
0.279915452003479 0.021891165524721146 0.6449832320213318
0.28219714760780334 0.020213831216096878 0.6456066966056824
0.28359460830688477 0.019938213750720024 0.6454771161079407
0.29078811407089233 0.017071165144443512 0.6457964777946472
0.29984453320503235 0.015883440151810646 0.6445510387420654
0.3041858375072479 0.01395061518996954 0.6448813080787659
0.30751314759254456 0.01544847059994936 0.643108606338501
0.3080454468727112 0.017284918576478958 0.6417393684387207
0.30912449955940247 0.02100703865289688 0.6389634609222412
0.2381257861852646 0.05124794319272041 0.6335383057594299
0.2439553141593933 0.037073079496622086 0.6418816447257996
0.24597957730293274 0.03387542814016342 0.6436025500297546
0.24855777621269226 0.027996867895126343 0.6470259428024292
0.24972379207611084 0.025588365271687508 0.6484036445617676
0.25085362792015076 0.023324154317378998 0.6496912837028503
0.25723177194595337 0.02090279571712017 0.6498926877975464
0.2585507929325104 0.02086555026471615 0.6496181488037109
0.2600199580192566 0.02351335994899273 0.6474778652191162
0.26520830392837524 0.024240689352154732 0.6458024382591248
0.2703804671764374 0.025417383760213852 0.6438236236572266
0.2760389447212219 0.023927420377731323 0.6435530781745911
0.278261661529541 0.022722333669662476 0.6438700556755066
0.2837391495704651 0.017735162749886513 0.6460263133049011
0.2879461944103241 0.016727665439248085 0.6457571387290955
0.28859901428222656 0.016932353377342224 0.6454688906669617
0.2939859926700592 0.017589470371603966 0.6437958478927612
0.29468056559562683 0.017528090626001358 0.643680214881897
0.29610520601272583 0.01711129955947399 0.6436402797698975
0.2983061671257019 0.015914874151349068 0.6439561247825623
0.30265921354293823 0.013876041397452354 0.6443569660186768
0.3072870075702667 0.016268648207187653 0.6416729688644409
0.30781975388526917 0.01811225339770317 0.6402941942214966
0.3083571493625641 0.019973477348685265 0.6389026045799255
0.30889925360679626 0.021853361278772354 0.6374967098236084
0.2361452877521515 0.05610300973057747 0.6297131776809692
0.24058565497398376 0.04539583995938301 0.6360255479812622
0.25230729579925537 0.021708473563194275 0.6495583653450012
0.25444597005844116 0.02082596905529499 0.6496744751930237
0.26241976022720337 0.023906268179416656 0.645748496055603
0.26304903626441956 0.024106647819280624 0.6454677581787109
0.26827770471572876 0.024840567260980606 0.6437735557556152
0.2738242745399475 0.023968057706952095 0.6431053876876831
0.27453991770744324 0.023729635402560234 0.6431053876876831
0.27753332257270813 0.02192269079387188 0.6436586976051331
0.2782476544380188 0.02168457582592964 0.6436586976051331
0.28189530968666077 0.019969534128904343 0.6440003514289856
0.28366395831108093 0.017088845372200012 0.6455680727958679
0.284387469291687 0.0167557243257761 0.645630955696106
0.29045453667640686 0.017139514908194542 0.6439846158027649
0.2974805235862732 0.01573263853788376 0.6433446407318115
0.30039849877357483 0.01423982810229063 0.643700897693634
0.3011232912540436 0.013901547528803349 0.6437669396400452
0.30257198214530945 0.01322530023753643 0.6438993811607361
0.3040093183517456 0.01264957245439291 0.6439650058746338
0.30581215023994446 0.015497419051826 0.641605794429779
0.30653128027915955 0.015257706865668297 0.641605794429779
0.3075927197933197 0.01894431747496128 0.6388413310050964
0.30867278575897217 0.022704439237713814 0.6360225081443787
0.2380034625530243 0.049973782151937485 0.6325283050537109
0.2405415028333664 0.044687237590551376 0.6355748176574707
0.24237409234046936 0.03943663462996483 0.6387590765953064
0.24392209947109222 0.03542588651180267 0.6411572694778442
0.24726556241512299 0.029168177396059036 0.6446865797042847
0.2497410923242569 0.023711364716291428 0.6478648781776428
0.2574692964553833 0.021158620715141296 0.6478487253189087
0.2581723630428314 0.020924262702465057 0.6478487253189087
0.26003414392471313 0.021517639979720116 0.6470156908035278
0.2642962336540222 0.02359112538397312 0.6446180939674377
0.2654702961444855 0.024503840133547783 0.6437229514122009
0.2661145031452179 0.024654030799865723 0.6434728503227234
0.2759960889816284 0.021986743435263634 0.6430427432060242
0.2803361415863037 0.020188959315419197 0.6432837247848511
0.2810760736465454 0.019773542881011963 0.6433994770050049
0.28760868310928345 0.01679506152868271 0.6439491510391235
0.28826215863227844 0.017000284045934677 0.6436585187911987
0.29591813683509827 0.015980375930666924 0.6426076292991638
0.30558162927627563 0.016315612941980362 0.6401666402816772
0.3068312704563141 0.017919540405273438 0.638780951499939
0.30736446380615234 0.019782215356826782 0.6373803019523621
0.30790239572525024 0.021662382408976555 0.6359671354293823
0.30844512581825256 0.02356070652604103 0.6345402002334595
0.23794221878051758 0.04933799430727959 0.6320230960845947
0.24049769341945648 0.04397907480597496 0.6351256370544434
0.24525807797908783 0.03144834563136101 0.6426581144332886
0.24853818118572235 0.025396553799510002 0.6460708975791931
0.250566303730011 0.021998964250087738 0.6479443907737732
0.2540872395038605 0.02075963094830513 0.6479892134666443
0.26046863198280334 0.02174661122262478 0.645845890045166
0.2624260187149048 0.02191009931266308 0.6452844738960266
0.2654995918273926 0.023329030722379684 0.6436028480529785
0.26612672209739685 0.023567717522382736 0.6432945132255554
0.2681567072868347 0.023471258580684662 0.6428949236869812
0.2701871693134308 0.023403659462928772 0.6424757838249207
0.27380678057670593 0.021907081827521324 0.6426756978034973
0.28124237060546875 0.017489591613411903 0.644010066986084
0.2847740650177002 0.016452496871352196 0.6439133882522583
0.2907845675945282 0.017365410923957825 0.6419061422348022
0.29218602180480957 0.01712440513074398 0.641750693321228
0.2943769097328186 0.016042932868003845 0.6419922709465027
0.2987738847732544 0.01365209836512804 0.6426287293434143
0.3023975193500519 0.011926436796784401 0.6429851651191711
0.30431249737739563 0.013481203466653824 0.6414757966995239
0.30535003542900085 0.01713978499174118 0.6387200951576233
0.3076736032962799 0.02251027338206768 0.6344902515411377
0.23788128793239594 0.04870263859629631 0.6315194368362427
0.23861920833587646 0.04845666512846947 0.6315194368362427
0.24231667816638947 0.03789869695901871 0.6379573941230774
0.24386253952980042 0.03390607610344887 0.6403584480285645
0.24725525081157684 0.027424141764640808 0.6440521478652954
0.24853166937828064 0.02453366294503212 0.6457538604736328
0.252589613199234 0.02078147791326046 0.6474103927612305
0.25841301679611206 0.02118067443370819 0.6457948088645935
0.2634948194026947 0.022341057658195496 0.6438242793083191
0.2757982611656189 0.02104070596396923 0.6418906450271606
0.2764890193939209 0.020951421931385994 0.6417937874794006
0.2786707282066345 0.019976889714598656 0.6419640183448792
0.2803524136543274 0.017793070524930954 0.6430846452713013
0.28259798884391785 0.01630535162985325 0.6435952186584473
0.28792452812194824 0.017068052664399147 0.641842782497406
0.28863853216171265 0.016830049455165863 0.641842782497406
0.2935364246368408 0.015988603234291077 0.6412968635559082
0.2942858636379242 0.01546382438391447 0.6414862275123596
0.2964790165424347 0.014327769167721272 0.6417658925056458
0.2972148656845093 0.013898801058530807 0.6418929696083069
0.2979500889778137 0.013470308855175972 0.6420193910598755
0.30086469650268555 0.011951925233006477 0.6423967480659485
0.30356717109680176 0.012479211203753948 0.6414110064506531
0.3051169514656067 0.0179689172655344 0.6372643113136292
0.30637067556381226 0.019590718671679497 0.6358566284179688
0.23855794966220856 0.04782212898135185 0.6310163736343384
0.2438327670097351 0.03314827010035515 0.6399593949317932
0.245256245136261 0.029673295095562935 0.642037034034729
0.24725022912025452 0.02655516378581524 0.6437358856201172
0.24852530658245087 0.023672258481383324 0.6454377174377441
0.25566190481185913 0.02085118368268013 0.6457440853118896
0.2562793493270874 0.021049002185463905 0.6454645991325378
0.26142409443855286 0.02177051268517971 0.6437774896621704
0.26205095648765564 0.02197032794356346 0.6434945464134216
0.26654893159866333 0.022938299924135208 0.6417859196662903
0.26858142018318176 0.02283690869808197 0.6413868069648743
0.2707122266292572 0.022181915119290352 0.6413487792015076
0.2714531123638153 0.021779682487249374 0.6414563059806824
0.27223703265190125 0.021115630865097046 0.6417352557182312
0.27782872319221497 0.019930437207221985 0.6412650346755981
0.28248080611228943 0.01595483534038067 0.6429441571235657
0.2857944667339325 0.016486521810293198 0.6418114304542542
0.29859548807144165 0.012433435767889023 0.6416630148887634
0.30004191398620605 0.011768600903451443 0.6417896747589111
0.3021107017993927 0.011720317415893078 0.6413455605506897
0.3033320903778076 0.013288207352161407 0.6399781107902527
0.3038443922996521 0.015109395608305931 0.6385987401008606
0.3048827052116394 0.018803080543875694 0.6358016729354858
0.23775936663150787 0.0474342443048954 0.6305133104324341
0.2403666079044342 0.04185967147350311 0.6337814927101135
0.24525442719459534 0.02879246324300766 0.6417248249053955
0.24724522233009338 0.025687692686915398 0.6434205174446106
0.24937821924686432 0.021847451105713844 0.6455937623977661
0.25014686584472656 0.021299872547388077 0.6457960605621338
0.25225579738616943 0.020581547170877457 0.6458067893981934
0.2586548626422882 0.021438386291265488 0.6437304615974426
0.26186296343803406 0.022000644356012344 0.642597496509552
0.264462411403656 0.022366324439644814 0.6417413353919983
0.2793755829334259 0.017533637583255768 0.6416454911231995
0.28164446353912354 0.015904726460576057 0.6422514319419861
0.2829620838165283 0.016144130378961563 0.6417801976203918
0.28897106647491455 0.017001846805214882 0.6397930979728699
0.290391743183136 0.01660892367362976 0.6397370100021362
0.29185107350349426 0.015910273417830467 0.6398847699165344
0.2948457598686218 0.013839737512171268 0.6406295299530029
0.298506498336792 0.011825622990727425 0.6411808133125305
0.30187252163887024 0.012525862082839012 0.6399152278900146
0.30360865592956543 0.015929026529192924 0.6371495127677917
0.3041255474090576 0.017776938155293465 0.6357464790344238
0.30590561032295227 0.021276669576764107 0.6329041123390198
0.242245152592659 0.035536687821149826 0.636802077293396
0.24377338588237762 0.031636420637369156 0.6391640901565552
0.24525028467178345 0.027924593538045883 0.6414064764976501
0.25527817010879517 0.020909622311592102 0.6439650654792786
0.25651541352272034 0.021306224167346954 0.6434012651443481
0.2610471546649933 0.021830815821886063 0.6419835090637207
0.261674702167511 0.0220312662422657 0.6416983008384705
0.26230326294898987 0.0222316961735487 0.6414123773574829
0.26756760478019714 0.02274201810359955 0.639835000038147
0.2682564854621887 0.022650111466646194 0.6397389769554138
0.27042827010154724 0.02176397293806076 0.6398518681526184
0.2726028561592102 0.020852787420153618 0.6399816870689392
0.27462664246559143 0.020872781053185463 0.6394979357719421
0.27611789107322693 0.020004821941256523 0.6397565603256226
0.27750885486602783 0.01977199874818325 0.6395956873893738
0.278243750333786 0.019401365891098976 0.6396830081939697
0.2800782024860382 0.01622084155678749 0.6414724588394165
0.281495600938797 0.015770023688673973 0.6414573788642883
0.282141774892807 0.015973512083292007 0.6411657929420471
0.28545263409614563 0.016553547233343124 0.6399930715560913
0.286105751991272 0.016758613288402557 0.6396983861923218
0.2925098240375519 0.014822200872004032 0.639560341835022
0.2940080761909485 0.013775886967778206 0.6399411559104919
0.29768404364585876 0.011644909158349037 0.640572190284729
0.3011326491832733 0.011526748538017273 0.639853835105896
0.3033715784549713 0.0167545173317194 0.6356924772262573
0.303888738155365 0.01861124485731125 0.6342785954475403
0.2472350001335144 0.023959146812558174 0.6427914500236511
0.24828456342220306 0.02212814800441265 0.6438261270523071
0.2525341510772705 0.020580774173140526 0.6439176797866821
0.2582741975784302 0.02149815671145916 0.641940176486969
0.2640886902809143 0.02242760732769966 0.6399365663528442
0.2695915400981903 0.02167755737900734 0.6391785740852356
0.27595382928848267 0.01994463987648487 0.6389076709747314
0.27994710206985474 0.015962043777108192 0.6407601833343506
0.28261610865592957 0.016210569068789482 0.6399651169776917
0.29316726326942444 0.013736319728195667 0.6392366290092468
0.2961164712905884 0.011983443051576614 0.6397743225097656
0.2997725307941437 0.009948767721652985 0.6403443217277527
0.3013927936553955 0.014145543798804283 0.6370351910591125
0.30211183428764343 0.013905863277614117 0.6370351910591125
0.3026202619075775 0.015736298635601997 0.635637640953064
0.30365046858787537 0.019449811428785324 0.6328033804893494
0.24018244445323944 0.03998861089348793 0.6322875022888184
0.24213773012161255 0.0342378243803978 0.635860800743103
0.24815036356449127 0.02186392992734909 0.6431273221969604
0.2503582835197449 0.02070172131061554 0.6434262990951538
0.2555118799209595 0.021167190745472908 0.6418961882591248
0.25613173842430115 0.02136586606502533 0.6416122317314148
0.26129719614982605 0.022092144936323166 0.6398968696594238
0.26255685091018677 0.02249453403055668 0.639320433139801
0.2729039788246155 0.020991342142224312 0.6379567384719849
0.2743318974971771 0.020532339811325073 0.6379448771476746
0.27834078669548035 0.016529006883502007 0.6398140788078308
0.2797910273075104 0.015869108960032463 0.6399374604225159
0.28043603897094727 0.0160729568451643 0.6396437287330627
0.2811475992202759 0.015835773199796677 0.6396437287330627
0.2857634723186493 0.016826778650283813 0.6378714442253113
0.28643158078193665 0.016937321051955223 0.6376377940177917
0.288579523563385 0.016224386170506477 0.6376354694366455
0.28933942317962646 0.015650302171707153 0.6378608345985413
0.29528310894966125 0.011894172988831997 0.6391041874885559
0.2982380986213684 0.010021249763667583 0.6397265791893005
0.2989494502544403 0.00978412851691246 0.6397265791893005
0.30065014958381653 0.013139449059963226 0.6369781494140625
0.30115100741386414 0.014962293207645416 0.6355835795402527
0.2401210069656372 0.03936704248189926 0.6317903399467468
0.24206583201885223 0.033671729266643524 0.6353375315666199
0.2436847984790802 0.029377689585089684 0.6379761695861816
0.2452007681131363 0.025499967858195305 0.6403466463088989
0.2527605891227722 0.020836232230067253 0.6418534517288208
0.2585166096687317 0.021758003160357475 0.639857292175293
0.26047948002815247 0.021922016516327858 0.6392819285392761
0.2643476724624634 0.022691650316119194 0.6378347277641296
0.2663801908493042 0.022597936913371086 0.6374242901802063
0.26856720447540283 0.021642204374074936 0.637583315372467
0.27007627487182617 0.02069714479148388 0.6378945112228394
0.2749502658843994 0.01980927214026451 0.6373767256736755
0.27663204073905945 0.017729299142956734 0.6384440660476685
0.2829190194606781 0.016481973230838776 0.637847900390625
0.2900063991546631 0.014520108699798584 0.6375665068626404
0.2907702922821045 0.013897515833377838 0.6378252506256104
0.29740920662879944 0.009908415377140045 0.639073371887207
0.299910306930542 0.01213708147406578 0.6369212865829468
0.3004070222377777 0.013951706700026989 0.6355293393135071
0.3021392524242401 0.017392408102750778 0.6327052712440491
0.30265259742736816 0.01925763674080372 0.6312741041183472
0.24199385941028595 0.033106107264757156 0.6348148584365845
0.24517028033733368 0.02475856989622116 0.6399526596069336
0.24705296754837036 0.022145410999655724 0.6413527727127075
0.2478824406862259 0.021334314718842506 0.6417296528816223
0.24860535562038422 0.021010609343647957 0.6417880058288574
0.2500304579734802 0.020458253100514412 0.6418426036834717
0.25574690103530884 0.021425431594252586 0.6398172378540039
0.2564549744129181 0.0211894940584898 0.6398172378540039
0.2615484297275543 0.022354809567332268 0.637799084186554
0.26217949390411377 0.022556377574801445 0.6375083923339844
0.26765936613082886 0.02195790782570839 0.6366427540779114
0.28008607029914856 0.016138944774866104 0.637825071811676
0.2807987928390503 0.015901369974017143 0.637825071811676
0.28760993480682373 0.015883781015872955 0.6362366676330566
0.29214274883270264 0.012573422864079475 0.6375049352645874
0.29363876581192017 0.011531745083630085 0.6378875374794006
0.2991730570793152 0.011138539761304855 0.6368643045425415
