ply
format ascii 1.0
element vertex 799
property float x
property float y
property float z
end_header
0.43367207050323486 -0.0215985719114542 0.6659121513366699
0.43045058846473694 -0.019577205181121826 0.6653323769569397
0.4299691617488861 -0.01808674819767475 0.6658200025558472
0.4294549524784088 -0.01757252775132656 0.6658200025558472
0.42815259099006653 -0.01583082601428032 0.6660321354866028
0.4270375072956085 -0.015811851248145103 0.6655023694038391
0.42295804619789124 -0.015391649678349495 0.6637342572212219
0.4196970462799072 -0.015207725577056408 0.6622474193572998
0.4136900305747986 -0.019076552242040634 0.6574755311012268
0.4527316093444824 -0.055179283022880554 0.6579934358596802
0.45414623618125916 -0.05266532301902771 0.6598976850509644
0.45723292231559753 -0.04430913180112839 0.6654439568519592
0.45861193537712097 -0.04189895838499069 0.6672807931900024
0.46041592955589294 -0.03907770663499832 0.6695224046707153
0.45990920066833496 -0.03857109695672989 0.6695224046707153
0.4598378539085388 -0.037633124738931656 0.6699423789978027
0.45846208930015564 -0.033980630338191986 0.6710459589958191
0.4431968927383423 -0.02089686319231987 0.669988751411438
0.4419654607772827 -0.020078063011169434 0.669788658618927
0.43410781025886536 -0.021180536597967148 0.6654456257820129
0.428677499294281 -0.015343133360147476 0.6656429171562195
0.45682284235954285 -0.04783870279788971 0.6626474261283875
0.4588782489299774 -0.04265665262937546 0.6661666035652161
0.46028056740760803 -0.0371917225420475 0.66950523853302
0.4541257619857788 -0.031208358705043793 0.6694218516349792
0.452348917722702 -0.03190678358078003 0.6682185530662537
0.45100101828575134 -0.031203288584947586 0.6679052710533142
0.4499114751815796 -0.030254056677222252 0.6678369641304016
0.4493664503097534 -0.029779529199004173 0.6678025722503662
0.4477674067020416 -0.028320802375674248 0.6677342057228088
0.447221964597702 -0.02784561552107334 0.6677004098892212
0.447284072637558 -0.02487686462700367 0.6691740155220032
0.4465669095516205 -0.02263832278549671 0.6699137687683105
0.4454320967197418 -0.021740129217505455 0.6697986125946045
0.442302405834198 -0.019744908437132835 0.6692469120025635
0.438883900642395 -0.017979972064495087 0.6684430837631226
0.4322594404220581 -0.01985209807753563 0.6643118858337402
0.4313644468784332 -0.019658828154206276 0.6639707684516907
0.42544081807136536 -0.014193342998623848 0.663748025894165
0.4225395917892456 -0.0137355737388134 0.6625601053237915
0.421171635389328 -0.01389929186552763 0.6618152260780334
0.41979700326919556 -0.014063866809010506 0.6610668301582336
0.4118378460407257 -0.016613634303212166 0.6559575200080872
0.4545070230960846 -0.05337373539805412 0.6579297184944153
0.4558938443660736 -0.050892073661088943 0.6598168015480042
0.4575941562652588 -0.048104409128427505 0.6620054244995117
0.4592762291431427 -0.04535125941038132 0.6641684770584106
0.45914581418037415 -0.04341723769903183 0.6650481820106506
0.46006685495376587 -0.03539077937602997 0.6694116592407227
0.4596985876560211 -0.03475235775113106 0.6695436239242554
0.4587802290916443 -0.03365522250533104 0.6696309447288513
0.4579017460346222 -0.032520491629838943 0.6697555184364319
0.45746269822120667 -0.031953632831573486 0.669818103313446
0.4466327428817749 -0.02543984353542328 0.6677132248878479
0.4463406503200531 -0.02185199409723282 0.6693205237388611
0.4392218291759491 -0.017646100372076035 0.6678999662399292
0.4332108497619629 -0.019948741421103477 0.6638449430465698
0.4300355613231659 -0.017878727987408638 0.6633060574531555
0.4295199513435364 -0.017363103106617928 0.6633060574531555
0.4290328025817871 -0.015880687162280083 0.6637913584709167
0.42806276679039 -0.013865488581359386 0.6643012762069702
0.4271394610404968 -0.013685964979231358 0.6639383435249329
0.4248978793621063 -0.013640009798109531 0.6628676652908325
0.41381850838661194 -0.017826862633228302 0.6554220914840698
0.411477267742157 -0.01588151417672634 0.6552292108535767
0.45547598600387573 -0.0545196495950222 0.6569409370422363
0.4566672742366791 -0.05116443336009979 0.6591651439666748
0.4583674967288971 -0.04836847260594368 0.661364734172821
0.460041880607605 -0.045615050941705704 0.6635310053825378
0.45992788672447205 -0.044694069772958755 0.6639255881309509
0.45869866013526917 -0.041813477873802185 0.6647334694862366
0.4557577669620514 -0.029627135023474693 0.6692563891410828
0.45386919379234314 -0.029450049623847008 0.6684190630912781
0.45208820700645447 -0.030143916606903076 0.6672083139419556
0.45036226511001587 -0.029792223125696182 0.6665360927581787
0.4482174515724182 -0.027857474982738495 0.6664331555366516
0.4440968632698059 -0.019994348287582397 0.6682643890380859
0.4422503709793091 -0.018764464184641838 0.6679625511169434
0.44152361154556274 -0.018450049683451653 0.6677609086036682
0.44028910994529724 -0.017627988010644913 0.6675590872764587
0.42807549238204956 -0.013798745349049568 0.6634571552276611
0.42435404658317566 -0.013085508719086647 0.6619856357574463
0.4238368570804596 -0.012568434700369835 0.6619856357574463
0.4198972284793854 -0.012920050881803036 0.6598864197731018
0.4490251839160919 -0.06561081856489182 0.6474279761314392
0.45625773072242737 -0.05479242280125618 0.65628582239151
0.45961833000183105 -0.04397802799940109 0.6632418632507324
0.45872774720191956 -0.041785016655921936 0.6638811230659485
0.46180233359336853 -0.03769167885184288 0.6673984527587891
0.4606632888317108 -0.035797473043203354 0.6677693128585815
0.456397145986557 -0.02998768724501133 0.6685266494750977
0.45310550928115845 -0.02916906215250492 0.667313277721405
0.4505879878997803 -0.029560988768935204 0.6658853888511658
0.4495336413383484 -0.028576621785759926 0.6658511161804199
0.448442667722702 -0.027625737711787224 0.6657822132110596
0.4478965997695923 -0.02715020254254341 0.6657475233078003
0.4462917745113373 -0.025692500174045563 0.6656754016876221
0.4469562768936157 -0.02315644919872284 0.6672461628913879
0.44563785195350647 -0.020501209422945976 0.6679020524024963
0.4443757236003876 -0.019712185487151146 0.6676698923110962
0.43408292531967163 -0.019113313406705856 0.6629128456115723
0.4308897852897644 -0.01801004819571972 0.6618874073028564
0.43011531233787537 -0.017710095271468163 0.6616544127464294
0.4295988082885742 -0.017193468287587166 0.6616544127464294
0.42063528299331665 -0.01226775161921978 0.6596730351448059
0.4187357723712921 -0.011906898580491543 0.658918023109436
0.41256895661354065 -0.015832820907235146 0.6539652943611145
0.4553046226501465 -0.05795513838529587 0.653354287147522
0.45703980326652527 -0.055065494030714035 0.6556308269500732
0.4587476849555969 -0.052220869809389114 0.6578714847564697
0.4604288935661316 -0.04942026361823082 0.660077691078186
0.46157026290893555 -0.046147093176841736 0.6622507572174072
0.4622238278388977 -0.04443756863474846 0.6634138226509094
0.46003755927085876 -0.043557338416576385 0.6627708673477173
0.4595334231853485 -0.033895496279001236 0.6672787666320801
0.45793843269348145 -0.03146196901798248 0.6676914691925049
0.4565551280975342 -0.0298228207975626 0.6678173542022705
0.4556775391101837 -0.028689362108707428 0.6679433584213257
0.44595977663993835 -0.02499319054186344 0.6649791598320007
0.44630879163742065 -0.023709872737526894 0.6657829880714417
0.44641271233558655 -0.021690836176276207 0.6668277978897095
0.442198246717453 -0.017783252522349358 0.6666769981384277
0.4387756884098053 -0.0160109531134367 0.6658646464347839
0.4380043148994446 -0.015727262943983078 0.6656244993209839
0.4374959468841553 -0.015218772925436497 0.6656244993209839
0.43311989307403564 -0.01798103004693985 0.6621107459068298
0.4322332739830017 -0.01777981035411358 0.6617735028266907
0.4291037619113922 -0.015660682693123817 0.6612762212753296
0.4280944764614105 -0.013670336455106735 0.6617588996887207
0.4266389012336731 -0.012050691060721874 0.6618396639823914
0.4250022768974304 -0.011508384719491005 0.6613010764122009
0.42387551069259644 -0.011481606401503086 0.6607593894004822
0.4213716387748718 -0.01161737460643053 0.6594603061676025
0.4104686379432678 -0.013623115606606007 0.6531062126159668
0.4611988067626953 -0.04968927428126335 0.6594319343566895
0.4628497362136841 -0.0469275638461113 0.66161048412323
0.45961809158325195 -0.042951811105012894 0.661978006362915
0.457797110080719 -0.03964005783200264 0.662713885307312
0.45853716135025024 -0.03186569735407829 0.6669179201126099
0.45482680201530457 -0.02751385234296322 0.6672346591949463
0.45335516333580017 -0.02791547030210495 0.666309654712677
0.4459652304649353 -0.022059042006731033 0.66555255651474
0.44619548320770264 -0.019937455654144287 0.6667139530181885
0.44180867075920105 -0.01713426224887371 0.6659318208694458
0.4272172749042511 -0.01152283139526844 0.6614980101585388
0.4233296811580658 -0.010924016125500202 0.6598740220069885
0.4188358783721924 -0.01076133456081152 0.6577356457710266
0.40772339701652527 -0.014732033014297485 0.6502884030342102
0.4631997048854828 -0.04553152993321419 0.6615875363349915
0.46305781602859497 -0.043598778545856476 0.6624744534492493
0.46138864755630493 -0.04323013126850128 0.6618304252624512
0.4588151276111603 -0.041698992252349854 0.6613142490386963
0.45782533288002014 -0.03960933908820152 0.6618587374687195
0.4609423577785492 -0.03551030531525612 0.6654327511787415
0.4597600996494293 -0.03365981951355934 0.6657636761665344
0.4525894522666931 -0.02763100527226925 0.665198028087616
0.450369656085968 -0.02773408219218254 0.6640477776527405
0.449664831161499 -0.027405573055148125 0.6638612151145935
0.44802623987197876 -0.025977246463298798 0.6637570261955261
0.4475165903568268 -0.025467585772275925 0.6637570261955261
0.4458673596382141 -0.024046506732702255 0.663644015789032
0.44604864716529846 -0.020990906283259392 0.6652472615242004
0.44521260261535645 -0.01886538788676262 0.6658861637115479
0.4440750181674957 -0.01796378381550312 0.6657690405845642
0.4434424638748169 -0.017567861825227737 0.6656520366668701
0.4409114718437195 -0.015977242961525917 0.6651861071586609
0.4298969805240631 -0.01584072783589363 0.6597985625267029
0.420951783657074 -0.009956824593245983 0.658282458782196
0.4120921194553375 -0.014104957692325115 0.6518402695655823
0.4114871919155121 -0.013631530106067657 0.6517748236656189
0.4594029188156128 -0.055869560688734055 0.6536783576011658
0.46274521946907043 -0.05022237077355385 0.658144474029541
0.46338558197021484 -0.04849636182188988 0.659320056438446
0.4641258716583252 -0.04562921077013016 0.6611120700836182
0.46389520168304443 -0.04378477483987808 0.6619137525558472
0.4587661921977997 -0.031624019145965576 0.6654070019721985
0.4578920602798462 -0.030480429530143738 0.6655409336090088
0.4574698805809021 -0.029895257204771042 0.6656220555305481
0.4556456208229065 -0.027687449008226395 0.665812611579895
0.4461016058921814 -0.02380458451807499 0.6630001068115234
0.44553452730178833 -0.023345844820141792 0.6629462838172913
0.44547560811042786 -0.021468644961714745 0.6638494729995728
0.4461226463317871 -0.018978476524353027 0.6654081344604492
0.4378199875354767 -0.013863424770534039 0.6638246178627014
0.43176907300949097 -0.016121655702590942 0.659696638584137
0.43125322461128235 -0.015605797059834003 0.659696638584137
0.42868679761886597 -0.013954810798168182 0.6592416763305664
0.42790403962135315 -0.012716866098344326 0.6594676971435547
0.4276700019836426 -0.011971116997301579 0.6597220301628113
0.426650732755661 -0.009998583234846592 0.6601956486701965
0.42562147974967957 -0.009895499795675278 0.6597356200218201
0.4233682453632355 -0.009835448116064072 0.658646285533905
0.4203149974346161 -0.009462429210543633 0.6573144197463989
0.41893619298934937 -0.009615697897970676 0.6565532088279724
0.4123360812664032 -0.013843703083693981 0.6511741280555725
0.4099593758583069 -0.011913932859897614 0.6509520411491394
0.46323665976524353 -0.04972293972969055 0.6577412486076355
0.4642322063446045 -0.04657696560025215 0.6598052382469177
0.4641088545322418 -0.04357383772730827 0.6612403392791748
0.461711585521698 -0.04187798500061035 0.6608906984329224
0.45919686555862427 -0.04131770879030228 0.6599167585372925
0.45740652084350586 -0.037975262850522995 0.660690188407898
0.46049436926841736 -0.03393051400780678 0.6642443537712097
0.4543989598751068 -0.025901172310113907 0.6652082800865173
0.45233261585235596 -0.025869499891996384 0.6641942858695984
0.45057424902915955 -0.026518408209085464 0.6629947423934937
0.4422162175178528 -0.01571192406117916 0.6642146706581116
0.4408586025238037 -0.014992836862802505 0.6638965010643005
0.43939900398254395 -0.014356445521116257 0.6634864211082458
0.438890665769577 -0.013848218135535717 0.6634864211082458
0.4322068989276886 -0.015704292804002762 0.659230649471283
0.42671212553977966 -0.009887978434562683 0.6593910455703735
0.42282143235206604 -0.00927553977817297 0.6577575206756592
0.41829395294189453 -0.009119161404669285 0.655579149723053
0.4102327227592468 -0.011629215441644192 0.6503111720085144
0.4604424238204956 -0.055890556424856186 0.6523644924163818
0.46455827355384827 -0.04520333185791969 0.6597639322280884
0.46264204382896423 -0.041971493512392044 0.6604216694831848
0.46045637130737305 -0.04108499363064766 0.6597722768783569
0.4579101800918579 -0.039516881108284 0.6592833399772644
0.45743441581726074 -0.03794289752840996 0.659832239151001
0.46058839559555054 -0.03383248671889305 0.6634633541107178
0.4597312808036804 -0.0326647087931633 0.6636186838150024
0.4589921832084656 -0.031385187059640884 0.6638888716697693
0.4564669728279114 -0.027860350906848907 0.6643884778022766
0.4515640437602997 -0.025580856949090958 0.663077175617218
0.4498862028121948 -0.026149403303861618 0.6619543433189392
0.44924744963645935 -0.02575748972594738 0.6618309020996094
0.44764605164527893 -0.024291764944791794 0.6617628931999207
0.4470990002155304 -0.02381485514342785 0.6617279052734375
0.44549423456192017 -0.02235008403658867 0.6616578102111816
0.4449313282966614 -0.021886484697461128 0.6616083383560181
0.4456471800804138 -0.019328461959958076 0.6632449626922607
0.4449121356010437 -0.017116045579314232 0.6639832258224487
0.4436474144458771 -0.016322694718837738 0.6637475490570068
0.4430122673511505 -0.015927167609333992 0.6636278629302979
0.4294193983078003 -0.014183392748236656 0.6577048897743225
0.42876437306404114 -0.013779107481241226 0.6575797200202942
0.427979975938797 -0.012539178133010864 0.6578076481819153
0.42453593015670776 -0.008778332732617855 0.657965898513794
0.4176502823829651 -0.008621064014732838 0.6546024084091187
0.41108256578445435 -0.011841436848044395 0.6497102379798889
0.40987032651901245 -0.010892564430832863 0.6495784521102905
0.4606807827949524 -0.05565651133656502 0.651688814163208
0.45959097146987915 -0.054639991372823715 0.6516517400741577
0.46405643224716187 -0.04889442399144173 0.6567716002464294
0.46427488327026367 -0.04760918393731117 0.6575255990028381
0.4639412462711334 -0.04480542987585068 0.6587638854980469
0.4639029800891876 -0.04380176216363907 0.6592480540275574
0.4630592167377472 -0.04155248403549194 0.6599527597427368
0.458681583404541 -0.039774272590875626 0.6586494445800781
0.45786041021347046 -0.029481545090675354 0.6633982062339783
0.456625372171402 -0.027694126591086388 0.6636753678321838
0.45567944645881653 -0.026620514690876007 0.6637392640113831
0.45479995012283325 -0.02548591047525406 0.6638670563697815
0.453855037689209 -0.024413513019680977 0.6639310717582703
0.4507923424243927 -0.025290967896580696 0.6619556546211243
0.4451500177383423 -0.01973295770585537 0.661913275718689
0.44007608294487 -0.013688439503312111 0.6624000668525696
0.4381045699119568 -0.012540653347969055 0.6619869470596313
0.43737128376960754 -0.012220068834722042 0.6617798209190369
0.4365609288215637 -0.011962400749325752 0.6615029573440552
0.4316776692867279 -0.014149476774036884 0.657957911491394
0.4307873249053955 -0.01394315529614687 0.6576149463653564
0.427751749753952 -0.01172830443829298 0.6572036147117615
0.42672833800315857 -0.00975191779434681 0.6576813459396362
0.42347362637519836 -0.007700711488723755 0.6570779085159302
0.42115163803100586 -0.007674151565879583 0.6559268832206726
0.4197764992713928 -0.007822584360837936 0.655163049697876
0.41787198185920715 -0.00744964461773634 0.6543951034545898
0.40864062309265137 -0.009878499433398247 0.6485489010810852
0.4592665135860443 -0.05391577631235123 0.6509389281272888
0.4643532931804657 -0.045436710119247437 0.6577611565589905
0.4638378620147705 -0.04492152854800224 0.6577611565589905
0.4582599103450775 -0.039164621382951736 0.6578511595726013
0.4577285647392273 -0.03866570442914963 0.6578348278999329
0.4565018117427826 -0.035793352872133255 0.6586623787879944
0.4583421051502228 -0.029999282211065292 0.6625019907951355
0.4534642994403839 -0.02377890981733799 0.6631773114204407
0.4480970501899719 -0.023825112730264664 0.6604546308517456
0.4442058801651001 -0.015756703913211823 0.6625553965568542
0.44041430950164795 -0.013354471884667873 0.6618566513061523
0.43551674485206604 -0.010910950601100922 0.6606225967407227
0.4256988763809204 -0.007725208532065153 0.6572868824005127
0.41722774505615234 -0.0069494470953941345 0.6534169912338257
0.46396172046661377 -0.04690520837903023 0.6559282541275024
0.4636584520339966 -0.04302729293704033 0.6577315330505371
0.46171247959136963 -0.03982705995440483 0.6583643555641174
0.4600365161895752 -0.03944911062717438 0.6577095985412598
0.45751845836639404 -0.03784548118710518 0.6572482585906982
0.45652884244918823 -0.03575895354151726 0.6578015685081482
0.45970234274864197 -0.03166642412543297 0.6614671349525452
0.45845502614974976 -0.02987857349216938 0.6617395877838135
0.44940146803855896 -0.02456056885421276 0.6598553657531738
0.4483182430267334 -0.023595765233039856 0.6597955226898193
0.4477756917476654 -0.02311394177377224 0.65976482629776
0.44616973400115967 -0.021647796034812927 0.6596943736076355
0.44562163949012756 -0.02116996981203556 0.6596589088439941
0.4447585940361023 -0.01713520847260952 0.6612589955329895
0.4444853365421295 -0.015473568812012672 0.6619591116905212
0.44385236501693726 -0.015075946226716042 0.6618407964706421
0.4420696198940277 -0.01377880573272705 0.6615954041481018
0.43878254294395447 -0.011872045695781708 0.6608992218971252
0.4298805296421051 -0.012693898752331734 0.6559939980506897
0.4278275966644287 -0.011548595502972603 0.6555361747741699
0.4267774224281311 -0.009588905610144138 0.6559948325157166
0.4260696768760681 -0.0073662507347762585 0.6567591428756714
0.42351198196411133 -0.006611724849790335 0.6558494567871094
0.41987672448158264 -0.006678235717117786 0.6539822816848755
0.4112091660499573 -0.01058028545230627 0.6476411819458008
0.4608347415924072 -0.054463326930999756 0.6496220827102661
0.4603073000907898 -0.05393588915467262 0.6496220827102661
0.4597438871860504 -0.05344580113887787 0.649584949016571
0.46389445662498474 -0.045932918787002563 0.6554869413375854
0.4634799361228943 -0.04114026948809624 0.6577020883560181
0.46282637119293213 -0.0397370420396328 0.6580815315246582
0.46213048696517944 -0.0394083671271801 0.6578956842422485
0.45782914757728577 -0.02847946621477604 0.6612492799758911
0.4574599862098694 -0.027841178700327873 0.6613854765892029
0.4557133615016937 -0.025550920516252518 0.6616604328155518
0.4543266296386719 -0.02390914410352707 0.6617896556854248
0.45388680696487427 -0.023341787979006767 0.6618539690971375
0.4502958655357361 -0.02371666580438614 0.6598474979400635
0.44474470615386963 -0.019984271377325058 0.6589270830154419
0.44365862011909485 -0.019017744809389114 0.6588665843009949
0.44431498646736145 -0.01748495176434517 0.6599742770195007
0.4376559555530548 -0.010894968174397945 0.6599394679069519
0.43558186292648315 -0.009818066842854023 0.659434974193573
0.43121248483657837 -0.012485143728554249 0.655874490737915
0.4298032224178314 -0.011759675107896328 0.65552818775177
0.4260764718055725 -0.007296511437743902 0.6559010744094849
0.42409560084342957 -0.006085910834372044 0.655511200428009
0.42061489820480347 -0.006034063640981913 0.6537761688232422
0.4200945198535919 -0.005513797979801893 0.6537761688232422
0.4187152683734894 -0.005656687542796135 0.6530058979988098
0.4173282980918884 -0.005800571758300066 0.6522312760353088
0.41084718704223633 -0.009842348285019398 0.6469066739082336
0.40674370527267456 -0.009204092435538769 0.645153284072876
0.4634508490562439 -0.04325459152460098 0.655721127986908
0.45952197909355164 -0.03790554031729698 0.6564419865608215
0.45783689618110657 -0.03752227500081062 0.6557812094688416
0.4563124477863312 -0.02595149539411068 0.6608801484107971
0.44083452224731445 -0.011918717995285988 0.6601467728614807
0.4394604563713074 -0.011203821748495102 0.6598122715950012
0.43675145506858826 -0.009728550910949707 0.6591857671737671
0.4307599365711212 -0.01185979600995779 0.6550633907318115
0.4253424406051636 -0.005961298942565918 0.655307412147522
0.4235505163669586 -0.005522503051906824 0.6546206474304199
0.4166824519634247 -0.005297514609992504 0.6512489914894104
0.4087376892566681 -0.0076192705892026424 0.6460382342338562
0.45909398794174194 -0.05199439078569412 0.6481552124023438
0.4628802239894867 -0.04594719409942627 0.6531611084938049
0.46327197551727295 -0.04136165976524353 0.6556953191757202
0.4607810378074646 -0.037677913904190063 0.6563025116920471
0.45994213223457336 -0.03748646751046181 0.6559727787971497
0.4566100835800171 -0.03565505892038345 0.6552090048789978
0.45930275321006775 -0.030024105682969093 0.6594464182853699
0.45879435539245605 -0.02951592393219471 0.6594464182853699
0.457684725522995 -0.027596881613135338 0.6598584055900574
0.4533211886882782 -0.021869193762540817 0.6605529189109802
0.4518093466758728 -0.021310795098543167 0.6600677371025085
0.45001351833343506 -0.021971866488456726 0.6588165760040283
0.4484219551086426 -0.02244018018245697 0.6577679514884949
0.44789817929267883 -0.02194022387266159 0.6577559113502502
0.44574955105781555 -0.019987475126981735 0.6576561331748962
0.44356438517570496 -0.01806396059691906 0.6575229167938232
0.4438198506832123 -0.016883816570043564 0.6582536697387695
0.44440436363220215 -0.015422468073666096 0.659295380115509
0.4441837966442108 -0.013718763366341591 0.660050630569458
0.4435502588748932 -0.013320017606019974 0.6599308252334595
0.44163277745246887 -0.012133972719311714 0.6595585942268372
0.4411245584487915 -0.011625868268311024 0.6595585942268372
0.42888450622558594 -0.01051307749003172 0.6538937091827393
0.4279421269893646 -0.010338294319808483 0.6535028219223022
0.42740771174430847 -0.009832165203988552 0.6534885168075562
0.4263573884963989 -0.007873288355767727 0.653951108455658
0.4230037331581116 -0.004958156030625105 0.6537278294563293
0.41881537437438965 -0.004510717000812292 0.6518234014511108
0.4107291102409363 -0.00884081982076168 0.6455020308494568
0.45989683270454407 -0.052249450236558914 0.6475140452384949
0.45933276414871216 -0.051758620887994766 0.6474766135215759
0.462995320558548 -0.04373548552393913 0.6534439921379089
0.46261587738990784 -0.03995790332555771 0.6551792621612549
0.461713582277298 -0.03777315840125084 0.6558342576026917
0.4559257924556732 -0.033265501260757446 0.6551805734634399
0.4565508961677551 -0.025690242648124695 0.6593679785728455
0.4557476341724396 -0.024478310719132423 0.6595766544342041
0.4553064703941345 -0.02390996553003788 0.659641444683075
0.4539184272289276 -0.022267162799835205 0.659771740436554
0.45347821712493896 -0.021699683740735054 0.6598368287086487
0.4493018388748169 -0.021615395322442055 0.6577470898628235
0.44380491971969604 -0.017814645543694496 0.6568809747695923
0.4439903497695923 -0.0157415010035038 0.6580342054367065
0.4386742413043976 -0.00989160593599081 0.6583067774772644
0.4366961717605591 -0.00873584020882845 0.657886803150177
0.4359508454799652 -0.008419536054134369 0.6576677560806274
0.43459999561309814 -0.007668436039239168 0.6573616862297058
0.43022891879081726 -0.010299835354089737 0.6537858247756958
0.4284105598926544 -0.00989927351474762 0.6530617475509644
0.4258739650249481 -0.006335060112178326 0.6535864472389221
0.42535629868507385 -0.005817525554448366 0.6535864472389221
0.42193710803985596 -0.0038737726863473654 0.6528331637382507
0.4195559024810791 -0.0038684532046318054 0.6516198515892029
0.4162592887878418 -0.003623333526775241 0.6500615477561951
0.4625634551048279 -0.04523710906505585 0.651549756526947
0.4630628228187561 -0.04158419743180275 0.6536765694618225
0.4621153473854065 -0.03737156093120575 0.6553493142127991
0.4568963050842285 -0.03535986691713333 0.6537062525749207
0.4584398567676544 -0.028833704069256783 0.6578395962715149
0.45827996730804443 -0.027991579845547676 0.6581892371177673
0.4502660930156708 -0.020714502781629562 0.6578116416931152
0.44674918055534363 -0.01999596320092678 0.6563783884048462
0.44404253363609314 -0.017568163573741913 0.6562356948852539
0.44397327303886414 -0.014763869345188141 0.6576364636421204
0.4440489113330841 -0.012804937548935413 0.6586787104606628
0.442841112613678 -0.011953839100897312 0.6584957838058472
0.43974050879478455 -0.00988406129181385 0.6579679250717163
0.43066856265068054 -0.009883671998977661 0.653321385383606
0.4241727292537689 -0.003908425569534302 0.6530547142028809
0.42304205894470215 -0.0038670552894473076 0.652496874332428
0.4213877320289612 -0.003306381404399872 0.6519365906715393
0.4175289273262024 -0.0035027030389755964 0.6498594284057617
0.4156111776828766 -0.003116709180176258 0.6490750908851624
0.4088626801967621 -0.0063512749038636684 0.6439615488052368
0.40825414657592773 -0.005874230992048979 0.6438939571380615
0.4077205955982208 -0.005340944975614548 0.6438939571380615
0.4581530690193176 -0.049775630235672 0.6460433006286621
0.462679386138916 -0.043024446815252304 0.6518375873565674
0.46236923336982727 -0.0391770638525486 0.6536548137664795
0.45952120423316956 -0.03584464266896248 0.6539034843444824
0.4562162160873413 -0.03397625684738159 0.6531655192375183
0.45597872138023376 -0.03319127857685089 0.6534467339515686
0.4552270174026489 -0.03189265727996826 0.6537277102470398
0.4583929181098938 -0.027869433164596558 0.6574212908744812
0.45765289664268494 -0.026589497923851013 0.6576988697052002
0.45677489042282104 -0.0254427008330822 0.6578369140625
0.4542335271835327 -0.021927988156676292 0.6583368182182312
0.4524049758911133 -0.019717667251825333 0.658532977104187
0.45129069685935974 -0.01975926198065281 0.657939076423645
0.44800156354904175 -0.02078176476061344 0.6557239890098572
0.4474898874759674 -0.02026996947824955 0.6557239890098572
0.4469654858112335 -0.01976962760090828 0.6557118892669678
0.44587770104408264 -0.0188028272241354 0.6556495428085327
0.44481679797172546 -0.01781158521771431 0.6556137800216675
0.44371068477630615 -0.016859089955687523 0.6555348038673401
0.44354066252708435 -0.013197763822972775 0.6573285460472107
0.4431210458278656 -0.011669726110994816 0.6578978300094604
0.44197800755500793 -0.010761549696326256 0.6577775478363037
0.4406862258911133 -0.009976517409086227 0.6575170159339905
0.43664079904556274 -0.007741968613117933 0.6565864086151123
0.42840462923049927 -0.00884551927447319 0.6517881155014038
0.42788609862327576 -0.00832687970250845 0.6517881155014038
0.4264678955078125 -0.007593113929033279 0.6514366269111633
0.4259362816810608 -0.006154066417366266 0.6519026160240173
0.4254177212715149 -0.0056357476860284805 0.6519026160240173
0.418273389339447 -0.0028596711345016956 0.6496584415435791
0.4594854414463043 -0.050559356808662415 0.6454014182090759
0.45839205384254456 -0.049539126455783844 0.6453636884689331
0.4578271210193634 -0.04904736578464508 0.6453259587287903
0.46209415793418884 -0.041533876210451126 0.6513969302177429
0.4621925354003906 -0.037293389439582825 0.6536329388618469
0.46167799830436707 -0.03677896410226822 0.6536329388618469
0.46150362491607666 -0.035927750170230865 0.6539816856384277
0.455779492855072 -0.02340511605143547 0.6574850082397461
0.4543910622596741 -0.02175821177661419 0.6576184034347534
0.45395010709762573 -0.021189862862229347 0.6576838493347168
0.45256149768829346 -0.019546745344996452 0.6578149199485779
0.4483049511909485 -0.019508730620145798 0.6556411981582642
0.44282448291778564 -0.015673886984586716 0.6547929048538208
0.4362448751926422 -0.007082249969244003 0.6558297276496887
0.4357341527938843 -0.006571638397872448 0.6558297276496887
0.4283466339111328 -0.007895234040915966 0.6513408422470093
0.4247029721736908 -0.0033563931938260794 0.6518020629882812
0.4236935079097748 -0.002301457105204463 0.6518254280090332
0.4184940457344055 -0.001696986728347838 0.6494576930999756
0.41710659861564636 -0.0018304333789274096 0.6486738920211792
0.41571173071861267 -0.0019645770080387592 0.6478856205940247
0.4621785879135132 -0.043547626584768295 0.6494919061660767
0.4618433117866516 -0.04179184511303902 0.6502261757850647
0.4621569812297821 -0.039393577724695206 0.6516280174255371
0.4573172628879547 -0.033906083554029465 0.6519627571105957
0.4555094540119171 -0.03260587900876999 0.6517004370689392
0.455278605222702 -0.03181595355272293 0.6519894599914551
0.4580814838409424 -0.02714211866259575 0.6558541059494019
0.4562598764896393 -0.023917561396956444 0.6565794348716736
0.4431079030036926 -0.012534542009234428 0.6556649804115295
0.43878939747810364 -0.007721853442490101 0.6559204459190369
0.4353376626968384 -0.005910536739975214 0.6550725102424622
0.43020108342170715 -0.008211199194192886 0.6512283682823181
0.42627525329589844 -0.0066843703389167786 0.6499881744384766
0.4260091483592987 -0.005964379757642746 0.6502227187156677
0.42314767837524414 -0.001733581069856882 0.650930643081665
0.42087486386299133 -0.0016429937677457929 0.6498025059700012
0.4164601266384125 -0.0013221957487985492 0.6476863622665405
0.40959620475769043 -0.005558378528803587 0.6419486999511719
0.40723565220832825 -0.0035912005696445704 0.6417455077171326
0.45885902643203735 -0.04907691106200218 0.6439914107322693
0.4577396512031555 -0.048081379383802414 0.6439273953437805
0.46159127354621887 -0.042050931602716446 0.6490506529808044
0.4617767930030823 -0.040818583220243454 0.6497858166694641
0.46196120977401733 -0.03959221765398979 0.6505172848701477
0.4619801938533783 -0.037504009902477264 0.6516098976135254
0.45942622423171997 -0.033879827708005905 0.6521645784378052
0.45858389139175415 -0.03368367254734039 0.6518294811248779
0.4579910635948181 -0.02621956542134285 0.6553922295570374
0.4574815630912781 -0.025710180401802063 0.6553922295570374
0.4563716948032379 -0.023792333900928497 0.6558110117912292
0.4554938077926636 -0.02264605090022087 0.655950129032135
0.4507705271244049 -0.01820339262485504 0.6558045744895935
0.4502617418766022 -0.01769472099840641 0.6558045744895935
0.4470680058002472 -0.018607504665851593 0.653675377368927
0.44600585103034973 -0.01761578395962715 0.653639018535614
0.44549354910850525 -0.017103487625718117 0.653639018535614
0.44384464621543884 -0.015663357451558113 0.6535307168960571
0.443185031414032 -0.01147854421287775 0.6553583741188049
0.4428178668022156 -0.00990841630846262 0.6559823155403137
0.44154638051986694 -0.009105924516916275 0.6557390689849854
0.43641534447669983 -0.005902015138417482 0.6547397971153259
0.43409308791160583 -0.005008868407458067 0.6539990901947021
0.4260457754135132 -0.005869291722774506 0.649380624294281
0.42552614212036133 -0.00534951314330101 0.649380624294281
0.42499545216560364 -0.003912511747330427 0.649850606918335
0.4080895781517029 -0.0038042839150875807 0.6411414742469788
0.4057551622390747 -0.0036696174647659063 0.6400010585784912
0.4579785466194153 -0.047843992710113525 0.6432461142539978
0.4617100954055786 -0.03984638676047325 0.6493456959724426
0.4612891972064972 -0.0351065918803215 0.6515918374061584
0.46036139130592346 -0.03397669643163681 0.6516968607902527
0.4546213746070862 -0.029390132054686546 0.6510970592498779
0.4552360475063324 -0.02188269980251789 0.6553207635879517
0.4539819061756134 -0.020109504461288452 0.6555905938148499
0.4534739851951599 -0.019601451233029366 0.6555905938148499
0.4521508514881134 -0.01789690926671028 0.6557890772819519
0.4494866132736206 -0.01738942414522171 0.6546676754951477
0.44462013244628906 -0.015906818211078644 0.6529078483581543
0.44243261218070984 -0.013973710127174854 0.6527755260467529
0.4419817328453064 -0.013407871127128601 0.6528351306915283
0.4426766633987427 -0.011865970678627491 0.6539984941482544
0.4400281310081482 -0.007520794868469238 0.6548807621002197
0.4360191524028778 -0.005240624770522118 0.6539818048477173
0.4336017072200775 -0.004419863689690828 0.6531513929367065
0.43308958411216736 -0.003907601349055767 0.6531513929367065
0.4287733733654022 -0.006431975401937962 0.6495941281318665
0.42398321628570557 -0.0018634076695889235 0.6494789123535156
0.4192490875720978 2.138582021871116e-05 0.6479971408843994
0.4151623249053955 -0.0003014297690242529 0.6457039713859558
0.41463732719421387 0.0002236848813481629 0.6457039713859558
0.4582178592681885 -0.04760632663965225 0.6425646543502808
0.46127191185951233 -0.04133358597755432 0.6474299430847168
0.4617670476436615 -0.037715762853622437 0.6495752930641174
0.4568919837474823 -0.032254114747047424 0.64988112449646
0.45637497305870056 -0.03173721209168434 0.64988112449646
0.4555259943008423 -0.031537897884845734 0.6495421528816223
0.45721253752708435 -0.024937627837061882 0.6538649797439575
0.4541400671005249 -0.019938405603170395 0.6548699736595154
0.4487168788909912 -0.017075322568416595 0.6535345911979675
0.43834125995635986 -0.006068811286240816 0.6538635492324829
0.434058278799057 -0.003991755191236734 0.652712881565094
0.42831727862358093 -0.0057997978292405605 0.6487751603126526
0.4253324270248413 -0.004437733441591263 0.6479287147521973
0.4240177869796753 -0.0017650495283305645 0.6486371159553528
0.4209824204444885 0.0004959910875186324 0.6482331156730652
0.4173072576522827 0.00046800606651231647 0.6463015675544739
0.40857845544815063 -0.003274023998528719 0.6397965550422668
0.40796923637390137 -0.002795301377773285 0.6397284269332886
0.40674927830696106 -0.001837596413679421 0.6395917534828186
0.4584563970565796 -0.04736969992518425 0.6418821215629578
0.4578913748264313 -0.0468759723007679 0.6418449282646179
0.45679545402526855 -0.04585348814725876 0.6418063044548035
0.4613918662071228 -0.03912785276770592 0.6477301120758057
0.46107447147369385 -0.03531095013022423 0.6495610475540161
0.4581606984138489 -0.03203381970524788 0.6497510671615601
0.45467209815979004 -0.02930820733308792 0.6493520140647888
0.4539198577404022 -0.02801058627665043 0.6496371626853943
0.45670777559280396 -0.02341628074645996 0.6534994840621948
0.455828458070755 -0.022267619147896767 0.6536403894424438
0.45545855164527893 -0.02162962593138218 0.6537806391716003
0.4510742723941803 -0.01590871438384056 0.65447998046875
0.44664517045021057 -0.016941407695412636 0.6516225337982178
0.4456065893173218 -0.01592676155269146 0.6516098380088806
0.4439712464809418 -0.014471716247498989 0.651515543460846
0.44345802068710327 -0.013958740048110485 0.651515543460846
0.4417600929737091 -0.012554890476167202 0.6513617634773254
0.4417923092842102 -0.010632717050611973 0.6523842811584473
0.44231900572776794 -0.00924647320061922 0.6533849835395813
0.441750705242157 -0.007849177345633507 0.6538185477256775
0.43863919377326965 -0.005768629722297192 0.6532792448997498
0.43310660123825073 -0.0028473592828959227 0.6519132256507874
0.4278604984283447 -0.005166500341147184 0.6479550004005432
0.4251024127006531 -0.003621528623625636 0.6473203897476196
0.42405250668525696 -0.0016663994174450636 0.6477938294410706
0.42322424054145813 0.0004493892483878881 0.6484675407409668
0.4220901131629944 0.0004992113099433482 0.6479002237319946
0.42157092690467834 0.0010184613056480885 0.6479002237319946
0.4166612923145294 0.000979502801783383 0.6453112959861755
0.4032549560070038 -0.002445841208100319 0.6365047097206116
0.4608060419559479 -0.03763612359762192 0.6472905874252319
0.46089962124824524 -0.03343065455555916 0.6495465040206909
0.45942559838294983 -0.03181429207324982 0.6496214270591736
0.45394429564476013 -0.027968276292085648 0.6487630605697632
0.4544563889503479 -0.019595684483647346 0.653425395488739
0.4539474546909332 -0.01908685453236103 0.653425395488739
0.45306333899497986 -0.017948901280760765 0.6535587906837463
0.4516720473766327 -0.016303468495607376 0.6536919474601746
0.4512307047843933 -0.015735378488898277 0.6537586450576782
0.44896188378334045 -0.01582478918135166 0.652521014213562
0.44681572914123535 -0.01579095609486103 0.6514124274253845
0.44165071845054626 -0.011651545763015747 0.6508743166923523
0.4418041408061981 -0.009631247259676456 0.6520149111747742
0.4420311748981476 -0.007564029656350613 0.6532190442085266
0.4363041818141937 -0.003908469341695309 0.6521319150924683
0.43556615710258484 -0.003580400487408042 0.6519166827201843
0.42919790744781494 -0.0049705784767866135 0.6478453278541565
0.42382296919822693 -0.0008511921623721719 0.6471863389015198
0.41873201727867126 0.001694867154583335 0.6458508968353271
0.4168846905231476 0.0021405823063105345 0.6451154351234436
0.41548898816108704 0.0020166269969195127 0.6443179845809937
0.4140862822532654 0.0018922043964266777 0.643516480922699
0.4608849585056305 -0.039636701345443726 0.6453635096549988
0.4608582556247711 -0.03551647067070007 0.6475182175636292
0.4559483826160431 -0.03008078597486019 0.6477950215339661
0.4550977051258087 -0.0298794936388731 0.6474533081054688
0.45396897196769714 -0.027926018461585045 0.6478872895240784
0.45685267448425293 -0.02323909103870392 0.6518722176551819
0.44822973012924194 -0.015472451224923134 0.6514217257499695
0.44442272186279297 -0.013996843248605728 0.6501944661140442
0.44130969047546387 -0.009998948313295841 0.6506600379943848
0.4405278265476227 -0.0059632593765854836 0.6523727774620056
0.4385634958744049 -0.004790710285305977 0.6519559621810913
0.4373810887336731 -0.0039014634676277637 0.6518018245697021
0.433071494102478 -0.0018280281219631433 0.6506245732307434
0.4273260533809662 -0.003597184084355831 0.6466693878173828
0.4254451394081116 -0.00321544730104506 0.6458801627159119
0.42160871624946594 0.0021128852386027575 0.6466653347015381
0.41932445764541626 0.002218369161710143 0.6455184817314148
0.41483891010284424 0.0025315347593277693 0.6433221697807312
0.4080936908721924 -0.001519093057140708 0.6376397609710693
0.40572696924209595 0.0004553679609671235 0.6374332904815674
0.4575127959251404 -0.04513826221227646 0.6397580504417419
0.46048614382743835 -0.036913566291332245 0.6456702947616577
0.46068325638771057 -0.033630453050136566 0.6475076675415039
0.46007513999938965 -0.03116537071764469 0.6484879851341248
0.4572197198867798 -0.02986360900104046 0.647667646408081
0.4561634361743927 -0.021888168528676033 0.6513206362724304
0.4557931423187256 -0.02124869078397751 0.6514627933502197
0.45505309104919434 -0.019971676170825958 0.6517460942268372
0.44570812582969666 -0.014758065342903137 0.6495651006698608
0.44464874267578125 -0.01375927310436964 0.6495330333709717
0.4435843825340271 -0.012764308601617813 0.6494964957237244
0.4424823224544525 -0.011801082640886307 0.6494233012199402
0.44190528988838196 -0.011341201141476631 0.6493614912033081
0.44196170568466187 -0.007520866114646196 0.6514079570770264
0.4408084750175476 -0.005677647888660431 0.6517722606658936
0.43834441900253296 -0.003985833842307329 0.6513645648956299
0.4342587888240814 -0.0017397275660187006 0.650393545627594
0.43263086676597595 -0.001193647738546133 0.6498223543167114
0.42828792333602905 -0.0037009597290307283 0.6462056040763855
0.42686545848846436 -0.0029632493387907743 0.6458441019058228
0.42467808723449707 -0.0018901454750448465 0.6452556848526001
0.4238925874233246 -0.0006519624730572104 0.6454947590827942
0.42362797260284424 6.438133277697489e-05 0.6457334160804749
0.4225914180278778 0.002020779764279723 0.6462188363075256
0.42105838656425476 0.002687155269086361 0.6457613110542297
0.41698524355888367 0.0032899873331189156 0.643929123878479
0.4065825939178467 0.00024185107031371444 0.636827826499939
0.45661845803260803 -0.043912049382925034 0.6389970183372498
0.45552098751068115 -0.04288751631975174 0.6389583349227905
0.460420161485672 -0.035941265523433685 0.6452312469482422
0.45999330282211304 -0.031235381960868835 0.647497296333313
0.45848748087882996 -0.029647082090377808 0.6475409269332886
0.45331159234046936 -0.02549869567155838 0.646996796131134
0.45391538739204407 -0.018059028312563896 0.6512562036514282
0.4535366892814636 -0.017431221902370453 0.6513881683349609
0.4521430432796478 -0.015783507376909256 0.6515225172042847
0.451700896024704 -0.015214910730719566 0.6515896320343018
0.4502447545528412 -0.013625605031847954 0.6516602039337158
0.44973573088645935 -0.013116808608174324 0.6516602039337158
0.44792482256889343 -0.013744773343205452 0.6503685712814331
0.4463247060775757 -0.014181140810251236 0.6492899060249329
0.44080573320388794 -0.009379008784890175 0.6489104628562927
0.4420399069786072 -0.006468539591878653 0.6511051654815674
0.43460047245025635 -0.0014042274560779333 0.6498475074768066
0.4287254512310028 -0.00328932236880064 0.6457381844520569
0.42261436581611633 0.0021146663930267096 0.6453636884689331
0.41353344917297363 0.003565339371562004 0.6413230299949646
0.4130070209503174 0.0040918258018791676 0.6413230299949646
0.45997512340545654 -0.0374143011868 0.6432930827140808
0.4604659378528595 -0.033831145614385605 0.6454567313194275
0.4599475562572479 -0.03331264480948448 0.6454567313194275
0.4555203318595886 -0.028420571237802505 0.6457038521766663
0.4550023674964905 -0.02790261059999466 0.6457038521766663
0.4537910223007202 -0.027030417695641518 0.645523726940155
0.4559815227985382 -0.021026592701673508 0.6498761177062988
0.45402592420578003 -0.017929550260305405 0.650482177734375
0.4472295045852661 -0.013353407382965088 0.6493030786514282
0.4407166838645935 -0.00940341129899025 0.6479418873786926
0.44152477383613586 -0.006845853291451931 0.6497296094894409
0.43760946393013 -0.0026154702063649893 0.6498969793319702
0.43619248270988464 -0.001910847146064043 0.6495184302330017
0.43208232522010803 0.00034094182774424553 0.648531436920166
0.42685264348983765 -0.0019092891598120332 0.6445584297180176
0.4249585270881653 -0.0015301661333069205 0.643753707408905
0.42396193742752075 -0.00045216616126708686 0.6437968611717224
0.41995400190353394 0.003839394310489297 0.643947422504425
0.41943302750587463 0.004360405262559652 0.643947422504425
0.41708555817604065 0.00443953275680542 0.642742931842804
0.4156903624534607 0.004321761894971132 0.641939103603363
0.4070723354816437 0.0007751462981104851 0.635478138923645
0.40420809388160706 0.0023995586670935154 0.6348194479942322
0.4570971727371216 -0.04343375936150551 0.6376284956932068
0.45599913597106934 -0.04240846261382103 0.6375896334648132
0.45543164014816284 -0.04191398248076439 0.6375505328178406
0.46009913086891174 -0.03521542623639107 0.6436059474945068
0.45977410674095154 -0.03142883628606796 0.6454499959945679
0.45764124393463135 -0.02840864099562168 0.6459227800369263
0.45335984230041504 -0.025408992543816566 0.645240068435669
0.4553871750831604 -0.019587241113185883 0.6494218111038208
0.45413634181022644 -0.01780015416443348 0.6497073173522949
0.4537668526172638 -0.017162974923849106 0.6498498320579529
0.4481792747974396 -0.012487130239605904 0.6493643522262573
0.44528287649154663 -0.013084105215966702 0.6475030183792114
0.4437107443809509 -0.011567695066332817 0.6474735140800476
0.4410928785800934 -0.005281509831547737 0.6494277715682983
0.4397282600402832 -0.003612581640481949 0.6495898365974426
0.431640625 0.0009778490057215095 0.6477267146110535
0.4263814091682434 -0.0012808266328647733 0.6437214612960815
0.42373162508010864 0.00036619798629544675 0.6431873440742493
0.4226817190647125 0.002319116611033678 0.6436682343482971
0.42168503999710083 0.004303376190364361 0.644194483757019
0.4205450117588043 0.004360296297818422 0.6436173915863037
0.4164392054080963 0.004956336226314306 0.6417475938796997
0.406103253364563 0.0020101170521229506 0.6346715092658997
0.4598432183265686 -0.03546220809221268 0.6424144506454468
0.45951300859451294 -0.033722423017024994 0.6431679129600525
0.45960158109664917 -0.029551994055509567 0.6454434990882874
0.45806360244750977 -0.02799135446548462 0.6454557776451111
0.45721715688705444 -0.027787959203124046 0.6451120972633362
0.4523961544036865 -0.023288266733288765 0.6449403166770935
0.4531252980232239 -0.015772011131048203 0.6493462920188904
0.4517301023006439 -0.014123265631496906 0.6494819521903992
0.45128756761550903 -0.013554307632148266 0.6495493650436401
0.44989392161369324 -0.01190766878426075 0.6496845483779907
0.4444509744644165 -0.011843346990644932 0.6468104720115662
0.4423190951347351 -0.009849854744970798 0.6467363834381104
0.4404733180999756 -0.007616703864187002 0.6469435691833496
0.43995943665504456 -0.007102819625288248 0.6469435691833496
0.4406552314758301 -0.003725676564499736 0.6491200923919678
0.43488553166389465 -6.735730858054012e-05 0.6479916572570801
0.4341450035572052 0.000264305854216218 0.6477732062339783
0.4334033727645874 0.000596389698330313 0.6475544571876526
0.42442983388900757 5.411716119851917e-05 0.6424694657325745
0.41386276483535767 0.005884663667529821 0.6399385929107666
0.4058065712451935 0.0028092078864574432 0.6339902281761169
0.4595862925052643 -0.03570996969938278 0.6412184834480286
0.45925581455230713 -0.03396626189351082 0.6419756412506104
0.45955386757850647 -0.03162342682480812 0.6433912515640259
0.4554247558116913 -0.026443781331181526 0.6439542770385742
0.4537188708782196 -0.026031790301203728 0.643260657787323
0.4533884823322296 -0.025337310507893562 0.6434557437896729
0.45561033487319946 -0.019330086186528206 0.6478663086891174
0.45005014538764954 -0.011732072569429874 0.648958683013916
0.4467393755912781 -0.01174142211675644 0.647179126739502
0.44144007563591003 -0.00864558108150959 0.6459981799125671
0.44028177857398987 -0.0077238185331225395 0.6458713412284851
0.439767062664032 -0.007209097500890493 0.6458713412284851
0.44065403938293457 -0.004601936787366867 0.6477441787719727
0.43848374485969543 -0.001730536692775786 0.6481200456619263
0.43782442808151245 -0.0013388101942837238 0.6479765176773071
0.4316048324108124 0.0020015230402350426 0.6464333534240723
0.42394882440567017 0.0006811758503317833 0.6416222453117371
0.4232708215713501 0.0020028240978717804 0.641967236995697
0.4189162254333496 0.006039047613739967 0.6417964696884155
0.4177660644054413 0.006099306046962738 0.6412125825881958
0.41461578011512756 0.00651889992877841 0.6397489309310913
0.4132087230682373 0.006406121421605349 0.638934314250946
0.4066624343395233 0.0025948071852326393 0.6333829164505005
0.4561493992805481 -0.041193995624780655 0.6354939937591553
0.4555813670158386 -0.040698885917663574 0.6354548335075378
0.45938122272491455 -0.029740862548351288 0.6433884501457214
0.4572157859802246 -0.026749005541205406 0.6438325643539429
0.4549978971481323 -0.025819966569542885 0.6431397199630737
0.4526705741882324 -0.023980123922228813 0.6428777575492859
0.4544689357280731 -0.01741090603172779 0.6473758816719055
0.4537288248538971 -0.01613469608128071 0.6476643681526184
0.453358918428421 -0.015497620217502117 0.6478076577186584
0.4520445764064789 -0.013773669488728046 0.6480281949043274
0.4443418085575104 -0.010891991667449474 0.6454363465309143
0.4438146650791168 -0.010388145223259926 0.6454237103462219
0.4432857036590576 -0.009885993786156178 0.6454095244407654
0.4407339096069336 -0.0035494822077453136 0.6474438905715942
0.439428448677063 -0.0018310839077457786 0.647665798664093
0.43628400564193726 0.0002527352189645171 0.6470959782600403
0.43283283710479736 0.0021140440367162228 0.6462411284446716
0.43201136589050293 0.002387157641351223 0.6459460854530334
0.4311574399471283 0.0026369576808065176 0.6456215977668762
0.4268220067024231 0.0001974248152691871 0.6419793963432312
0.4253750145435333 0.0009267620043829083 0.6415936350822449
0.42225468158721924 0.004057428799569607 0.6415994167327881
0.4219910204410553 0.0047709159553050995 0.6418411731719971
