ply
format ascii 1.0
element vertex 832
property float x
property float y
property float z
end_header
0.6307957768440247 0.14655274152755737 0.6796319484710693
0.6314763426780701 0.14563189446926117 0.6799032688140869
0.6392540335655212 0.1432129442691803 0.6798353791236877
0.6402173638343811 0.14289182424545288 0.6798353791236877
0.6427735686302185 0.14352592825889587 0.6792534589767456
0.6440556049346924 0.14384396374225616 0.6789613366127014
0.6463086009025574 0.14384053647518158 0.6786688566207886
0.6489977836608887 0.1446954756975174 0.6779823899269104
0.6503507494926453 0.14513163268566132 0.6776345372200012
0.6526801586151123 0.14524546265602112 0.6772860288619995
0.6540417075157166 0.1456833779811859 0.6769368052482605
0.6582213044166565 0.14714832603931427 0.6758173704147339
0.660641610622406 0.14739064872264862 0.6754056811332703
0.6620926260948181 0.147968128323555 0.6749905347824097
0.6675274968147278 0.14951668679714203 0.6736739277839661
0.6705222129821777 0.15077969431877136 0.6727879643440247
0.672040581703186 0.1514395773410797 0.6723313927650452
0.6745685338973999 0.15179522335529327 0.6718615293502808
0.6803178191184998 0.15372981131076813 0.670353353023529
0.681926965713501 0.15451271831989288 0.6698365211486816
0.6835830807685852 0.15537188947200775 0.6692830920219421
0.5786347389221191 0.20359572768211365 0.662942111492157
0.5791907906532288 0.2019365429878235 0.6635218262672424
0.5802090167999268 0.20159713923931122 0.6635218262672424
0.5858321785926819 0.1951066553592682 0.6653378009796143
0.5865943431854248 0.19408953189849854 0.6656378507614136
0.5874007940292358 0.19320020079612732 0.6658813953399658
0.5884106159210205 0.1928635984659195 0.6658813953399658
0.5908682942390442 0.1933605968952179 0.6653639674186707
0.5961384773254395 0.19521935284137726 0.663941502571106
0.6004419326782227 0.19744297862052917 0.662502646446228
0.6028209328651428 0.1976213902235031 0.6621203422546387
0.6040157079696655 0.19771714508533478 0.6619269847869873
0.6059927344322205 0.19685599207878113 0.662006139755249
0.6070161461830139 0.1965148001909256 0.662006139755249
0.6075519919395447 0.19495271146297455 0.6625497341156006
0.607936441898346 0.19302384555339813 0.6632586717605591
0.608307957649231 0.19107596576213837 0.6639760136604309
0.6087541580200195 0.1893284022808075 0.6646047830581665
0.6102839708328247 0.18743054568767548 0.6651507019996643
0.610801100730896 0.18588568270206451 0.6656904816627502
0.6113868355751038 0.1845172941684723 0.6661523580551147
0.6120049357414246 0.1832369863986969 0.6665744781494141
0.613659679889679 0.18170326948165894 0.6669603586196899
0.6150423288345337 0.1795373111963272 0.6676315665245056
0.6167559027671814 0.17817720770835876 0.667942464351654
0.6175259947776794 0.17729847133159637 0.6681866645812988
0.6190959215164185 0.17562349140644073 0.6686393618583679
0.6208932399749756 0.174489825963974 0.6688502430915833
0.621752917766571 0.17383651435375214 0.6689937710762024
0.6226120591163635 0.17318353056907654 0.669138491153717
0.6243222951889038 0.1718701422214508 0.6694303154945374
0.6203586459159851 0.15781061351299286 0.6754804253578186
0.6246939301490784 0.15498888492584229 0.6760217547416687
0.6274569630622864 0.15858866274356842 0.6742439866065979
0.6293554306030273 0.16026835143566132 0.6733343005180359
0.6322734951972961 0.1616746187210083 0.6723982095718384
0.6338840126991272 0.16269278526306152 0.6717864274978638
0.6354331970214844 0.16356681287288666 0.6712402105331421
0.6322341561317444 0.14473605155944824 0.6790658831596375
0.6329130530357361 0.14381863176822662 0.6793383359909058
0.6345511674880981 0.14258277416229248 0.6796091198921204
0.6352261900901794 0.14166848361492157 0.6798802018165588
0.6360957026481628 0.14116191864013672 0.6799659132957458
0.6385422348976135 0.14160306751728058 0.6794710755348206
0.640777051448822 0.1415967345237732 0.679180383682251
0.6420537829399109 0.14191210269927979 0.678889274597168
0.6469830870628357 0.14277322590351105 0.6779049038887024
0.6483294367790222 0.1432056427001953 0.6775572896003723
0.6520042419433594 0.14375081658363342 0.6768614053726196
0.6561493277549744 0.14517620205879211 0.6757577061653137
0.6585584878921509 0.14541354775428772 0.6753485202789307
0.6600015163421631 0.1459861844778061 0.6749334335327148
0.6643902063369751 0.14777635037899017 0.6736541390419006
0.6684063673019409 0.1488063633441925 0.6727223992347717
0.671416699886322 0.150089830160141 0.6718229055404663
0.6724052429199219 0.14976026117801666 0.6718229055404663
0.673944354057312 0.15045033395290375 0.6713499426841736
0.6771079897880554 0.1519670933485031 0.6703388094902039
0.6787062883377075 0.15274441242218018 0.6698228716850281
0.6813148260116577 0.15320363640785217 0.6693005561828613
0.6847558617591858 0.15515190362930298 0.6680827736854553
0.581789493560791 0.19960707426071167 0.6629455089569092
0.5825599431991577 0.19858132302761078 0.663249135017395
0.5833284854888916 0.1975557506084442 0.663553774356842
0.5843433141708374 0.19721749424934387 0.663553774356842
0.5933173298835754 0.19375336170196533 0.6637404561042786
0.5943315029144287 0.1934153139591217 0.6637404561042786
0.5957629084587097 0.19417159259319305 0.6632531881332397
0.5986407995223999 0.19569219648838043 0.662273108959198
0.6000101566314697 0.19625666737556458 0.6618707776069641
0.6010309457778931 0.19591641426086426 0.6618707776069641
0.6023131608963013 0.1962461769580841 0.6615716814994812
0.6044292449951172 0.1957494467496872 0.6614885330200195
0.6061630845069885 0.19428768754005432 0.6618378162384033
0.6069885492324829 0.19057589769363403 0.6631952524185181
0.6073558330535889 0.1886264979839325 0.6639170050621033
0.6078745722770691 0.1870666891336441 0.6644649505615234
0.6088861227035522 0.18672950565814972 0.6644649505615234
0.6094045639038086 0.18518486618995667 0.6650067567825317
0.6099498867988586 0.1837165206670761 0.665514349937439
0.6105698347091675 0.18243928253650665 0.6659372448921204
0.6111876368522644 0.18116523325443268 0.6663585901260376
0.6128586530685425 0.17968444526195526 0.6667236685752869
0.6142748594284058 0.17761191725730896 0.6673557758331299
0.6160051822662354 0.17630352079868317 0.6676450371742249
0.6167922616004944 0.17546990513801575 0.6678703427314758
0.6175761818885803 0.17463375627994537 0.668097972869873
0.6183584928512573 0.17379802465438843 0.66832435131073
0.6219189763069153 0.17148302495479584 0.6687700748443604
0.6227719187736511 0.17082460224628448 0.6689178347587585
0.6245673298835754 0.16971749067306519 0.669119119644165
0.6218273043632507 0.15595972537994385 0.6749124526977539
0.6225243806838989 0.15501949191093445 0.6751921772956848
0.6253194212913513 0.15623773634433746 0.6743427515029907
0.6272867321968079 0.15808463096618652 0.6733548641204834
0.6292046904563904 0.15980665385723114 0.6724219918251038
0.6308816075325012 0.16098757088184357 0.6717351675033569
0.633407473564148 0.16152656078338623 0.6711893677711487
0.629519522190094 0.1483176201581955 0.6769179105758667
0.6299833655357361 0.14692167937755585 0.6774079203605652
0.630949079990387 0.14659978449344635 0.6774079203605652
0.6316311955451965 0.14567802846431732 0.6776821613311768
0.6323120594024658 0.14475813508033752 0.6779565215110779
0.6378335356712341 0.13999943435192108 0.6791086196899414
0.6387932300567627 0.13967955112457275 0.6791086196899414
0.6400633454322815 0.1399913877248764 0.6788181066513062
0.6440162658691406 0.14118359982967377 0.6778271198272705
0.6463203430175781 0.14129090309143066 0.6774811148643494
0.6503616571426392 0.14258429408073425 0.6764382719993591
0.6540897488594055 0.14321622252464294 0.6756983995437622
0.6622567176818848 0.14573058485984802 0.6736297607421875
0.6637864708900452 0.1464507281780243 0.6731440424919128
0.6663033366203308 0.14684535562992096 0.6726570725440979
0.669277012348175 0.14807967841625214 0.6717779636383057
0.6707987189292908 0.14875172078609467 0.6713122725486755
0.6749096512794495 0.14988552033901215 0.6703236103057861
0.6764985918998718 0.15065637230873108 0.6698093414306641
0.6780938506126404 0.15143032371997833 0.6692943572998047
0.6807395815849304 0.1519622504711151 0.6687361598014832
0.6824769973754883 0.1529744416475296 0.6681072115898132
0.6842029094696045 0.1539553999900818 0.6674927473068237
0.5777059197425842 0.20415639877319336 0.6605287790298462
0.5784845352172852 0.20311951637268066 0.6608369946479797
0.5802807807922363 0.20174284279346466 0.6611455082893372
0.5818271636962891 0.19967932999134064 0.6617587208747864
0.5828226804733276 0.19927771389484406 0.6617869734764099
0.5863035321235657 0.20577464997768402 0.6587504148483276
0.5892611742019653 0.2075645625591278 0.6576495170593262
0.5859135389328003 0.19524098932743073 0.6629786491394043
0.5866769552230835 0.19422228634357452 0.6632816791534424
0.5874390006065369 0.19320622086524963 0.6635838150978088
0.5884503722190857 0.19286908209323883 0.6635838150978088
0.5892090201377869 0.19185440242290497 0.6638860702514648
0.5902360081672668 0.19156184792518616 0.6638662219047546
0.5968227982521057 0.19388233125209808 0.6620758175849915
0.59823077917099 0.19455969333648682 0.6616209149360657
0.6028389930725098 0.19456540048122406 0.6610097885131836
0.6037203669548035 0.19387289881706238 0.6611676812171936
0.604253888130188 0.19230428338050842 0.6617190837860107
0.6052718758583069 0.19196496903896332 0.6617190837860107
0.6056604981422424 0.19004951417446136 0.6624277830123901
0.6064794659614563 0.18636606633663177 0.6637791395187378
0.6070010662078857 0.18482089042663574 0.6643232107162476
0.6091372966766357 0.1816425770521164 0.6653010845184326
0.6103934049606323 0.17914915084838867 0.6661238074302673
0.6120868921279907 0.17773519456386566 0.6664608716964722
0.6135110855102539 0.17569492757320404 0.6670812964439392
0.6142776608467102 0.17481186985969543 0.667330265045166
0.6160599589347839 0.1736457198858261 0.6675571203231812
0.6185242533683777 0.1714266836643219 0.6681110858917236
0.6212260723114014 0.16978216171264648 0.6684058904647827
0.6220715641975403 0.1691116839647293 0.6685603857040405
0.6238101124763489 0.16788668930530548 0.668816089630127
0.6204965710639954 0.1578780859708786 0.6732227206230164
0.6218967437744141 0.15599165856838226 0.6737850904464722
0.6226873993873596 0.15525580942630768 0.6739729046821594
0.6252312064170837 0.15591514110565186 0.6733750700950623
0.6271361112594604 0.15762415528297424 0.6724460124969482
0.6288800239562988 0.15896505117416382 0.6716837286949158
0.6304095387458801 0.15982668101787567 0.671140193939209
0.634224534034729 0.16069245338439941 0.6702918410301208
0.6330695748329163 0.14386115968227386 0.6771185994148254
0.6347107291221619 0.14262311160564423 0.6773925423622131
0.6353864669799805 0.14170818030834198 0.6776661276817322
0.6360611915588379 0.14079459011554718 0.6779391765594482
0.6420282125473022 0.13928289711475372 0.6777498722076416
0.6443233489990234 0.1393875628709793 0.6774052381515503
0.6483448147773743 0.14066976308822632 0.6763653755187988
0.6506595015525818 0.14077672362327576 0.6760172247886658
0.65204256772995 0.1412680596113205 0.6756395101547241
0.6563170552253723 0.14294779300689697 0.6744081377983093
0.6587273478507996 0.1431901752948761 0.6739933490753174
0.6601683497428894 0.14375856518745422 0.673577606678009
0.6616523265838623 0.1444016396999359 0.6731264591217041
0.6641638278961182 0.14480234682559967 0.672636091709137
0.6671574711799622 0.14609436690807343 0.6717277765274048
0.668658971786499 0.14673857390880585 0.6712744235992432
0.6701827049255371 0.14741738140583038 0.6708037853240967
0.672725260257721 0.14781765639781952 0.6703082919120789
0.6743054986000061 0.14858190715312958 0.6697970628738403
0.6785017848014832 0.1498352289199829 0.6687451004981995
0.681925892829895 0.15177981555461884 0.6675216555595398
0.6836504340171814 0.15276110172271729 0.6669045686721802
0.686373233795166 0.15339228510856628 0.666294515132904
0.5769588947296143 0.20527218282222748 0.6590237617492676
0.5785187482833862 0.2031940519809723 0.6596434712409973
0.5803171396255493 0.20181621611118317 0.6599540114402771
0.5820793509483337 0.20035329461097717 0.6603018641471863
0.5843678116798401 0.20355181396007538 0.6587249040603638
0.5863351225852966 0.20582357048988342 0.6575596332550049
0.5908086895942688 0.20858454704284668 0.6558669805526733
0.5925735831260681 0.19166788458824158 0.6623671054840088
0.5950141549110413 0.192082017660141 0.661878764629364
0.5964471101760864 0.19283631443977356 0.6613885164260864
0.599066972732544 0.19367927312850952 0.6607052087783813
0.6000851988792419 0.19333985447883606 0.6607052087783813
0.6028797626495361 0.19166184961795807 0.6610022187232971
0.6033188700675964 0.18986190855503082 0.6616606712341309
0.604333758354187 0.1895236074924469 0.6616606712341309
0.6047228574752808 0.18761929869651794 0.6623671054840088
0.6051038503646851 0.18570837378501892 0.6630772352218628
0.6061339974403381 0.18259085714817047 0.6641818284988403
0.6077074408531189 0.18084710836410522 0.6646661758422852
0.6083287596702576 0.17957893013954163 0.66508948802948
0.6096144318580627 0.1771707981824875 0.6658773422241211
0.610614538192749 0.17683744430541992 0.6658773422241211
0.6113279461860657 0.17581807076931 0.6661884188652039
0.6127665638923645 0.17382410168647766 0.6667913794517517
0.6145479679107666 0.17266029119491577 0.6670184135437012
0.6153309941291809 0.17182892560958862 0.6672453284263611
0.6161280274391174 0.17103497684001923 0.6674554944038391
0.6178387999534607 0.16972871124744415 0.6677486896514893
0.6188322901725769 0.16939756274223328 0.6677486896514893
0.6213204860687256 0.16728389263153076 0.6682600378990173
0.6218145489692688 0.16582681238651276 0.6687737107276917
0.6228044629096985 0.1654968559741974 0.6687737107276917
0.6268904805183411 0.15695518255233765 0.6716318726539612
0.6284117102622986 0.15781037509441376 0.6710903644561768
0.6322864890098572 0.15883409976959229 0.6701685190200806
0.6334708333015442 0.15893466770648956 0.6699711680412292
0.6346571445465088 0.15903514623641968 0.6697739362716675
0.6301364898681641 0.1469714343547821 0.6751760244369507
0.6317859888076782 0.1457236409187317 0.6754540205001831
0.6324677467346191 0.14480215311050415 0.6757304072380066
0.6363000869750977 0.13884076476097107 0.6775950789451599
0.6383494734764099 0.13847066462039948 0.6774702668190002
0.6405353546142578 0.13837243616580963 0.6772192716598511
0.6436854004859924 0.13795232772827148 0.6769686341285706
0.6463397145271301 0.1387665718793869 0.6762922406196594
0.6476805806159973 0.1391923427581787 0.6759450435638428
0.6490419507026672 0.13965345919132233 0.6755809187889099
0.6500079035758972 0.13933147490024567 0.6755809187889099
0.6542598605155945 0.14099617302417755 0.6743536591529846
0.6556876301765442 0.1415586918592453 0.6739403009414673
0.6566593647003174 0.14123480021953583 0.6739403009414673
0.6580933332443237 0.14179861545562744 0.6735254526138306
0.6625840663909912 0.14381062984466553 0.6721289157867432
0.6650654077529907 0.14414919912815094 0.6716651320457458
0.6665390133857727 0.14475110173225403 0.6712296009063721
0.6680459380149841 0.14540819823741913 0.6707679629325867
0.6705595850944519 0.14577148854732513 0.6702897548675537
0.6721258759498596 0.14652054011821747 0.6697836518287659
0.6769334673881531 0.1489209532737732 0.6681898832321167
0.6796438694000244 0.14958089590072632 0.6675682663917542
0.6830996870994568 0.1515696942806244 0.6663175225257874
0.6848177909851074 0.15253157913684845 0.6657066941261292
0.6875452995300293 0.15316233038902283 0.6650932431221008
0.5751829743385315 0.2067357748746872 0.6575115919113159
0.5762091875076294 0.20639370381832123 0.6575115919113159
0.5769925117492676 0.2053503543138504 0.6578249335289001
0.5824441909790039 0.2013423889875412 0.6587004661560059
0.5844520926475525 0.20375043153762817 0.6574698090553284
0.588930070400238 0.20656943321228027 0.6557470560073853
0.5903940796852112 0.20740549266338348 0.6552176475524902
0.5875235199928284 0.19333897531032562 0.6612223982810974
0.5885367393493652 0.19300124049186707 0.6612223982810974
0.5892969369888306 0.19198393821716309 0.6615276336669922
0.5900552272796631 0.19096946716308594 0.6618322730064392
0.5922186970710754 0.19066967070102692 0.6616634726524353
0.5946405529975891 0.19103968143463135 0.6611929535865784
0.596034824848175 0.19169537723064423 0.6607452034950256
0.5995543599128723 0.19190309941768646 0.6601933836936951
0.6006014347076416 0.1916409283876419 0.6601589322090149
0.6019940376281738 0.1893363893032074 0.6608944535255432
0.602388858795166 0.18743444979190826 0.6616014242172241
0.6037910580635071 0.18520450592041016 0.6623058915138245
0.604221522808075 0.18342509865760803 0.6629605889320374
0.60474693775177 0.18189577758312225 0.6635012030601501
0.6052777767181396 0.1803881675004959 0.6640337109565735
0.6069032549858093 0.178787499666214 0.6644563674926758
0.6075241565704346 0.17752467095851898 0.6648785471916199
0.6088619828224182 0.17525753378868103 0.6656065583229065
0.6105725765228271 0.17390960454940796 0.6659172177314758
0.6112839579582214 0.1728973090648651 0.6662269234657288
0.6128289699554443 0.17117929458618164 0.666707456111908
0.6154506802558899 0.1693447381258011 0.6670922040939331
0.6181474328041077 0.16770601272583008 0.6673871874809265
0.6205428838729858 0.16539625823497772 0.6679913997650146
0.6192768216133118 0.15995776653289795 0.6703336834907532
0.6202578544616699 0.159630686044693 0.6703336834907532
0.6206344962120056 0.1579456925392151 0.6709569096565247
0.6220371723175049 0.1560552418231964 0.6715261340141296
0.6227360367774963 0.15511296689510345 0.6718091368675232
0.6249132752418518 0.1549576073884964 0.671581506729126
0.6264257431030273 0.15580621361732483 0.671040415763855
0.6303587555885315 0.15698595345020294 0.6700447797775269
0.6315386891365051 0.15708470344543457 0.6698483228683472
0.6327205300331116 0.1571839451789856 0.6696515679359436
0.6332264542579651 0.14390365779399872 0.674891471862793
0.634870171546936 0.14266365766525269 0.6751687526702881
0.6355475187301636 0.14174708724021912 0.6754448413848877
0.636223316192627 0.14083251357078552 0.6757203340530396
0.6398413777351379 0.139080211520195 0.6759383678436279
0.6409371495246887 0.13903120160102844 0.6758122444152832
0.6420334577560425 0.13898222148418427 0.6756855845451355
0.644093930721283 0.13861148059368134 0.6755596399307251
0.6522146463394165 0.1390562355518341 0.6742997169494629
0.6536355018615723 0.13961423933506012 0.673887312412262
0.6560302376747131 0.1398504376411438 0.6734738945960999
0.6604596376419067 0.14177562296390533 0.6721138954162598
0.661984920501709 0.1424960345029831 0.6716226935386658
0.6629616022109985 0.14217045903205872 0.6716226935386658
0.664449155330658 0.14280739426612854 0.6711707711219788
0.6689770221710205 0.14479994773864746 0.6697710752487183
0.6715283393859863 0.1452273577451706 0.6692602038383484
0.6731019616127014 0.14598515629768372 0.6687470078468323
0.674725353717804 0.1468268781900406 0.6681943535804749
0.676388680934906 0.14773215353488922 0.6676114201545715
0.6808272004127502 0.14939843118190765 0.6663541793823242
0.6825501322746277 0.15038040280342102 0.6657320261001587
0.6842653751373291 0.1513390690088272 0.6651204228401184
0.6869885921478271 0.15196697413921356 0.664506196975708
0.5745187401771545 0.2081269770860672 0.6558756828308105
0.5785884857177734 0.20334428548812866 0.6572513580322266
0.5803898572921753 0.2019660621881485 0.6575628519058228
0.5825797915458679 0.20168933272361755 0.6573812365531921
0.5860115885734558 0.20484915375709534 0.6556545495986938
0.5885185599327087 0.20539522171020508 0.6550992131233215
0.5919171571731567 0.18981286883354187 0.6608980298042297
0.5929282307624817 0.18947584927082062 0.6608980298042297
0.5942673683166504 0.18999896943569183 0.6605085730552673
0.5968581438064575 0.19079232215881348 0.6598444581031799
0.5980095863342285 0.19080813229084015 0.6596832871437073
0.5999513864517212 0.18990346789360046 0.6597867012023926
0.6010684967041016 0.18691188097000122 0.66083824634552
0.6014643311500549 0.18502074480056763 0.6615434885025024
0.6024731397628784 0.18468447029590607 0.6615434885025024
0.6028650999069214 0.18280431628227234 0.6622462272644043
0.6033627390861511 0.18120117485523224 0.662822425365448
0.603894054889679 0.17969301342964172 0.6633569002151489
0.6045217514038086 0.1784338504076004 0.6637786030769348
0.6067960262298584 0.1756574660539627 0.664588451385498
0.6081744432449341 0.17350032925605774 0.6652692556381226
0.610628068447113 0.17123255133628845 0.6658510565757751
0.6113824248313904 0.1703336536884308 0.6661110520362854
0.6121575236320496 0.1694885939359665 0.66634601354599
0.6147825121879578 0.16767780482769012 0.666721522808075
0.616475522518158 0.16635043919086456 0.6670280694961548
0.6183147430419922 0.16536939144134521 0.6671757102012634
0.6195144057273865 0.1629393845796585 0.6679903864860535
0.619019091129303 0.15925578773021698 0.6695346236228943
0.620703935623169 0.15797968208789825 0.6698211431503296
0.6274625658988953 0.15547430515289307 0.6699228286743164
0.6286368370056152 0.15557196736335754 0.6697263717651367
0.6307941675186157 0.15534290671348572 0.6695300936698914
0.6323311924934387 0.15378089249134064 0.6699509024620056
0.6302896738052368 0.14701960980892181 0.6729373931884766
0.6319422125816345 0.14577096700668335 0.6732174754142761
0.6326249241828918 0.14484786987304688 0.6734966039657593
0.6333056688308716 0.1439255177974701 0.6737751364707947
0.6381831765174866 0.1401127576828003 0.6746528744697571
0.64670729637146 0.13917401432991028 0.6738896369934082
0.6489145755767822 0.1390744149684906 0.6736345291137695
0.6509864926338196 0.13870228826999664 0.6735064387321472
0.6544344425201416 0.13879337906837463 0.6730089783668518
0.6583490967750549 0.1397535353899002 0.6721001267433167
0.6598658561706543 0.14046810567378998 0.671610414981842
0.661388099193573 0.1411851942539215 0.671118974685669
0.6623632311820984 0.14086009562015533 0.671118974685669
0.6668331027030945 0.14277319610118866 0.6697531342506409
0.6683856248855591 0.14351318776607513 0.6692485809326172
0.6709319949150085 0.1439375877380371 0.6687377095222473
0.6741562485694885 0.14559146761894226 0.6676430702209473
0.6758479475975037 0.14655138552188873 0.6670312881469727
0.6785534620285034 0.14721164107322693 0.666404664516449
0.6802799105644226 0.14821210503578186 0.665772020816803
0.682002067565918 0.14919447898864746 0.6651477217674255
0.6847124695777893 0.14981715381145477 0.6645353436470032
0.6864328980445862 0.15077410638332367 0.6639214754104614
0.6881610155105591 0.15173564851284027 0.6633040308952332
0.574392557144165 0.20774483680725098 0.6548773050308228
0.5762747526168823 0.20655064284801483 0.6551051139831543
0.5770593881607056 0.20550526678562164 0.6554208993911743
0.5804271101951599 0.20204181969165802 0.6563646793365479
0.5841293334960938 0.20277871191501617 0.6555702686309814
0.5866536498069763 0.20339669287204742 0.6549818515777588
0.5895673036575317 0.20505373179912567 0.653922975063324
0.5907802581787109 0.20520129799842834 0.6537010669708252
0.5930115580558777 0.20495980978012085 0.6534984707832336
0.5893852710723877 0.19211475551128387 0.6591606736183167
0.5901448130607605 0.19109836220741272 0.6594682931900024
0.59390789270401 0.18899305164813995 0.6598110795021057
0.595184862613678 0.1893477886915207 0.6594967246055603
0.5963336825370789 0.18936337530612946 0.6593359112739563
0.5992255210876465 0.18797114491462708 0.6595085263252258
0.5997499227523804 0.18639039993286133 0.6600749492645264
0.6005765199661255 0.1827000379562378 0.6614502668380737
0.6038976311683655 0.1768059879541397 0.6633788347244263
0.6048966646194458 0.17647291719913483 0.6633788347244263
0.6055002212524414 0.17517147958278656 0.6638224720954895
0.6061018109321594 0.17387370765209198 0.6642647385597229
0.6075632572174072 0.17192858457565308 0.6648520231246948
0.6085573434829712 0.17159722745418549 0.6648520231246948
0.6100378632545471 0.16972534358501434 0.6654075384140015
0.6115404963493347 0.16792568564414978 0.6659302711486816
0.6125308275222778 0.16759558022022247 0.6659302711486816
0.6133565306663513 0.16688039898872375 0.6661077737808228
0.6150121092796326 0.1654691845178604 0.6664538979530334
0.6168303489685059 0.1644446849822998 0.6666226983070374
0.6176462173461914 0.16372114419937134 0.6668043732643127
0.6185795068740845 0.1606953740119934 0.6678977012634277
0.6200688481330872 0.15896327793598175 0.6683957576751709
0.6221777200698853 0.156119704246521 0.669258177280426
0.6228780746459961 0.15517586469650269 0.6695443987846375
0.6245535612106323 0.1539083868265152 0.6698300242424011
0.626728892326355 0.15374185144901276 0.6696048974990845
0.6288785338401794 0.15351204574108124 0.6694086194038391
0.630533754825592 0.15221302211284637 0.6697102189064026
0.6298888921737671 0.1484195441007614 0.6713247895240784
0.6303660273551941 0.14704348146915436 0.6718147993087769
0.6340652108192444 0.143026664853096 0.6729370951652527
0.635708749294281 0.1417866200208664 0.673215389251709
0.6363874673843384 0.14087426662445068 0.6734920740127563
0.6385824680328369 0.14077821373939514 0.6732359528541565
0.6406457424163818 0.14040684700012207 0.6731083393096924
0.6428464651107788 0.14030782878398895 0.6728528141975403
0.6449150443077087 0.13993701338768005 0.672724187374115
0.652521014213562 0.1393173187971115 0.6719526648521423
0.6547421216964722 0.13921746611595154 0.6716947555541992
0.6568247675895691 0.13884416222572327 0.6715652942657471
0.6592739224433899 0.13916467130184174 0.6711074113845825
0.6607868075370789 0.13986675441265106 0.6706215739250183
0.6647149324417114 0.1407814621925354 0.6697254776954651
0.6662413477897644 0.14148356020450592 0.6692377328872681
0.6687757968902588 0.14190293848514557 0.6687277555465698
0.6719670295715332 0.14351683855056763 0.6676487922668457
0.6736061573028564 0.1443917453289032 0.6670762300491333
0.6762973666191101 0.14504413306713104 0.666452944278717
0.6780106425285339 0.14603184163570404 0.6658244132995605
0.6831637620925903 0.14896300435066223 0.6639513373374939
0.6841607689857483 0.14863060414791107 0.6639513373374939
0.5735354423522949 0.2085852324962616 0.653481125831604
0.5742678046226501 0.20736795663833618 0.6538753509521484
0.5763078331947327 0.20662975311279297 0.6538985371589661
0.578658938407898 0.20349743962287903 0.6548490524291992
0.5804633498191833 0.20211607217788696 0.6551639437675476
0.5812408328056335 0.20107896625995636 0.6554785966873169
0.5822579860687256 0.20072028040885925 0.6554864645004272
0.5876977443695068 0.20305411517620087 0.6538090705871582
0.5889336466789246 0.20327609777450562 0.6535530090332031
0.5901269316673279 0.20337672531604767 0.6533511281013489
0.5922114253044128 0.2027508020401001 0.6533235907554626
0.5894290208816528 0.19217954576015472 0.6579738259315491
0.5917055606842041 0.18913468718528748 0.658898651599884
0.5958191752433777 0.18796086311340332 0.6588191390037537
0.5967245101928711 0.1873481720685959 0.6589453220367432
0.5984138250350952 0.18582050502300262 0.6593350768089294
0.5993657112121582 0.18243825435638428 0.6605740785598755
0.5998244881629944 0.18072259426116943 0.6612066626548767
0.6008280515670776 0.18038807809352875 0.6612066626548767
0.6013741493225098 0.17890852689743042 0.6617316603660583
0.60199373960495 0.1776232272386551 0.6621679067611694
0.6032309532165527 0.17507293820381165 0.6630324721336365
0.6048528552055359 0.17349624633789062 0.6634517312049866
0.6087261438369751 0.16919149458408356 0.6646705269813538
0.6127933263778687 0.1654537469148636 0.6656343936920166
0.6144488453865051 0.1640506088733673 0.6659782528877258
0.6152769327163696 0.16335447132587433 0.6661480665206909
0.6177150011062622 0.16117797791957855 0.6667001843452454
0.6191553473472595 0.15932530164718628 0.6672549843788147
0.6201379299163818 0.1589977890253067 0.6672549843788147
0.6215461492538452 0.15709863603115082 0.6678333878517151
0.6281405687332153 0.15178024768829346 0.6690950989723206
0.6292511820793152 0.14932288229465485 0.6699400544166565
0.6297563314437866 0.14799802005290985 0.6704075932502747
0.6320984959602356 0.14581696689128876 0.67097407579422
0.6334640383720398 0.14396876096725464 0.6715376377105713
0.6341444849967957 0.1430472731590271 0.6718180775642395
0.6378816962242126 0.14149247109889984 0.6719433665275574
0.6389815211296082 0.14144347608089447 0.6718152165412903
0.6410502791404724 0.14107395708560944 0.6716853976249695
0.6421520709991455 0.14102418720722198 0.6715567708015442
0.6443595886230469 0.14092609286308289 0.6712989807128906
0.6464343070983887 0.1405547857284546 0.6711697578430176
0.6486488580703735 0.14045611023902893 0.6709105372428894
0.6507279276847839 0.14008335769176483 0.6707807779312134
0.6594957113265991 0.13941149413585663 0.6698711514472961
0.6606141328811646 0.13936160504817963 0.6697401404380798
0.6627074480056763 0.1389869600534439 0.6696093082427979
0.6641164422035217 0.13947740197181702 0.6692215204238892
0.6697920560836792 0.14145562052726746 0.6676556468009949
0.6730718016624451 0.14322085678577423 0.6664995551109314
0.6747707724571228 0.14419874548912048 0.6658746004104614
0.6757581233978271 0.14386963844299316 0.6658746004104614
0.6774690747261047 0.14485476911067963 0.6652461886405945
0.679189145565033 0.14584766328334808 0.6646124124526978
0.6809089183807373 0.14683011174201965 0.6639835238456726
0.6826149821281433 0.14777874946594238 0.6633691191673279
0.6870474219322205 0.1493511199951172 0.662135899066925
0.6887766122817993 0.15030942857265472 0.6615146994590759
0.5731595158576965 0.21085965633392334 0.6514351963996887
0.5733163952827454 0.20793014764785767 0.6526029109954834
0.5771269798278809 0.20566174387931824 0.6530085206031799
0.5786936283111572 0.20357349514961243 0.6536446213722229
0.580500066280365 0.2021906077861786 0.6539614796638489
0.5848124623298645 0.2014082670211792 0.6536955833435059
0.5870970487594604 0.20136073231697083 0.653406023979187
0.5882858633995056 0.20145978033542633 0.6532045602798462
0.587897777557373 0.1941562443971634 0.6562225818634033
0.590234100818634 0.19122625887393951 0.6570960283279419
0.5917518138885498 0.18919731676578522 0.6577145457267761
0.5927642583847046 0.18885982036590576 0.6577145457267761
0.5935191512107849 0.187848299741745 0.6580232381820679
0.5960786938667297 0.18561047315597534 0.6585856080055237
0.5976724028587341 0.1838493049144745 0.6590851545333862
0.5981563329696655 0.1821792870759964 0.6596977114677429
0.5991476774215698 0.17893527448177338 0.6608806252479553
0.6007840037345886 0.17735038697719574 0.6613027453422546
0.6026566624641418 0.17356817424297333 0.6625850796699524
0.6042556762695312 0.1719449907541275 0.6630280613899231
0.6057069897651672 0.16998088359832764 0.6636289954185486
0.6064484715461731 0.16904541850090027 0.6639091372489929
0.6081848740577698 0.16779738664627075 0.6641801595687866
0.609682023525238 0.16599123179912567 0.6647109985351562
0.6104500889778137 0.16514283418655396 0.6649513244628906
0.6131243109703064 0.16348405182361603 0.6652633547782898
0.6147697567939758 0.16206972301006317 0.6656150221824646
0.6157549023628235 0.16174134612083435 0.6656150221824646
0.6165335178375244 0.1609397530555725 0.6658354997634888
0.618505597114563 0.16029143333435059 0.6658311486244202
0.6223190426826477 0.15618406236171722 0.6669831275939941
0.623019814491272 0.15523800253868103 0.6672726273536682
0.6246980428695679 0.153967946767807 0.6675610542297363
0.6267849802970886 0.15114861726760864 0.668423056602478
0.6305199265480042 0.14709191024303436 0.6695654988288879
0.6321765184402466 0.14584046602249146 0.6698488593101501
0.6360799074172974 0.14225883781909943 0.6707754135131836
0.638280987739563 0.14216192066669464 0.670516312122345
0.643665611743927 0.1416446715593338 0.6699977517127991
0.6447718739509583 0.14159546792507172 0.669867753982544
0.6468508243560791 0.14122374355793 0.6697376370429993
0.6490700840950012 0.14112550020217896 0.6694765686988831
0.6501816511154175 0.1410764902830124 0.6693463325500488
0.6522663831710815 0.14070330560207367 0.6692155003547668
0.6544954180717468 0.1406049281358719 0.6689543724060059
0.6565850973129272 0.14023099839687347 0.6688231825828552
0.6588207483291626 0.14013151824474335 0.6685604453086853
0.6610608100891113 0.14003227651119232 0.6682976484298706
0.6654058694839478 0.1395568698644638 0.6679030060768127
0.6666528582572937 0.13973408937454224 0.6676617860794067
0.6708493828773499 0.1410820186138153 0.6665467619895935
0.6725379228591919 0.14205193519592285 0.6659240126609802
0.6769287586212158 0.1436804085969925 0.664668619632721
0.6803639531135559 0.1456516534090042 0.6634029746055603
0.6847736835479736 0.1472126692533493 0.6621723175048828
0.6864926815032959 0.1481633186340332 0.6615537405014038
0.688218355178833 0.14911749958992004 0.6609322428703308
0.6909552812576294 0.1497417539358139 0.6603085398674011
0.5726984143257141 0.20948785543441772 0.6508774757385254
0.5731467008590698 0.20742110908031464 0.6516594886779785
0.5753434300422668 0.20713216066360474 0.65147864818573
0.5763742327690125 0.2067885547876358 0.65147864818573
0.5771604180335999 0.2057391107082367 0.6517996788024902
0.5813149213790894 0.20122501254081726 0.6530754566192627
0.5820921063423157 0.20018810033798218 0.6533925533294678
0.5830419659614563 0.1996404230594635 0.6534864902496338
0.5842455625534058 0.19979678094387054 0.6532590985298157
0.5864545106887817 0.19955357909202576 0.6530578136444092
0.588297963142395 0.19830574095249176 0.6533167362213135
0.5877478122711182 0.1937013864517212 0.6552686095237732
0.588765561580658 0.19336214661598206 0.6552686095237732
0.5902791023254395 0.19129079580307007 0.6559069752693176
0.5935669541358948 0.1879097819328308 0.6568385362625122
0.5943193435668945 0.18689461052417755 0.6571505665779114
0.5948483943939209 0.185306578874588 0.6577253937721252
0.595520555973053 0.18409964442253113 0.658126711845398
0.5975020527839661 0.1804381161928177 0.6593497395515442
0.5979858636856079 0.17878593504428864 0.659957766532898
0.5985978841781616 0.1774686872959137 0.6604113578796387
0.6002322435379028 0.17588791251182556 0.6608337163925171
0.6014570593833923 0.17330850660800934 0.6617188453674316
0.6030576825141907 0.17168597877025604 0.6621631383895874
0.6059279441833496 0.16769368946552277 0.663400411605835
0.6069176197052002 0.16736380755901337 0.663400411605835
0.6084163784980774 0.16555972397327423 0.6639322638511658
0.6099284887313843 0.16380667686462402 0.6644414067268372
0.6109143495559692 0.16347798705101013 0.6644414067268372
0.6134405732154846 0.16148892045021057 0.6649092435836792
0.6160680055618286 0.15975800156593323 0.6652581691741943
0.6183332204818726 0.15978223085403442 0.6649395823478699
0.6202759146690369 0.15906721353530884 0.6649677753448486
0.6216862797737122 0.1571643352508545 0.6655511856079102
0.6223894357681274 0.1562155932188034 0.66584312915802
0.6240708827972412 0.15494196116924286 0.6661333441734314
0.6261641979217529 0.15211458504199982 0.6670015454292297
0.6268593668937683 0.15117670595645905 0.6672894358634949
0.6285282373428345 0.14991505444049835 0.6675769090652466
0.6344059109687805 0.1433013379573822 0.6694744825363159
0.6364760994911194 0.14293046295642853 0.6693446040153503
0.6386820077896118 0.14283397793769836 0.6690843105316162
0.6407566070556641 0.14246243238449097 0.6689536571502686
0.64296954870224 0.14236538112163544 0.6686927080154419
0.6440779566764832 0.14231739938259125 0.6685612201690674
0.6506075859069824 0.14174942672252655 0.6679061055183411
0.652696430683136 0.14137564599514008 0.6677743196487427
0.6549298763275146 0.14127717912197113 0.6675111055374146
0.6560482382774353 0.14122821390628815 0.6673787832260132
0.6581436991691589 0.14085349440574646 0.6672465205192566
0.6603867411613464 0.14075489342212677 0.6669825911521912
0.6624870896339417 0.1403791606426239 0.666850209236145
0.6647369265556335 0.1402798593044281 0.6665850281715393
0.666991114616394 0.14018037915229797 0.6663187146186829
0.6690998077392578 0.1398034244775772 0.6661861538887024
0.6703199744224548 0.13991962373256683 0.6659730672836304
0.6720057725906372 0.14088597893714905 0.6653501987457275
0.6746838092803955 0.14152875542640686 0.6647239327430725
0.6781035661697388 0.1434941440820694 0.6634581685066223
0.6798209547996521 0.14447662234306335 0.6628239750862122
0.6825143098831177 0.14508695900440216 0.6622092127799988
0.6842234134674072 0.1460312455892563 0.6615920662879944
0.6876617670059204 0.14792877435684204 0.6603509187698364
0.6893916130065918 0.1488834023475647 0.6597269177436829
0.6903939843177795 0.14854928851127625 0.6597269177436829
0.5712762475013733 0.21210066974163055 0.6488234400749207
0.5723128914833069 0.21175511181354523 0.6488234400749207
0.5725369453430176 0.2090023159980774 0.6499197483062744
0.578763484954834 0.2037249356508255 0.6512299180030823
0.5805729627609253 0.2023392766714096 0.6515509486198425
0.5813519358634949 0.20129850506782532 0.65187007188797
0.5858151316642761 0.19775328040122986 0.6527124047279358
0.5865253210067749 0.1965566724538803 0.6531051993370056
0.5871137976646423 0.19503718614578247 0.65364670753479
0.5918439626693726 0.18932263553142548 0.6553404331207275
0.5928582549095154 0.18898455798625946 0.6553404331207275
0.5936148166656494 0.18797124922275543 0.6556519865989685
0.5943698287010193 0.18696020543575287 0.6559626460075378
0.5948997139930725 0.18242742121219635 0.657745361328125
0.5974117517471313 0.17725320160388947 0.6595209836959839
0.5980372428894043 0.1759752780199051 0.6599583625793457
0.5996476411819458 0.17434386909008026 0.6604059934616089
0.6017000079154968 0.17103222012519836 0.6614820957183838
0.6026931405067444 0.17070117592811584 0.6614820957183838
0.6034213304519653 0.16972269117832184 0.6617829203605652
0.6073070764541626 0.16549910604953766 0.6629812717437744
0.6087452173233032 0.16356545686721802 0.6635767817497253
0.6104471683502197 0.16227363049983978 0.663873016834259
0.6112488508224487 0.16151690483093262 0.6640733480453491
0.6137878894805908 0.15957672894001007 0.6645214557647705
0.6147705316543579 0.1592491716146469 0.6645214557647705
0.6193602085113525 0.15943025052547455 0.6638211607933044
0.6203451156616211 0.15910190343856812 0.6638211607933044
0.6231622099876404 0.15529999136924744 0.6649923920631409
0.6241430640220642 0.15497298538684845 0.6649923920631409
0.625541090965271 0.15308451652526855 0.6655747890472412
0.6262381672859192 0.15214355289936066 0.6658645868301392
0.6306740641593933 0.14714065194129944 0.6673072576522827
0.6323336362838745 0.1458868682384491 0.6675940155982971
0.6368740200996399 0.14360485970973969 0.6679089069366455
0.6390843987464905 0.14350882172584534 0.6676467657089233
0.6401910781860352 0.14346081018447876 0.667515218257904
0.6422712802886963 0.14308805763721466 0.6673837304115295
0.6444915533065796 0.1429920643568039 0.6671201586723328
0.6465770602226257 0.14261944591999054 0.6669878959655762
0.6488036513328552 0.14252173900604248 0.6667242646217346
0.6510353684425354 0.14242568612098694 0.6664590239524841
0.6520113945007324 0.1421005129814148 0.6664590239524841
0.65424644947052 0.1420014351606369 0.6661942601203918
0.6564872860908508 0.1419038474559784 0.6659291386604309
0.6585869193077087 0.1415288746356964 0.6657959818840027
0.6608344316482544 0.14143016934394836 0.6655299067497253
0.6629394888877869 0.14105437695980072 0.6653968095779419
0.6640661358833313 0.1410050243139267 0.6652624011039734
0.6663228273391724 0.14090563356876373 0.6649953722953796
0.6684346199035645 0.14052888751029968 0.6648617386817932
0.6706984639167786 0.14042848348617554 0.6645941734313965
0.6758520007133484 0.14134038984775543 0.6635178923606873
0.677562415599823 0.1423216164112091 0.6628826856613159
0.680975615978241 0.14424166083335876 0.6616312861442566
0.6819680333137512 0.14391079545021057 0.6616312861442566
0.6836740970611572 0.14485210180282593 0.6610133647918701
0.6853868365287781 0.14579547941684723 0.6603937149047852
0.6871060729026794 0.14674235880374908 0.6597718596458435
0.6888331174850464 0.14769378304481506 0.6591464281082153
0.5708887577056885 0.21094010770320892 0.6481693983078003
0.5730960369110107 0.20725347101688385 0.6493826508522034
0.5748411417007446 0.2056386023759842 0.6498068571090698
0.5772284269332886 0.20589692890644073 0.6493740677833557
0.5780142545700073 0.2048480361700058 0.6496968269348145
0.5821679830551147 0.20033352077007294 0.6509837508201599
0.582944393157959 0.19929634034633636 0.6513028144836426
0.584743320941925 0.19792059063911438 0.6516216993331909
0.5878225564956665 0.19380468130111694 0.6528919339179993
0.5888420343399048 0.19346484541893005 0.6528919339179993
0.5903694033622742 0.19142082333564758 0.6535220742225647
0.5933050513267517 0.18412013351917267 0.6561197638511658
0.5938237905502319 0.18251384794712067 0.6567089557647705
0.5942900776863098 0.18078352510929108 0.6573559641838074
0.5957562923431396 0.1787271946668625 0.6580000519752502
0.5978226065635681 0.17535513639450073 0.6591027975082397
0.6002907752990723 0.1730474829673767 0.6597124934196472
0.6042064428329468 0.16879554092884064 0.6609236598014832
0.6049320697784424 0.1678193062543869 0.6612251400947571
0.6066460609436035 0.16651597619056702 0.6615257859230042
0.6073676943778992 0.16554495692253113 0.6618257761001587
0.6112237572669983 0.16135083138942719 0.663021445274353
0.6126492619514465 0.1594320833683014 0.6636148691177368
0.6143409609794617 0.15814784169197083 0.6639105677604675
0.6151461005210876 0.1574161946773529 0.6641008853912354
0.6161596179008484 0.15716372430324554 0.6640657782554626
0.6176296472549438 0.15794704854488373 0.663542628288269
0.6218270659446716 0.15723025798797607 0.6632625460624695
0.6225308179855347 0.15627972781658173 0.6635562181472778
0.6232338547706604 0.1553313434123993 0.6638494729995728
0.6242155432701111 0.15500405430793762 0.6638494729995728
0.627008318901062 0.15123248100280762 0.6650174856185913
0.6286795139312744 0.14996851980686188 0.665307343006134
0.6300620436668396 0.14809763431549072 0.6658868193626404
0.6340898275375366 0.14470061659812927 0.6667308807373047
0.6361671090126038 0.14432911574840546 0.6665992736816406
0.6383801698684692 0.1442335993051529 0.6663355827331543
0.6405975818634033 0.14413835108280182 0.6660704612731934
0.6426820755004883 0.14376534521579742 0.6659380197525024
0.6449063420295715 0.14366909861564636 0.6656730771064758
0.6460204720497131 0.1436215192079544 0.6655402779579163
0.6481121182441711 0.14324811100959778 0.6654075980186462
0.6503456234931946 0.143151193857193 0.6651416420936584
0.6524418592453003 0.14277738332748413 0.6650072336196899
0.6546823382377625 0.14267884194850922 0.664741039276123
0.6569274663925171 0.1425820291042328 0.6644733548164368
0.6590319871902466 0.1422063112258911 0.6643399000167847
0.6601574420928955 0.14215728640556335 0.6642056703567505
0.6624122858047485 0.14205946028232574 0.663936972618103
0.6633938550949097 0.14173227548599243 0.663936972618103
0.6645229458808899 0.14168313145637512 0.6638023853302002
0.6667844653129578 0.14158418774604797 0.6635333895683289
0.6688997745513916 0.1412060409784317 0.6633988618850708
0.6700340509414673 0.1411566585302353 0.6632641553878784
0.6723049283027649 0.14105641841888428 0.6629944443702698
0.6770228147506714 0.14115162193775177 0.6623085737228394
0.678736686706543 0.14213189482688904 0.661670982837677
0.6831262111663818 0.14367549121379852 0.6604359745979309
0.6848359107971191 0.14461588859558105 0.6598155498504639
0.6865520477294922 0.14555896818637848 0.659193217754364
0.6912209391593933 0.14749544858932495 0.6577574610710144
0.5704782009124756 0.21316634118556976 0.6461247205734253
0.5707276463508606 0.21045638620853424 0.6472080945968628
0.5723735094070435 0.20850539207458496 0.6477864384651184
0.5788342356681824 0.20387844741344452 0.6488065123558044
0.5806464552879333 0.20248998701572418 0.6491302251815796
0.581427276134491 0.2014474868774414 0.649452805519104
0.5822063088417053 0.20040705800056458 0.6497755646705627
0.5863280892372131 0.19592809677124023 0.6510558724403381
0.5878651738166809 0.19387131929397583 0.6516929864883423
0.5888855457305908 0.19353154301643372 0.6516929864883423
0.5919368863105774 0.1894485503435135 0.6529577374458313
0.5929529666900635 0.18910986185073853 0.6529577374458313
0.5927753448486328 0.18267381191253662 0.6556364893913269
0.5932388305664062 0.1809292733669281 0.6562928557395935
0.5939061641693115 0.17972277104854584 0.6566987037658691
0.5949094295501709 0.17938834428787231 0.6566987037658691
0.5963951349258423 0.17739450931549072 0.6573166251182556
0.5978748202323914 0.17540869116783142 0.6579326391220093
0.5988738536834717 0.1750756800174713 0.6579326391220093
0.6017658114433289 0.1710198074579239 0.659207820892334
0.6027604937553406 0.17068824172019958 0.659207820892334
0.6034740209579468 0.16967007517814636 0.6595298647880554
0.6042025089263916 0.16869406402111053 0.6598319411277771
0.6081002950668335 0.16450431942939758 0.6610249280929565
0.6088231801986694 0.16354529559612274 0.6613208651542664
0.6105496883392334 0.16230320930480957 0.6615961790084839
0.611286997795105 0.16139157116413116 0.6618704795837402
0.6120012402534485 0.16043107211589813 0.6621681451797485
0.6151153445243835 0.15723058581352234 0.6630609035491943
0.6185506582260132 0.15735924243927002 0.6625354886054993
0.6256883144378662 0.15314380824565887 0.663292407989502
0.6263864040374756 0.1522010862827301 0.6635853052139282
0.6270825862884521 0.1512601673603058 0.6638778448104858
0.6280612945556641 0.15093393623828888 0.6638778448104858
0.6308290362358093 0.14718939363956451 0.6650420427322388
0.6324906349182129 0.14593318104743958 0.6653317809104919
0.6344842314720154 0.14538030326366425 0.6652857661247253
0.636565625667572 0.14500856399536133 0.6651532649993896
0.6387830972671509 0.14491340517997742 0.6648865342140198
0.6410055160522461 0.14481870830059052 0.6646206974983215
0.6430942416191101 0.14444512128829956 0.664487361907959
0.6442086100578308 0.1443975865840912 0.6643540859222412
0.6464397311210632 0.14430151879787445 0.6640869975090027
0.6485353112220764 0.14392805099487305 0.6639520525932312
0.6507734656333923 0.14383113384246826 0.6636844277381897
0.6528744697570801 0.14345701038837433 0.6635501980781555
0.6551209688186646 0.14336137473583221 0.663280725479126
0.656244158744812 0.143311008810997 0.6631470322608948
0.6583516001701355 0.14293549954891205 0.6630125045776367
0.6606065630912781 0.14283820986747742 0.662742018699646
0.6649812459945679 0.14236347377300262 0.6623367667198181
0.6661138534545898 0.14231450855731964 0.6622010469436646
0.6683819890022278 0.14221486449241638 0.6619303822517395
0.6693673729896545 0.1418864130973816 0.6619303822517395
0.6705036759376526 0.14183714985847473 0.6617943048477173
0.6727795600891113 0.14173796772956848 0.661522388458252
0.6749069094657898 0.1413598507642746 0.6613854169845581
0.6760483980178833 0.14131034910678864 0.6612492799758911
0.6783338785171509 0.14121048152446747 0.6609763503074646
0.6808790564537048 0.14156709611415863 0.6604793667793274
0.6825788617134094 0.14250122010707855 0.6598597168922424
0.6842855215072632 0.14343827962875366 0.6592385768890381
0.6878427267074585 0.1455392688512802 0.6578829884529114
0.6888417601585388 0.14520636200904846 0.6578829884529114
0.6927744150161743 0.14791427552700043 0.6562250256538391
0.5701368451118469 0.21214130520820618 0.64540696144104
0.571647584438324 0.20976205170154572 0.646184504032135
0.5731346607208252 0.20734868943691254 0.6469785571098328
0.5747147798538208 0.20524165034294128 0.6476327180862427
0.5767279267311096 0.20441307127475739 0.6476979851722717
0.578083872795105 0.20500436425209045 0.6472656726837158
0.5788697004318237 0.20395547151565552 0.6475921273231506
0.5806835889816284 0.20256568491458893 0.6479167342185974
0.5830223560333252 0.19944140315055847 0.6488878130912781
0.5848239660263062 0.19806240499019623 0.6492096185684204
0.5855976939201355 0.1970285177230835 0.6495317220687866
0.5863697528839111 0.19599732756614685 0.6498520970344543
