ply
format ascii 1.0
element vertex 799
property float x
property float y
property float z
end_header
0.47569531202316284 -0.030738746747374535 0.6531808972358704
0.48110973834991455 -0.026126181706786156 0.6490502953529358
0.48232218623161316 -0.02483045868575573 0.6479559540748596
0.4822896122932434 -0.02752934955060482 0.649700403213501
0.48192116618156433 -0.0312647670507431 0.6521836519241333
0.4826466143131256 -0.03150646388530731 0.6521836519241333
0.4847239851951599 -0.03003687597811222 0.6507920026779175
0.486057311296463 -0.028407303616404533 0.6494573354721069
0.4894982874393463 -0.02534986101090908 0.6467508673667908
0.49087104201316833 -0.02367684245109558 0.6453794836997986
0.49375590682029724 -0.01998146064579487 0.6423822045326233
0.4960153102874756 -0.018230726942420006 0.6407706141471863
0.4975416958332062 -0.016209283843636513 0.6391419172286987
0.49908411502838135 -0.014166302047669888 0.6374964118003845
0.5006429553031921 -0.012101706117391586 0.6358329057693481
0.44179338216781616 -0.015161308459937572 0.6495006680488586
0.44846946001052856 -0.020333223044872284 0.6514032483100891
0.45055317878723145 -0.021457385271787643 0.6516801714897156
0.4519084393978119 -0.022338716313242912 0.651957631111145
0.4553205370903015 -0.024393703788518906 0.6525499224662781
0.46010443568229675 -0.027143193408846855 0.6532960534095764
0.46213310956954956 -0.028370806947350502 0.6536518931388855
0.46420446038246155 -0.02942066080868244 0.6538838148117065
0.465536892414093 -0.030288124457001686 0.6541571021080017
0.472880095243454 -0.03216490149497986 0.6537884473800659
0.4758971929550171 -0.03002483770251274 0.6517576575279236
0.4770592749118805 -0.02881770022213459 0.6507284045219421
0.4782293140888214 -0.027602186426520348 0.6496917009353638
0.48132848739624023 -0.02539096400141716 0.6475967764854431
0.4837607741355896 -0.02280755713582039 0.6454054713249207
0.4834992587566376 -0.026234092190861702 0.647674024105072
0.4842340648174286 -0.026479028165340424 0.647674024105072
0.4838469922542572 -0.030241861939430237 0.6501864194869995
0.4848622977733612 -0.029591845348477364 0.6495484113693237
0.4875469505786896 -0.026307372376322746 0.6468502283096313
0.48828375339508057 -0.026552975177764893 0.6468502283096313
0.489647775888443 -0.024889687076210976 0.6454830765724182
0.49384036660194397 -0.01973011903464794 0.6412494778633118
0.49763232469558716 -0.015950027853250504 0.6379926204681396
0.49917763471603394 -0.013902800157666206 0.6363386511802673
0.5007389783859253 -0.01183386892080307 0.634666383266449
0.5030878782272339 -0.009999223053455353 0.6329766511917114
0.4422599673271179 -0.01643974334001541 0.6492986679077148
0.44694218039512634 -0.020014693960547447 0.6506034135818481
0.4524165391921997 -0.023341571912169456 0.6515757441520691
0.45381584763526917 -0.0240216925740242 0.6517146825790405
0.45449069142341614 -0.024460282176733017 0.6518526673316956
0.4572335481643677 -0.0260144155472517 0.6522672772407532
0.4613078832626343 -0.028434311971068382 0.6529546976089478
0.4646976888179779 -0.030410870909690857 0.6535031795501709
0.4660285413265228 -0.03127660974860191 0.6537763476371765
0.47143974900245667 -0.03434121981263161 0.6545932292938232
0.47214123606681824 -0.03463069722056389 0.6546294093132019
0.47726601362228394 -0.028094667941331863 0.6492902040481567
0.4796214997768402 -0.02564370259642601 0.6471942067146301
0.48396745324134827 -0.022124215960502625 0.6439767479896545
0.4851154088973999 -0.021083228290081024 0.643054723739624
0.48545682430267334 -0.025177398696541786 0.6456322073936462
0.48520299792289734 -0.02851603366434574 0.6478496193885803
0.487692266702652 -0.025850478559732437 0.6455860733985901
0.4884305000305176 -0.026096558198332787 0.6455860733985901
0.49117720127105713 -0.022743962705135345 0.6428215503692627
0.4925692677497864 -0.021044977009296417 0.6414206027984619
0.4992712736129761 -0.013638390228152275 0.635177493095398
0.5008355975151062 -0.011564724147319794 0.6334963440895081
0.5031883716583252 -0.009726428426802158 0.631798267364502
0.5048302412033081 -0.007496446371078491 0.6299992799758911
0.44400453567504883 -0.019009916111826897 0.649662435054779
0.446094810962677 -0.020138418301939964 0.6499426364898682
0.44953998923301697 -0.022144434973597527 0.6505002975463867
0.45639094710350037 -0.026137372478842735 0.6516104340553284
0.4597977101802826 -0.028121883049607277 0.6521621346473694
0.46319156885147095 -0.030099885538220406 0.6527120471000671
0.46657294034957886 -0.03207036107778549 0.6532596945762634
0.4685630798339844 -0.03336399793624878 0.6536690592765808
0.4699420630931854 -0.03403325006365776 0.6538054943084717
0.4706032872200012 -0.034463200718164444 0.6539412140846252
0.47357526421546936 -0.03239903971552849 0.6519569754600525
0.4742964506149292 -0.032639436423778534 0.6519569754600525
0.47747382521629333 -0.02736777812242508 0.6478446125984192
0.478651225566864 -0.02614092081785202 0.646792471408844
0.4798368811607361 -0.024905364960432053 0.6457330584526062
0.4805731177330017 -0.025150781497359276 0.6457330584526062
0.4817696511745453 -0.023907549679279327 0.6446661353111267
0.4854287803173065 -0.020066983997821808 0.6413793563842773
0.486175537109375 -0.02031591162085533 0.6413793563842773
0.4871070384979248 -0.01998503878712654 0.6409622430801392
0.4866909086704254 -0.023863106966018677 0.643571674823761
0.4866236746311188 -0.026616323739290237 0.6453747749328613
0.4899480938911438 -0.023963935673236847 0.6429318785667419
0.4913312494754791 -0.022274775430560112 0.6415353417396545
0.4941353499889374 -0.01885005086660385 0.6387029886245728
0.49631327390670776 -0.01736617274582386 0.6372672915458679
0.4978146553039551 -0.015429109334945679 0.6356838345527649
0.4433909058570862 -0.018050314858555794 0.648244321346283
0.4445216953754425 -0.0200196485966444 0.6492817997932434
0.44808560609817505 -0.021519415080547333 0.6494854092597961
0.4514041841030121 -0.02402711659669876 0.650398313999176
0.45482614636421204 -0.026019766926765442 0.6509533524513245
0.4582357406616211 -0.02800470031797886 0.6515064239501953
0.46029549837112427 -0.02911464124917984 0.6517820358276367
0.4656815230846405 -0.032384540885686874 0.6527431011199951
0.47278448939323425 -0.03502587229013443 0.6529212594032288
0.4757549464702606 -0.030379056930541992 0.6492480635643005
0.4819919466972351 -0.02316015027463436 0.6431894302368164
0.48320072889328003 -0.021902497857809067 0.6421071887016296
0.48564499616622925 -0.019358277320861816 0.639918327331543
0.48639366030693054 -0.01960783079266548 0.639918327331543
0.4883660078048706 -0.018626069650053978 0.6388502717018127
0.48793646693229675 -0.022535590454936028 0.6414914131164551
0.4880615174770355 -0.024693232029676437 0.6428699493408203
0.4914856255054474 -0.02180386334657669 0.6402432322502136
0.49288487434387207 -0.02009374462068081 0.6388252377510071
0.4942965805530548 -0.018367880955338478 0.6373938918113708
0.49647998809814453 -0.016878826543688774 0.6359496116638184
0.4994596838951111 -0.013107100501656532 0.6328446865081787
0.5010296702384949 -0.011024432256817818 0.6311460733413696
0.5033904910087585 -0.00917773973196745 0.6294302344322205
0.5049989819526672 -0.007051269058138132 0.627695620059967
0.4438921809196472 -0.019144505262374878 0.6479213237762451
0.4492550194263458 -0.019676636904478073 0.6471003890037537
0.4510209858417511 -0.018855130299925804 0.6461790800094604
0.45085909962654114 -0.02288399636745453 0.6488475799560547
0.451236367225647 -0.02458883821964264 0.6498797535896301
0.4539835751056671 -0.026142483577132225 0.6502963900566101
0.45739448070526123 -0.028127383440732956 0.6508505344390869
0.4607928991317749 -0.030105093494057655 0.6514029502868652
0.4621281325817108 -0.030971253290772438 0.6516783237457275
0.4641786813735962 -0.03207514062523842 0.651952862739563
0.467552125453949 -0.034037962555885315 0.6525010466575623
0.4716360867023468 -0.03620608523488045 0.6530281901359558
0.47239625453948975 -0.036293331533670425 0.6529197096824646
0.4772338569164276 -0.028087228536605835 0.6465020775794983
0.47909408807754517 -0.024609921500086784 0.6438236236572266
0.48221555352211 -0.022408971562981606 0.641705334186554
0.483428418636322 -0.02114497683942318 0.6406148076057434
0.4878792464733124 -0.017529262229800224 0.6372814178466797
0.4891629219055176 -0.016126565635204315 0.6360849738121033
0.4891935884952545 -0.021196037530899048 0.639392077922821
0.4916408956050873 -0.021330976858735085 0.6389468312263489
0.4930434823036194 -0.019615303725004196 0.6375201344490051
0.4944588840007782 -0.017883803695440292 0.6360799074172974
0.4980927109718323 -0.014627055265009403 0.6331590414047241
0.4995540678501129 -0.01284033339470625 0.6316728591918945
0.5011270046234131 -0.010753144510090351 0.6299657821655273
0.4444001317024231 -0.020200971513986588 0.647573709487915
0.4462778866291046 -0.022274576127529144 0.6485230922698975
0.44727370142936707 -0.021322021260857582 0.6476811170578003
0.4483213722705841 -0.02016003429889679 0.6466902494430542
0.44937628507614136 -0.01899041421711445 0.6456926465034485
0.4501076340675354 -0.01923424005508423 0.6456926465034485
0.45220187306404114 -0.017047839239239693 0.6438013315200806
0.45213109254837036 -0.020684072747826576 0.6462007761001587
0.4524664580821991 -0.025828303769230843 0.6495005488395691
0.4531411826610565 -0.026265433058142662 0.6496396064758301
0.4544880986213684 -0.027138564735651016 0.6499179601669312
0.4599533975124359 -0.0302272941917181 0.6507484316825867
0.4633406698703766 -0.03219732269644737 0.6512999534606934
0.46605220437049866 -0.03372972831130028 0.6517120003700256
0.46671560406684875 -0.03416001424193382 0.651849091053009
0.4741479158401489 -0.035661522299051285 0.6512090563774109
0.476412296295166 -0.030773930251598358 0.6475099921226501
0.48050984740257263 -0.02260127104818821 0.6412558555603027
0.4836570620536804 -0.02038382925093174 0.6391143798828125
0.4868694841861725 -0.018067611381411552 0.6368934512138367
0.488116055727005 -0.01676984503865242 0.6357702612876892
0.4893876016139984 -0.015411575324833393 0.6346020102500916
0.49068528413772583 -0.013991784304380417 0.6333870887756348
0.49091750383377075 -0.015874674543738365 0.6345711350440979
0.4916757047176361 -0.016127413138747215 0.6345711350440979
0.491213858127594 -0.02009459026157856 0.637272834777832
0.49462181329727173 -0.017397798597812653 0.6347601413726807
0.4968150556087494 -0.015898406505584717 0.6332975625991821
0.4982643127441406 -0.014129969291388988 0.6318216919898987
0.5035938620567322 -0.008625630289316177 0.6270480155944824
0.4512982964515686 -0.01736331172287464 0.6432666778564453
0.45339593291282654 -0.01522017177194357 0.64139723777771
0.45157650113105774 -0.02614770643413067 0.6489830613136292
0.4549919366836548 -0.02813207544386387 0.6495391130447388
0.4563838839530945 -0.02880721725523472 0.6496780514717102
0.4620867371559143 -0.03094988688826561 0.6498370170593262
0.46445420384407043 -0.030909856781363487 0.6492919921875
0.4651622176170349 -0.03404302895069122 0.651197075843811
0.46853139996528625 -0.035985302180051804 0.651735782623291
0.46924665570259094 -0.03622376173734665 0.651735782623291
0.47000500559806824 -0.03631432726979256 0.6516291499137878
0.4723019599914551 -0.03652222082018852 0.651262104511261
0.47559982538223267 -0.03343009203672409 0.6485056281089783
0.47789761424064636 -0.028481585904955864 0.6447477340698242
0.48388728499412537 -0.01961740478873253 0.6376050710678101
0.48511651158332825 -0.01833348721265793 0.6364911794662476
0.48635491728782654 -0.017039498314261436 0.6353685855865479
0.48961934447288513 -0.014674070291221142 0.633097231388092
0.4909152686595917 -0.01326696202158928 0.6318877935409546
0.492227166891098 -0.011829755268990993 0.6306551098823547
0.4929931163787842 -0.012085068970918655 0.6306551098823547
0.49297305941581726 -0.014733574353158474 0.6324014663696289
0.4924975037574768 -0.018731342628598213 0.635134756565094
0.4947853684425354 -0.01690998487174511 0.6334356665611267
0.4969837963581085 -0.015405183658003807 0.6319639682769775
0.4999031126499176 -0.011839919723570347 0.6289790272712708
0.5013834238052368 -0.010032212361693382 0.6274658441543579
0.5021570324897766 -0.010290076024830341 0.6274658441543579
0.4464588761329651 -0.02112412266433239 0.6458708643913269
0.44750574231147766 -0.01995965838432312 0.644872784614563
0.44855964183807373 -0.018787523731589317 0.6438681483268738
0.44962015748023987 -0.017607633024454117 0.6428560018539429
0.4514255225658417 -0.01666538417339325 0.6418377757072449
0.45354214310646057 -0.01445827353745699 0.6399165987968445
0.4575551152229309 -0.030231667682528496 0.6494389772415161
0.4582245349884033 -0.03066481649875641 0.6495780348777771
0.46087294816970825 -0.029518838971853256 0.6482394337654114
0.46169695258140564 -0.029376892372965813 0.6479647159576416
0.46252208948135376 -0.029234910383820534 0.6476898193359375
0.4640730321407318 -0.029333816841244698 0.6474137306213379
0.4725988805294037 -0.035473745316267014 0.649589478969574
0.4743708670139313 -0.034837886691093445 0.6487804055213928
0.47542938590049744 -0.033957742154598236 0.6479668617248535
0.4770716726779938 -0.031167970970273018 0.6457653045654297
0.47940361499786377 -0.026157451793551445 0.6419470310211182
0.4801408350467682 -0.026403198018670082 0.6419470310211182
0.48535558581352234 -0.01754523627460003 0.6349573135375977
0.4865941107273102 -0.01625772751867771 0.6338353753089905
0.48986905813217163 -0.013881184160709381 0.6315479278564453
0.49246254563331604 -0.011094637215137482 0.629139244556427
0.4945598542690277 -0.009896641597151756 0.6278878450393677
0.49428215622901917 -0.013327051885426044 0.630211353302002
0.4937934875488281 -0.017355313524603844 0.6329764127731323
0.49860963225364685 -0.013129770755767822 0.6291298270225525
0.44762280583381653 -0.01927325129508972 0.6434584259986877
0.4497431516647339 -0.01691090501844883 0.6414272785186768
0.4515532851219177 -0.01596439816057682 0.6404020190238953
0.45368897914886475 -0.01369240041822195 0.6384273171424866
0.45124155282974243 -0.02726621739566326 0.6479489803314209
0.4533098340034485 -0.028377562761306763 0.6482282876968384
0.46213188767433167 -0.027647139504551888 0.6457991600036621
0.4645204544067383 -0.02760067954659462 0.6452414989471436
0.4661891758441925 -0.02731066383421421 0.644681453704834
0.4677010476589203 -0.0360298678278923 0.6501176953315735
0.4698975086212158 -0.03657938167452812 0.6499966382980347
0.47080370783805847 -0.03616759181022644 0.6495242118835449
0.47184792160987854 -0.03529491275548935 0.6487166285514832
0.4728977680206299 -0.03441789001226425 0.6479048132896423
0.47856393456459045 -0.02887451834976673 0.6429869532585144
0.48167312145233154 -0.024048445746302605 0.6391077637672424
0.48411083221435547 -0.018845465034246445 0.6351270079612732
0.48562055826187134 -0.01667519100010395 0.6333581805229187
0.48684266209602356 -0.015447336249053478 0.6322761178016663
0.4888521134853363 -0.014409373514354229 0.6311461925506592
0.4901201128959656 -0.013083633966743946 0.6299895644187927
0.4913974404335022 -0.01174771785736084 0.6288235783576965
0.49269887804985046 -0.010355896316468716 0.6276153326034546
0.4956039786338806 -0.01190689392387867 0.6280012726783752
0.49531304836273193 -0.015333540737628937 0.6303329467773438
0.49732330441474915 -0.014412523247301579 0.6292799711227417
0.49878349900245667 -0.012626378796994686 0.6277754306793213
0.44986680150032043 -0.01621112786233425 0.6399917602539062
0.45060548186302185 -0.01645735278725624 0.6399917602539062
0.45168179273605347 -0.015259952284395695 0.6389591693878174
0.45276540517807007 -0.014054295606911182 0.6379189491271973
0.45383650064468384 -0.012922781519591808 0.6369310021400452
0.45179519057273865 -0.02806498296558857 0.6474330425262451
0.45246872305870056 -0.028500229120254517 0.6475725173950195
0.4544857442378998 -0.029803229495882988 0.6479911208152771
0.45520535111427307 -0.0300431028008461 0.6479911208152771
0.45587605237960815 -0.030476508662104607 0.6481305956840515
0.4586029648780823 -0.032014042139053345 0.6485478281974792
0.45967885851860046 -0.030886298045516014 0.6475610733032227
0.4609955847263336 -0.02886485680937767 0.6459280848503113
0.463405579328537 -0.025753291323781013 0.6433300375938416
0.4641363024711609 -0.0259967390447855 0.6433300375938416
0.4666502773761749 -0.025555508211255074 0.6424806118011475
0.46473580598831177 -0.03536663204431534 0.649415910243988
0.4661862850189209 -0.035779714584350586 0.6493694186210632
0.4676573872566223 -0.03612135350704193 0.6492704749107361
0.4710959196090698 -0.03511618822813034 0.6478426456451416
0.4731985032558441 -0.03335479646921158 0.6462082266807556
0.4749842882156372 -0.032709065824747086 0.6453846096992493
0.47712525725364685 -0.03092014417052269 0.6437239646911621
0.47896528244018555 -0.03016812540590763 0.6428178548812866
0.483227401971817 -0.021659333258867264 0.6362274885177612
0.48711323738098145 -0.014565574005246162 0.6306593418121338
0.48911190032958984 -0.013576795347034931 0.6295609474182129
0.4916538596153259 -0.010939693078398705 0.627248227596283
0.4976240396499634 -0.01352872047573328 0.6276454925537109
0.44999101758003235 -0.015507647767663002 0.6385489106178284
0.45181092619895935 -0.014551769942045212 0.6375089883804321
0.4539850056171417 -0.012148888781666756 0.6354264616966248
0.4563771188259125 -0.03146468475461006 0.6477552652359009
0.45771482586860657 -0.03232870250940323 0.6480334401130676
0.4622516632080078 -0.027011612430214882 0.6434866786003113
0.4635976254940033 -0.024945037439465523 0.6418125629425049
0.46433037519454956 -0.02518928423523903 0.6418125629425049
0.4662719964981079 -0.02393224649131298 0.6405443549156189
0.46796223521232605 -0.02363259717822075 0.639970064163208
0.4686993658542633 -0.023878304287791252 0.639970064163208
0.4677833020687103 -0.03561778366565704 0.6479887366294861
0.46874943375587463 -0.03499004617333412 0.647356390953064
0.47141632437705994 -0.03396740183234215 0.6460834741592407
0.4724428653717041 -0.033173818141222 0.6453278064727783
0.4752942621707916 -0.03163355961441994 0.6436697840690613
0.4774443507194519 -0.029832564294338226 0.6419934630393982
0.47852811217308044 -0.02892446331679821 0.6411481499671936
0.48041096329689026 -0.028074825182557106 0.6401650309562683
0.4823544919490814 -0.024438777938485146 0.6373129487037659
0.48480379581451416 -0.019236234948039055 0.6333062052726746
0.4873167872428894 -0.013897453434765339 0.6291940808296204
0.4880795180797577 -0.014151700772345066 0.6291940808296204
0.4893910586833954 -0.012684113346040249 0.6279257535934448
0.4519406855106354 -0.013839945197105408 0.636051595211029
0.4541274905204773 -0.011399384588003159 0.6339347958564758
0.45096686482429504 -0.027993354946374893 0.6457193493843079
0.4516887664794922 -0.028233980759978294 0.6457193493843079
0.45232728123664856 -0.028817959129810333 0.6459672451019287
0.45696017146110535 -0.03212575614452362 0.6471447348594666
0.4583417475223541 -0.03281751275062561 0.6472988128662109
0.4595282971858978 -0.03126610815525055 0.645999014377594
0.4656204283237457 -0.023292863741517067 0.6393188238143921
0.4675869941711426 -0.021991539746522903 0.6380118131637573
0.4684375524520874 -0.021839017048478127 0.6377208828926086
0.4691784083843231 -0.022085968405008316 0.6377208828926086
0.4691041111946106 -0.03369157761335373 0.6454872488975525
0.4708027243614197 -0.03329726681113243 0.6448457837104797
0.47276800870895386 -0.03201887011528015 0.6435548067092896
0.4738062918186188 -0.031207501888275146 0.6427814364433289
0.47560617327690125 -0.030550850555300713 0.6419424414634705
0.47885406017303467 -0.027823524549603462 0.6393985748291016
0.4795909523963928 -0.0280691497027874 0.6393985748291016
0.4806876480579376 -0.02715051919221878 0.6385411620140076
0.4818749725818634 -0.025954248383641243 0.6374775767326355
0.483915776014328 -0.022049076855182648 0.6344153881072998
0.4864025115966797 -0.016778413206338882 0.6303421854972839
0.45316383242607117 -0.011903336271643639 0.6335243582725525
0.4553622007369995 -0.00947604887187481 0.6314076781272888
0.45611637830734253 -0.009727447293698788 0.6314076781272888
0.45421385765075684 -0.030532946810126305 0.6457681655883789
0.4607701003551483 -0.029435576871037483 0.6435698866844177
0.4621014893054962 -0.02739282324910164 0.6419038772583008
0.4669259190559387 -0.021374057978391647 0.6367955207824707
0.4680843651294708 -0.020102886483073235 0.6356856822967529
0.4705200791358948 -0.020120713859796524 0.635153591632843
0.4676358997821808 -0.03322796896100044 0.6445766687393188
0.4694616198539734 -0.032382816076278687 0.6436033844947815
0.4701869487762451 -0.03262459114193916 0.6436033844947815
0.4711679518222809 -0.03198391571640968 0.6429551243782043
0.4731425642967224 -0.030694786459207535 0.6416504383087158
0.4759201109409332 -0.029461119323968887 0.6402040123939514
0.4770016074180603 -0.028550582006573677 0.6393526792526245
0.47918230295181274 -0.026714524254202843 0.637636125087738
0.4810231029987335 -0.02603607438504696 0.636770486831665
0.4821305572986603 -0.025106390938162804 0.6359005570411682
0.48549941182136536 -0.01962546445429325 0.6314770579338074
0.4862533211708069 -0.01987667754292488 0.6314770579338074
0.488788366317749 -0.014539744704961777 0.627336323261261
0.45551255345344543 -0.008699814788997173 0.6298828721046448
0.4562687277793884 -0.008951869793236256 0.6298828721046448
0.4573628306388855 -0.0078121209517121315 0.6288723945617676
0.45351335406303406 -0.02689986303448677 0.6425585746765137
0.4539235532283783 -0.028423896059393883 0.6434906125068665
0.45433104038238525 -0.029938574880361557 0.6444167494773865
0.4563024640083313 -0.03142447769641876 0.6449735164642334
0.4569304287433624 -0.03202672302722931 0.6452376842498779
0.45827654004096985 -0.03286745399236679 0.6455011963844299
0.46337223052978516 -0.025518780574202538 0.6394228935241699
0.46410587430000305 -0.02576332353055477 0.6394228935241699
0.4654709994792938 -0.023676488548517227 0.6377149820327759
0.4668513238430023 -0.021566083654761314 0.6359884142875671
0.4682469964027405 -0.019432207569479942 0.634242057800293
0.4694330096244812 -0.018088562414050102 0.6330734491348267
0.4701816439628601 -0.018338104709982872 0.6330734491348267
0.468971312046051 -0.03125159442424774 0.6420204043388367
0.4698220193386078 -0.03106328845024109 0.6417036056518555
0.4705502688884735 -0.031306035816669464 0.6417036056518555
0.4735199213027954 -0.029360337182879448 0.6397309899330139
0.4745185673236847 -0.02870599552989006 0.6390680074691772
0.47732236981391907 -0.027446836233139038 0.6375941634178162
0.47951263189315796 -0.025598224252462387 0.635861337184906
0.4802546799182892 -0.025845570489764214 0.635861337184906
0.48359188437461853 -0.023036254569888115 0.6332269906997681
0.48486149311065674 -0.021629715338349342 0.6319973468780518
0.48786497116088867 -0.017420094460248947 0.6284965872764587
0.4556594491004944 -0.007937900722026825 0.6283642649650574
0.45752301812171936 -0.007011797744780779 0.6273213624954224
0.45862364768981934 -0.005874405149370432 0.6263076066970825
0.4547983705997467 -0.024746807292103767 0.6398844122886658
0.4552074372768402 -0.02628718689084053 0.6408306956291199
0.4563402831554413 -0.028060492128133774 0.6417712569236755
0.45694100856781006 -0.02879783883690834 0.6421334147453308
0.45820367336273193 -0.03001430630683899 0.6426699757575989
0.4606195092201233 -0.02981649711728096 0.6419935822486877
0.4619510769844055 -0.02777440845966339 0.6403183341026306
0.4695839285850525 -0.017467159777879715 0.6316579580307007
0.47033414244651794 -0.0177172739058733 0.6316579580307007
0.4723818004131317 -0.01627877913415432 0.6302284002304077
0.4732525050640106 -0.01611803099513054 0.6299247145652771
0.4703233540058136 -0.029250727966427803 0.6394324898719788
0.47390082478523254 -0.02801470085978508 0.6377964019775391
0.4749041199684143 -0.027355162426829338 0.6371264457702637
0.47766414284706116 -0.0262740645557642 0.6357777118682861
0.4817010164260864 -0.023784730583429337 0.6331932544708252
0.48394203186035156 -0.02189306914806366 0.6314153075218201
0.48714035749435425 -0.019676553085446358 0.6292029023170471
0.45610058307647705 -0.02256513573229313 0.6371753215789795
0.4572417140007019 -0.024367161095142365 0.6381363272666931
0.4582246243953705 -0.026749106124043465 0.6395251750946045
0.46187570691108704 -0.027965305373072624 0.6395246386528015
0.4632219672203064 -0.02590108849108219 0.6378260254859924
0.46395617723464966 -0.026145830750465393 0.6378260254859924
0.46532142162323 -0.02406024932861328 0.6361086964607239
0.4716917872428894 -0.015729855746030807 0.6290425658226013
0.4729387164115906 -0.014237456023693085 0.6277526021003723
0.4746440052986145 -0.014080114662647247 0.6272624135017395
0.4762827455997467 -0.014169641770422459 0.6269534230232239
0.4732806086540222 -0.027320487424731255 0.6365188956260681
0.4742845892906189 -0.026658067479729652 0.6358452439308167
0.475292831659317 -0.02599290944635868 0.6351683139801025
0.477047324180603 -0.025572236627340317 0.6344885230064392
0.4780658781528473 -0.02490147575736046 0.6338055729866028
0.4820433557033539 -0.022647036239504814 0.6313857436180115
0.4842942953109741 -0.020742615684866905 0.6295914649963379
0.4854293465614319 -0.01978214643895626 0.6286866664886475
0.4861849248409271 -0.020034052431583405 0.6286866664886475
0.48732855916023254 -0.01906885765492916 0.6277762055397034
0.45816048979759216 -0.02060163952410221 0.634430468082428
0.4585644602775574 -0.022175367921590805 0.6354062557220459
0.45896589756011963 -0.023739278316497803 0.6363758444786072
0.4595243036746979 -0.024674512445926666 0.6368840336799622
0.4602591395378113 -0.02491946518421173 0.6368840336799622
0.4615319073200226 -0.0261576846241951 0.6374357342720032
0.46524667739868164 -0.024251822382211685 0.6353040337562561
0.46662718057632446 -0.02214336208999157 0.6335625648498535
0.4680231809616089 -0.020010070875287056 0.6318005919456482
0.47018593549728394 -0.018103213980793953 0.6300193667411804
0.47306594252586365 -0.013718401081860065 0.6263954043388367
0.47467151284217834 -0.02529044635593891 0.6338785290718079
0.47642821073532104 -0.024867307394742966 0.633194625377655
0.47847089171409607 -0.023517565801739693 0.631817638874054
0.4805316627025604 -0.022156301885843277 0.630429208278656
0.48238828778266907 -0.02150164172053337 0.6295650601387024
0.4846492111682892 -0.0195835642516613 0.6277539134025574
0.4595023989677429 -0.018363386392593384 0.6316490769386292
0.45990484952926636 -0.01995464228093624 0.63264000415802
0.46030479669570923 -0.02153589576482773 0.633624792098999
0.4615803062915802 -0.022819600999355316 0.6342087984085083
0.46221989393234253 -0.0234453696757555 0.634489119052887
0.4628588855266571 -0.02406894415616989 0.6347683668136597
0.4679484963417053 -0.020202921703457832 0.6309855580329895
0.46936044096946716 -0.018045932054519653 0.6291985511779785
0.4701117277145386 -0.01829635724425316 0.6291985511779785
0.4715437889099121 -0.01611647754907608 0.6273919343948364
0.4760798215866089 -0.023234831169247627 0.6312041282653809
0.47887927293777466 -0.022122321650385857 0.6298127770423889
0.47991278767585754 -0.02143724262714386 0.629112958908081
0.48095041513442993 -0.020749282091856003 0.628409743309021
0.48274752497673035 -0.020309509709477425 0.6277032494544983
0.48386815190315247 -0.01938469521701336 0.6268206238746643
0.4608621299266815 -0.01609554886817932 0.6288306713104248
0.4620111882686615 -0.017953790724277496 0.6298370361328125
0.4624072313308716 -0.019551940262317657 0.630837082862854
0.4629181921482086 -0.020693007856607437 0.6314990520477295
0.4642027020454407 -0.021953657269477844 0.6320667266845703
0.46494564414024353 -0.022201312705874443 0.6320667266845703
0.46651995182037354 -0.022372446954250336 0.6318257451057434
0.47929108142852783 -0.020715342834591866 0.627791702747345
0.4803297817707062 -0.020024320110678673 0.6270845532417297
0.4633927643299103 -0.015674864873290062 0.6269961595535278
0.4642733633518219 -0.018539059907197952 0.6287547945976257
0.46631181240081787 -0.020060090348124504 0.6293302774429321
0.469211220741272 -0.018432753160595894 0.6275559067726135
0.4670487344264984 -0.017250007018446922 0.6262667775154114
0.44961920380592346 -0.015915704891085625 0.6921398043632507
0.45885422825813293 -0.017650725319981575 0.6947510838508606
0.4558306932449341 -0.015818899497389793 0.6942068338394165
0.4645593464374542 -0.023439085111021996 0.6939073204994202
0.45685991644859314 -0.015774693340063095 0.6938910484313965
0.45099514722824097 -0.013718967325985432 0.6921457648277283
0.45000115036964417 -0.013684443198144436 0.6917061805725098
0.4487377405166626 -0.01388282049447298 0.6910363435745239
0.46614646911621094 -0.025674473494291306 0.6928017735481262
0.46268895268440247 -0.024272941052913666 0.6918565630912781
0.4594399631023407 -0.019839566200971603 0.6924009919166565
0.4606560170650482 -0.01778629794716835 0.6939041018486023
0.45954516530036926 -0.016968481242656708 0.6937693357467651
0.4528409242630005 -0.01387230958789587 0.6921105980873108
0.44785764813423157 -0.013704338110983372 0.6898975372314453
0.4458506107330322 -0.01362733542919159 0.6890102028846741
0.46196651458740234 -0.02212192304432392 0.6917024850845337
0.45885169506073 -0.015742488205432892 0.6932080388069153
0.45483165979385376 -0.013888995163142681 0.6922087073326111
0.45402979850769043 -0.013693558052182198 0.6919293403625488
0.4532136917114258 -0.013508602045476437 0.6916381120681763
0.4482553005218506 -0.013319630175828934 0.6894388198852539
0.44418084621429443 -0.014119167812168598 0.687191367149353
0.4675931930541992 -0.029983950778841972 0.6898559331893921
0.46696847677230835 -0.02580861561000347 0.6914982795715332
0.4663020968437195 -0.02361350879073143 0.692205548286438
0.4447301924228668 -0.013604170642793179 0.6868570446968079
0.46763160824775696 -0.0338338166475296 0.6872695684432983
0.46662288904190063 -0.023293636739253998 0.6916922330856323
0.46589964628219604 -0.022106045857071877 0.6919077038764954
0.46056893467903137 -0.01595708169043064 0.6922876834869385
0.45825615525245667 -0.014400147832930088 0.6919368505477905
0.45759132504463196 -0.014087462797760963 0.6917733550071716
0.456832617521286 -0.01385830994695425 0.6915276050567627
0.4514996111392975 -0.01222541555762291 0.6898106932640076
0.44763728976249695 -0.012870753183960915 0.6877190470695496
0.4681982398033142 -0.02649907022714615 0.6901226043701172
0.4662204086780548 -0.021786753088235855 0.6913954615592957
0.46447494626045227 -0.02157488279044628 0.6906816363334656
0.4616740345954895 -0.017681576311588287 0.6911900639533997
0.4609099328517914 -0.015620141290128231 0.6917939186096191
0.4533456265926361 -0.01238153874874115 0.6897803544998169
0.45286276936531067 -0.01189878024160862 0.6897803544998169
0.4518735110759735 -0.011861203238368034 0.6893372535705566
0.44806909561157227 -0.01245642639696598 0.6872893571853638
0.44758182764053345 -0.011969160288572311 0.6872893571853638
0.4680287539958954 -0.025704745203256607 0.6895991563796997
0.4679054915904999 -0.024872912093997 0.6899300813674927
0.4589531421661377 -0.01371373888105154 0.6909605264663696
0.45466601848602295 -0.012087871320545673 0.6897179484367371
0.4498433470726013 -0.011783545836806297 0.687608003616333
0.4461907744407654 -0.012221272103488445 0.6856982111930847
0.4680737257003784 -0.023752199485898018 0.6897189021110535
0.46782931685447693 -0.023042850196361542 0.6899367570877075
0.4626997411251068 -0.0157649964094162 0.6909433007240295
0.4566342532634735 -0.012122822925448418 0.689808189868927
0.45583510398864746 -0.011925695464015007 0.6895259618759155
0.4515079855918884 -0.01120118610560894 0.6878386735916138
0.44662684202194214 -0.01180435810238123 0.6852694749832153
0.46783578395843506 -0.03461906686425209 0.6836865544319153
0.4691646099090576 -0.02745041996240616 0.6876791715621948
0.46742528676986694 -0.021535402163863182 0.6896411776542664
0.46630793809890747 -0.019788697361946106 0.6899368762969971
0.46089860796928406 -0.013721948489546776 0.6902459263801575
0.4596500098705292 -0.013027877546846867 0.689985454082489
0.4577908515930176 -0.011967209167778492 0.6896101236343384
0.4529946446418762 -0.010769524611532688 0.6879193186759949
0.44934767484664917 -0.011229339987039566 0.6859897971153259
0.4439997971057892 -0.013112079352140427 0.6825922727584839
0.4682258665561676 -0.021695885807275772 0.6891289353370667
0.46567845344543457 -0.017572084441781044 0.6898719072341919
0.4638763964176178 -0.015553856268525124 0.6899738311767578
0.4617180824279785 -0.013864483684301376 0.6897528767585754
0.4581502676010132 -0.011614943854510784 0.6891315579414368
0.4548357129096985 -0.010928355157375336 0.6878929138183594
0.4445648789405823 -0.012584200128912926 0.6822712421417236
0.4696105420589447 -0.028933020308613777 0.6855470538139343
0.46982666850090027 -0.0258298572152853 0.6871164441108704
0.4691545367240906 -0.0236259326338768 0.6878405213356018
0.4663606882095337 -0.017842113971710205 0.6892542243003845
0.4646889567375183 -0.015701018273830414 0.6894761919975281
0.4626127779483795 -0.01393754780292511 0.6893283724784851
0.4561084508895874 -0.010676165111362934 0.6877949833869934
0.45142728090286255 -0.01025173719972372 0.6857826709747314
0.4496561288833618 -0.00997498631477356 0.6850759983062744
0.4479319155216217 -0.010556260123848915 0.6839856505393982
0.4451292157173157 -0.01205724012106657 0.6819509863853455
0.4685896635055542 -0.03386640548706055 0.6818975806236267
0.4700636863708496 -0.03042328730225563 0.684229850769043
0.4701310992240906 -0.02552562579512596 0.6865845322608948
0.46911177039146423 -0.021764062345027924 0.6878853440284729
0.46814200282096863 -0.019872380420565605 0.6883224844932556
0.46069395542144775 -0.011999981477856636 0.6885237097740173
0.4580734372138977 -0.01071287039667368 0.6878916025161743
0.4550975561141968 -0.009721064940094948 0.6869503259658813
0.453084796667099 -0.009674673900008202 0.6860178709030151
0.45182251930236816 -0.009869256056845188 0.6853266954421997
0.4483644962310791 -0.010142522864043713 0.6835570335388184
0.44568559527397156 -0.011537071317434311 0.6816250681877136
0.46970510482788086 -0.03176165372133255 0.6825938820838928
0.4684622883796692 -0.019553549587726593 0.6878109574317932
0.4603780508041382 -0.01134536974132061 0.6878699064254761
0.45682910084724426 -0.009971125982701778 0.6868352293968201
0.45347827672958374 -0.009293635375797749 0.6855633854866028
0.44879668951034546 -0.009728926233947277 0.6831290125846863
0.44623517990112305 -0.011022811755537987 0.6812947988510132
0.4706859588623047 -0.02592981792986393 0.6850126385688782
0.4702168107032776 -0.023519929498434067 0.6859390735626221
0.4700910449028015 -0.022691287100315094 0.6862742304801941
0.46811920404434204 -0.017995085567235947 0.6875742673873901
0.467808336019516 -0.017357060685753822 0.6877306699752808
0.4665831923484802 -0.015724193304777145 0.6879252195358276
0.46569138765335083 -0.014707652851939201 0.6879846453666687
0.46473976969718933 -0.013747181743383408 0.6879889369010925
0.46363309025764465 -0.012929419055581093 0.6878510117530823
0.4620470404624939 -0.011631716974079609 0.6877134442329407
0.4548587203025818 -0.008954138495028019 0.6855608820915222
0.4513325095176697 -0.009311340749263763 0.6837073564529419
0.470292329788208 -0.021538840606808662 0.6861017942428589
0.45992130041122437 -0.009876644238829613 0.686720073223114
0.4575486481189728 -0.009266967885196209 0.6858760714530945
0.4530069828033447 -0.008723832666873932 0.6839619278907776
0.44733116030693054 -0.009997296147048473 0.6806350350379944
0.4712942838668823 -0.02532166615128517 0.6839461922645569
0.4701470136642456 -0.019780876114964485 0.6860560774803162
0.46026915311813354 -0.009534838609397411 0.6862328052520752
0.4595094621181488 -0.009305535815656185 0.6859782934188843
0.4500909745693207 -0.00849060993641615 0.6818466186523438
0.47150278091430664 -0.02898436225950718 0.6814561486244202
0.4704670011997223 -0.019462041556835175 0.6855444312095642
0.4699874818325043 -0.018982423469424248 0.6855444312095642
0.46939927339553833 -0.01766926236450672 0.685893714427948
0.46832528710365295 -0.015890108421444893 0.6862333416938782
0.46669289469718933 -0.013715204782783985 0.686494767665863
0.4646523594856262 -0.011922338046133518 0.6863753795623779
0.46176809072494507 -0.00997761357575655 0.6859226226806641
0.45695415139198303 -0.007911626249551773 0.6845991015434265
0.455974817276001 -0.00786715466529131 0.6841484904289246
0.4549730122089386 -0.007839376106858253 0.6836796402931213
0.45379501581192017 -0.007961541414260864 0.6830531358718872
0.4484237730503082 -0.008974923752248287 0.6799775958061218
0.4710034430027008 -0.030464502051472664 0.6796667575836182
0.4721037745475769 -0.027410684153437614 0.681674063205719
0.4716182351112366 -0.026925036683678627 0.681674063205719
0.471956729888916 -0.023700833320617676 0.683395504951477
0.4700571894645691 -0.017964443191885948 0.6852495074272156
0.46865516901016235 -0.015562348067760468 0.685732901096344
0.467907190322876 -0.014410302974283695 0.6859279274940491
0.4674769639968872 -0.013888009823858738 0.6859726905822754
0.46554672718048096 -0.011994044296443462 0.6859548687934875
0.463961124420166 -0.010699082165956497 0.685814619064331
0.46277815103530884 -0.009948060847818851 0.6856058835983276
0.4563465118408203 -0.0075052957981824875 0.6836784482002258
0.4529155194759369 -0.007781605236232281 0.6818869113922119
0.45095205307006836 -0.007667119149118662 0.6809937953948975
0.4720785319805145 -0.028408629819750786 0.6803464889526367
0.4721654951572418 -0.025413168594241142 0.6818408370018005
0.4722062945365906 -0.024409912526607513 0.682346761226654
0.47177815437316895 -0.021960709244012833 0.6833264827728271
0.45898574590682983 -0.007860487326979637 0.6839601993560791
0.4495125412940979 -0.007955911569297314 0.6793223023414612
0.4715231657028198 -0.02994495816528797 0.6784946918487549
0.47209012508392334 -0.02164897508919239 0.6828039884567261
0.4718517065048218 -0.019982419908046722 0.6834983229637146
0.4685686230659485 -0.013753985054790974 0.6849304437637329
0.46674293279647827 -0.01176423393189907 0.6850100159645081
0.46408745646476746 -0.00961877591907978 0.6847622990608215
0.4609435200691223 -0.007900707423686981 0.6840689182281494
0.4601512551307678 -0.007699568290263414 0.6837815642356873
0.4549754858016968 -0.006819867994636297 0.6816929578781128
0.47178322076797485 -0.029685210436582565 0.6779088377952576
0.4721633195877075 -0.019671296700835228 0.6829778552055359
0.4712670147418976 -0.017707565799355507 0.6834985017776489
0.47036850452423096 -0.015756456181406975 0.6840118169784546
0.4631560146808624 -0.008611771278083324 0.6839784979820251
0.4620065987110138 -0.0078270323574543 0.6838009357452393
0.4564620852470398 -0.006390238646417856 0.6817975044250488
0.4522404968738556 -0.006434365175664425 0.679716944694519
0.45040565729141235 -0.007105501834303141 0.6784950494766235
0.47204336524009705 -0.02942526713013649 0.677322268486023
0.4720659852027893 -0.01786823943257332 0.6829872131347656
0.47069990634918213 -0.015427087433636189 0.6835131645202637
0.46994447708129883 -0.014280267991125584 0.6837046146392822
0.469588041305542 -0.013687784783542156 0.6838200688362122
0.46690598130226135 -0.010650577023625374 0.6839938759803772
0.46579688787460327 -0.009836518205702305 0.683849573135376
0.45400992035865784 -0.005771525204181671 0.6800718903541565
0.472900390625 -0.019886458292603493 0.6815820932388306
0.4702664315700531 -0.013960101641714573 0.6831977367401123
0.4686756432056427 -0.01174925360828638 0.6835017800331116
0.4666904807090759 -0.009908762760460377 0.6834309101104736
0.4596104025840759 -0.006267736665904522 0.6817433834075928
0.45912966132164 -0.005787215195596218 0.6817433834075928
0.45720556378364563 -0.005667010322213173 0.6808579564094543
0.4548881947994232 -0.005875519011169672 0.6796185970306396
0.45309755206108093 -0.005614336580038071 0.6788679957389832
0.45127201080322266 -0.006278127431869507 0.6776463985443115
0.47367537021636963 -0.02390364557504654 0.6791583895683289
0.46485763788223267 -0.007900756783783436 0.6826950907707214
0.4615846574306488 -0.006296138279139996 0.6818738579750061
0.4565453827381134 -0.0053014494478702545 0.6798830628395081
0.45170435309410095 -0.005864953622221947 0.677222728729248
0.4487379491329193 -0.007495867554098368 0.674959659576416
0.4736269414424896 -0.02491627261042595 0.6777998208999634
0.472236692905426 -0.015791330486536026 0.6816189289093018
0.471934050321579 -0.015144109725952148 0.6817889213562012
0.4638725519180298 -0.006941537372767925 0.6818587183952332
0.46194273233413696 -0.0059456597082316875 0.6813974976539612
0.45390206575393677 -0.004839844536036253 0.6779734492301941
0.4739622473716736 -0.019779745489358902 0.6796719431877136
0.47172027826309204 -0.013467825949192047 0.6816877126693726
0.4705384075641632 -0.011798729188740253 0.6819291114807129
0.4687356650829315 -0.009790732525289059 0.6820307970046997
0.4677090644836426 -0.008902630768716335 0.6819620728492737
0.46612343192100525 -0.00761001231148839 0.6818169355392456
0.46554964780807495 -0.007219469174742699 0.6817259788513184
0.4630708396434784 -0.005814914125949144 0.6811942458152771
0.4593122899532318 -0.0046169511042535305 0.6799260973930359
0.4542969763278961 -0.004458948038518429 0.677520215511322
0.4741854965686798 -0.02630201168358326 0.6757113337516785
0.47475364804267883 -0.019951552152633667 0.6791485548019409
0.4740331172943115 -0.017805390059947968 0.6798567175865173
0.4723554849624634 -0.013781566172838211 0.6810222864151001
0.4699956178665161 -0.010440620593726635 0.6815097332000732
0.4695185124874115 -0.009963523596525192 0.6815097332000732
0.46408700942993164 -0.005782011896371841 0.6808885335922241
0.4610448181629181 -0.004864920396357775 0.6798328757286072
0.4564615786075592 -0.0043550822883844376 0.6778091788291931
0.4559779167175293 -0.003871409920975566 0.6778091788291931
0.45299994945526123 -0.004627686459571123 0.6759540438652039
0.4504140019416809 -0.005933575797826052 0.6740206480026245
0.4736051559448242 -0.027864528819918633 0.6738008260726929
0.4739826023578644 -0.015957867726683617 0.6799222826957703
0.46301519870758057 -0.0048953150399029255 0.6799696683883667
0.46005210280418396 -0.0038968052249401808 0.6789905428886414
0.4590604603290558 -0.003862004494294524 0.6785138249397278
0.4568544924259186 -0.003975644242018461 0.6773578524589539
0.4509708881378174 -0.005414579529315233 0.673708975315094
0.4743015766143799 -0.015639811754226685 0.6794113516807556
0.47325876355171204 -0.01382710225880146 0.6797963976860046
0.4706551432609558 -0.009786805137991905 0.6805145144462585
0.46872633695602417 -0.007897559553384781 0.6804945468902588
0.46525752544403076 -0.005579535383731127 0.679919421672821
0.4584364593029022 -0.0034659907687455416 0.6775662899017334
0.4538613259792328 -0.0038048361893743277 0.6751102805137634
0.47566378116607666 -0.019042078405618668 0.6775587797164917
0.47508344054222107 -0.01770694926381111 0.6779371500015259
0.47254377603530884 -0.011696654371917248 0.679677426815033
0.4718390703201294 -0.010507283732295036 0.679920494556427
0.47143763303756714 -0.00995942484587431 0.679993748664856
0.4685112237930298 -0.007156184874475002 0.6799319982528687
0.46747973561286926 -0.006272011436522007 0.6798581480979919
0.4669272005558014 -0.005862836726009846 0.6797863245010376
0.46211880445480347 -0.0038145689759403467 0.6784023642539978
0.45587384700775146 -0.002937834709882736 0.6757107973098755
0.4520815908908844 -0.004379272926598787 0.6730868220329285
0.47567862272262573 -0.02189977467060089 0.6752942204475403
0.4741630256175995 -0.013872918672859669 0.678568959236145
0.4640854299068451 -0.0038473368622362614 0.6785426139831543
0.46247631311416626 -0.0034646999556571245 0.6779259443283081
0.4619966745376587 -0.002985066967085004 0.6779259443283081
0.4562673568725586 -0.002558342646807432 0.6752592325210571
0.45263558626174927 -0.0038629602640867233 0.672776460647583
0.47563600540161133 -0.022906702011823654 0.6739240288734436
0.47547295689582825 -0.015420745126903057 0.6776180267333984
0.472488671541214 -0.009861940518021584 0.6789168119430542
0.47071391344070435 -0.007830868475139141 0.6790457963943481
0.46815812587738037 -0.005602917168289423 0.6788806319236755
0.45842254161834717 -0.002460337709635496 0.6755547523498535
0.45793968439102173 -0.0019774814136326313 0.6755547523498535
0.4551508128643036 -0.002573201898485422 0.6738473773002625
0.47609251737594604 -0.017651543021202087 0.6759696006774902
0.4750732481479645 -0.0139138363301754 0.6773450970649719
0.47433945536613464 -0.011809930205345154 0.6780384182929993
0.4666403532028198 -0.0042195506393909454 0.6779834628105164
0.46616271138191223 -0.0037418005522340536 0.6779834628105164
0.465495228767395 -0.003432976081967354 0.6778018474578857
0.4583311975002289 -0.0015994857531040907 0.6751047968864441
0.47599536180496216 -0.024492735043168068 0.6716107130050659
0.4762120842933655 -0.015630453824996948 0.6762187480926514
0.4746696949005127 -0.011481719091534615 0.6775415539741516
0.47384393215179443 -0.010404646396636963 0.6776689887046814
0.47349077463150024 -0.009810689836740494 0.6777914762496948
0.4698665142059326 -0.0058179814368486404 0.6779784560203552
0.46307802200317383 -0.0019289905903860927 0.6765065789222717
0.46127960085868835 -0.0017024594126269221 0.6757087707519531
0.4574463963508606 -0.0014210635563358665 0.6739062070846558
0.4541739821434021 -0.002419443568214774 0.6717385053634644
0.4762088358402252 -0.013738660141825676 0.6763442754745483
0.47268062829971313 -0.007781550753861666 0.6775808334350586
0.4717633128166199 -0.006795642431825399 0.677615761756897
0.47084155678749084 -0.00581384776160121 0.6776463389396667
0.46811988949775696 -0.003737430786713958 0.6773176789283752
0.4627721607685089 -0.001261547557078302 0.675855815410614
0.4636501371860504 0.005708165932446718 0.6798510551452637
0.46365171670913696 0.006583848502486944 0.6802974939346313
0.46238580346107483 0.007255222648382187 0.6799948811531067
0.46139127016067505 0.007288397755473852 0.6795053482055664
0.4593517780303955 0.007322218734771013 0.6784844398498535
0.47678473591804504 -0.021757936105132103 0.6717087030410767
0.4720222055912018 0.004239608533680439 0.6825520992279053
0.46751418709754944 0.002922752173617482 0.679577648639679
0.4652569591999054 0.0036112144589424133 0.6787766814231873
0.46478328108787537 0.0040847123600542545 0.6787766814231873
0.46348220109939575 0.008225299417972565 0.6802266240119934
0.4615049958229065 0.008300052024424076 0.679254949092865
0.4589330852031708 0.008761601522564888 0.6781772375106812
0.4576355814933777 0.008556577377021313 0.6774100661277771
0.4767718017101288 -0.02371636964380741 0.6698507070541382
0.4786115884780884 -0.005860057193785906 0.6799391508102417
0.4782133996486664 -0.005321548320353031 0.680010974407196
0.47644519805908203 0.0020441871602088213 0.6828781962394714
0.47100532054901123 0.006011654622852802 0.6821239590644836
0.4642491936683655 0.0063034044578671455 0.6788128614425659
0.4589816927909851 0.009718223474919796 0.6778638958930969
0.45591309666633606 0.009796488098800182 0.6763322353363037
0.4503540098667145 0.0061371480114758015 0.6716102957725525
0.4499480724334717 0.006686491891741753 0.6716839671134949
0.4832756221294403 -0.005983040202409029 0.6814497709274292
0.4777422547340393 -0.00392348924651742 0.6796651482582092
0.4784156382083893 0.001197680365294218 0.6826421618461609
0.47492942214012146 0.004244980867952108 0.6824166774749756
0.47255739569664 0.005656762048602104 0.6819232106208801
0.4720912575721741 0.006122990977019072 0.6819232106208801
0.47139495611190796 0.006387748755514622 0.6817017197608948
0.4667128324508667 0.00406643794849515 0.6781036853790283
0.465959757566452 0.004296913277357817 0.6778349280357361
0.46407926082611084 0.00881832093000412 0.6791916489601135
0.4614071249961853 0.010046604089438915 0.6784498691558838
