ply
format ascii 1.0
element vertex 819
property float x
property float y
property float z
end_header
0.7761256694793701 -0.19330060482025146 0.6492360830307007
0.7756374478340149 -0.19180749356746674 0.6499605774879456
0.7747287750244141 -0.18992410600185394 0.6506631970405579
0.7719478011131287 -0.18274681270122528 0.6538329124450684
0.7706107497215271 -0.17986920475959778 0.6549434065818787
0.7679438591003418 -0.17364828288555145 0.6575056910514832
0.7640677094459534 -0.16564884781837463 0.6604785323143005
0.7623636722564697 -0.16193439066410065 0.6619279384613037
0.7619553804397583 -0.16152599453926086 0.6619279384613037
0.7602705359458923 -0.1578506976366043 0.6633630394935608
0.7554582953453064 -0.15774814784526825 0.6599675416946411
0.7513746619224548 -0.16198454797267914 0.6539690494537354
0.749695897102356 -0.16039343178272247 0.653905987739563
0.749276340007782 -0.15992464125156403 0.6539413928985596
0.7428848743438721 -0.15915431082248688 0.6498889923095703
0.7402697801589966 -0.1592313051223755 0.6479480862617493
0.7381777763366699 -0.155412495136261 0.6491930484771729
0.7335178256034851 -0.14997144043445587 0.6497560739517212
0.7232206463813782 -0.1477264165878296 0.643950879573822
0.7210202813148499 -0.1459798812866211 0.6436237692832947
0.7183678150177002 -0.14395612478256226 0.6431704163551331
0.7172966599464417 -0.1455184668302536 0.6412716507911682
0.7161317467689514 -0.14804650843143463 0.6386094093322754
0.715391993522644 -0.1510610580444336 0.6359028220176697
0.7146402597427368 -0.15412022173404694 0.6331551671028137
0.7776399254798889 -0.20045877993106842 0.6443021297454834
0.774029016494751 -0.18684394657611847 0.6515350341796875
0.7726634740829468 -0.18369734287261963 0.652822732925415
0.7717379331588745 -0.18118375539779663 0.6539708375930786
0.7699494361877441 -0.1770986169576645 0.6556312441825867
0.7681888937950134 -0.17324180901050568 0.6571468710899353
0.7664568424224854 -0.1696961373090744 0.6584580540657043
0.76558518409729 -0.16762429475784302 0.6593258380889893
0.7585234642028809 -0.15738654136657715 0.661622166633606
0.7565198540687561 -0.15767715871334076 0.6599634885787964
0.7553480863571167 -0.16103073954582214 0.6566914319992065
0.7549446821212769 -0.16159839928150177 0.6559894680976868
0.7537099719047546 -0.16187497973442078 0.6548969149589539
0.746574342250824 -0.1589905023574829 0.6518231630325317
0.7345749735832214 -0.1519322395324707 0.648250937461853
0.7311326265335083 -0.1490621119737625 0.6478371620178223
0.7288636565208435 -0.1493905633687973 0.645959198474884
0.725692629814148 -0.1489855796098709 0.6439592838287354
0.7174449563026428 -0.146682471036911 0.6396615505218506
0.7162768840789795 -0.14923149347305298 0.6369738578796387
0.7761573195457458 -0.19135302305221558 0.6489622592926025
0.7752457857131958 -0.18944360315799713 0.6496857404708862
0.7738074660301208 -0.1851477175951004 0.6517574787139893
0.7706539630889893 -0.17798639833927155 0.6546635031700134
0.7697454690933228 -0.17555922269821167 0.655764639377594
0.7679923176765442 -0.17178936302661896 0.6572268009185791
0.7649620175361633 -0.1651657223701477 0.659832239151001
0.7641223073005676 -0.16377247869968414 0.6602334976196289
0.7620148062705994 -0.15966859459877014 0.6616808772087097
0.7555705904960632 -0.1586199253797531 0.6577689051628113
0.7510428428649902 -0.1598852127790451 0.6535687446594238
0.7451164126396179 -0.15920335054397583 0.6497662663459778
0.7429534196853638 -0.15951494872570038 0.6479719877243042
0.7403755187988281 -0.15767450630664825 0.6474372148513794
0.7399548888206482 -0.15697325766086578 0.6476407051086426
0.7391106486320496 -0.15573284029960632 0.6479279398918152
0.7365526556968689 -0.15307648479938507 0.6479993462562561
0.7356908917427063 -0.15245626866817474 0.6478240489959717
0.7344692945480347 -0.1496439278125763 0.6489774584770203
0.7272850871086121 -0.14949020743370056 0.6438801288604736
0.7246363162994385 -0.14773264527320862 0.6432337164878845
0.722442090511322 -0.14594702422618866 0.6429377198219299
0.7183079123497009 -0.14489760994911194 0.6407009363174438
0.7164233326911926 -0.15042197704315186 0.6353290677070618
0.776913046836853 -0.19270452857017517 0.6476755142211914
0.7750214338302612 -0.1877545416355133 0.6498990654945374
0.7740647196769714 -0.18492072820663452 0.6512641310691833
0.7731688618659973 -0.18308885395526886 0.651944637298584
0.7727020382881165 -0.18178679049015045 0.6525518298149109
0.7717788815498352 -0.17929528653621674 0.6536922454833984
0.7691277861595154 -0.173623725771904 0.6558883786201477
0.7682366967201233 -0.17138472199440002 0.6568687558174133
0.7673578858375549 -0.16930291056632996 0.6577433347702026
0.7665085196495056 -0.16785508394241333 0.6581785082817078
0.7643643021583557 -0.16333425045013428 0.6599064469337463
0.7618333697319031 -0.1582850217819214 0.6617376208305359
0.7614188194274902 -0.1575956642627716 0.6619373559951782
0.7582277059555054 -0.15731781721115112 0.6598191261291504
0.7550215125083923 -0.1596803516149521 0.6557700634002686
0.7537901401519775 -0.1599489003419876 0.6546794772148132
0.7521291971206665 -0.15936240553855896 0.6538981795310974
0.7487780451774597 -0.15903963148593903 0.6516962051391602
0.7466540932655334 -0.15934784710407257 0.6499277949333191
0.7385381460189819 -0.1538459062576294 0.6480271220207214
0.7381091117858887 -0.15351635217666626 0.6479548811912537
0.7329837083816528 -0.14867845177650452 0.6477457284927368
0.7307328581809998 -0.14900311827659607 0.6458730101585388
0.7284539937973022 -0.14933212101459503 0.6439767479896545
0.7205143570899963 -0.14380134642124176 0.6422255039215088
0.7191618084907532 -0.1431358903646469 0.6417257189750671
0.7184595465660095 -0.14605797827243805 0.6390905380249023
0.7165711522102356 -0.15162132680416107 0.633672297000885
0.7802318930625916 -0.20250172913074493 0.6420948505401611
0.778195321559906 -0.19599202275276184 0.6453564167022705
0.7766801714897156 -0.19094331562519073 0.6479330062866211
0.7720284461975098 -0.17896407842636108 0.6532759070396423
0.771152913570404 -0.17732693254947662 0.6538313031196594
0.7702428698539734 -0.17490136623382568 0.6549362540245056
0.7680407166481018 -0.16993872821331024 0.6569492220878601
0.7667521238327026 -0.16745369136333466 0.657821536064148
0.7641773819923401 -0.1619182527065277 0.6599804162979126
0.7620738744735718 -0.15782150626182556 0.6614338159561157
0.7572851777076721 -0.15792755782604218 0.6578648090362549
0.7451919913291931 -0.15956316888332367 0.6478542685508728
0.7400549054145813 -0.15567778050899506 0.6469414234161377
0.7362615466117859 -0.1504146158695221 0.648013174533844
0.7349808812141418 -0.14925728738307953 0.6479231715202332
0.7260477542877197 -0.1477678120136261 0.6424955725669861
0.7212297916412354 -0.1437332034111023 0.6419244408607483
0.7186121940612793 -0.14722953736782074 0.6374663710594177
0.7174519896507263 -0.14978474378585815 0.6347572207450867
0.7805217504501343 -0.20263054966926575 0.6413399577140808
0.7794286012649536 -0.1983359307050705 0.6436809301376343
0.7789978384971619 -0.19790509343147278 0.6436809301376343
0.7779496312141418 -0.19407807290554047 0.6457128524780273
0.7760241031646729 -0.18876636028289795 0.6481892466545105
0.7750564813613892 -0.1858506202697754 0.649613618850708
0.7732061743736267 -0.18117986619472504 0.6516759395599365
0.7709460258483887 -0.17578329145908356 0.6539696455001831
0.7700384259223938 -0.17336831986904144 0.6550717949867249
0.7691736221313477 -0.17176181077957153 0.6556140780448914
0.7661250233650208 -0.16499470174312592 0.6583331227302551
0.7603344917297363 -0.15736989676952362 0.6596745252609253
0.7575411200523376 -0.15801118314266205 0.6571628451347351
0.7551001310348511 -0.15795952081680298 0.6554158329963684
0.750549852848053 -0.1586693376302719 0.6515694260597229
0.7484424114227295 -0.15897391736507416 0.6498056650161743
0.7437145709991455 -0.1597806215286255 0.6457586884498596
0.7420129179954529 -0.15756121277809143 0.6461374163627625
0.7369439601898193 -0.15061509609222412 0.6475099325180054
0.7360972762107849 -0.1496436446905136 0.6476011872291565
0.7330189347267151 -0.149046391248703 0.6457868814468384
0.7307608723640442 -0.14937472343444824 0.6438955068588257
0.7254430055618286 -0.1466604471206665 0.6419917941093445
0.724573016166687 -0.1458519995212555 0.6419467329978943
0.7236986756324768 -0.14510129392147064 0.64185631275177
0.7223851084709167 -0.14399370551109314 0.6417056918144226
0.7194714546203613 -0.1454351544380188 0.6385212540626526
0.7187659740447998 -0.148408442735672 0.6358312964439392
0.7180488705635071 -0.1514255255460739 0.6331005096435547
0.7802636027336121 -0.20063123106956482 0.641742467880249
0.7777117490768433 -0.19228044152259827 0.6459949612617493
0.7762855291366577 -0.18857091665267944 0.64766925573349
0.7744137644767761 -0.18378891050815582 0.6498034000396729
0.7729917764663696 -0.17958202958106995 0.6518454551696777
0.772110104560852 -0.1778835952281952 0.6524444222450256
0.7668032050132751 -0.16562223434448242 0.6575440764427185
0.7589948773384094 -0.15756817162036896 0.6577243208885193
0.7565797567367554 -0.15803568065166473 0.6556104421615601
0.7545393109321594 -0.15833349525928497 0.6538956761360168
0.7520595192909241 -0.15881392359733582 0.6517250537872314
0.7474183440208435 -0.15961147844791412 0.6477368474006653
0.7452679872512817 -0.15992508828639984 0.6459301114082336
0.7426982522010803 -0.1578119844198227 0.6455950736999512
0.7418540716171265 -0.15641696751117706 0.6459991931915283
0.734596312046051 -0.14918692409992218 0.6459786891937256
0.7287657856941223 -0.14891301095485687 0.6419039964675903
0.7278900146484375 -0.14823579788208008 0.6417585015296936
0.7274572849273682 -0.14780293405056 0.6417585015296936
0.7203221917152405 -0.14366057515144348 0.6395639777183533
0.7811028361320496 -0.20289336144924164 0.6398231387138367
0.7790219187736511 -0.19590628147125244 0.6434311270713806
0.7760558128356934 -0.18683455884456635 0.647921085357666
0.7741933465003967 -0.1821317970752716 0.6500097513198853
0.7709884643554688 -0.17391826212406158 0.6536931395530701
0.7692192792892456 -0.1699080616235733 0.6553410291671753
0.7683322429656982 -0.16769476234912872 0.656316339969635
0.7661769986152649 -0.16317470371723175 0.6580553650856018
0.7644755244255066 -0.15971790254116058 0.6593462824821472
0.7636405825614929 -0.15830107033252716 0.6597740054130554
0.7628192901611328 -0.1572483628988266 0.6599443554878235
0.7604538202285767 -0.15771053731441498 0.6578649878501892
0.758454442024231 -0.15800274908542633 0.6561796069145203
0.7580540776252747 -0.1581791490316391 0.6557556390762329
0.757641613483429 -0.15776659548282623 0.6557556390762329
0.7506418228149414 -0.15902377665042877 0.6496835947036743
0.7485279440879822 -0.1593315750360489 0.6479026675224304
0.7455232739448547 -0.16001401841640472 0.645191490650177
0.7421168684959412 -0.15596824884414673 0.6456616520881653
0.7416927218437195 -0.15542066097259521 0.6457524299621582
0.7404245734214783 -0.1536608785390854 0.6461138129234314
0.7395576238632202 -0.15338456630706787 0.6456794738769531
0.7330545783042908 -0.14941644668579102 0.6438154578208923
0.7307941913604736 -0.1496441662311554 0.6419856548309326
0.7281580567359924 -0.1478785127401352 0.6413453221321106
0.7211642861366272 -0.14190860092639923 0.6405924558639526
0.7204806804656982 -0.14481399953365326 0.6379532814025879
0.7197850346565247 -0.14777792990207672 0.6352620124816895
0.7802848815917969 -0.19861719012260437 0.6414954662322998
0.779853105545044 -0.19818542897701263 0.6414954662322998
0.7782463431358337 -0.19201813638210297 0.644858717918396
0.7777392864227295 -0.1903228610754013 0.6457350254058838
0.7773134708404541 -0.18989692628383636 0.6457350254058838
0.7744501233100891 -0.18190230429172516 0.6495190262794495
0.7730293869972229 -0.1776895821094513 0.6515780091285706
0.7703680992126465 -0.17197343707084656 0.6538309454917908
0.7685753703117371 -0.16729354858398438 0.6559601426124573
0.7668538093566895 -0.16379909217357635 0.6572675704956055
0.7591107487678528 -0.15791048109531403 0.6558999419212341
0.7566889524459839 -0.15838366746902466 0.6537652015686035
0.7542315721511841 -0.15886296331882477 0.6515994668006897
0.7521558403968811 -0.15916752815246582 0.6498439908027649
0.7470752596855164 -0.15954652428627014 0.6458178758621216
0.7411078214645386 -0.15389227867126465 0.6455868482589722
0.7385725378990173 -0.15058130025863647 0.6461589932441711
0.7364341616630554 -0.1488039344549179 0.6458926200866699
0.7266849279403687 -0.14596490561962128 0.6407966613769531
0.7240691781044006 -0.14365582168102264 0.6405704617500305
0.719943642616272 -0.14895829558372498 0.6336176991462708
0.7192349433898926 -0.1519893854856491 0.6308597922325134
0.7811260223388672 -0.20091913640499115 0.6395421624183655
0.7795904874801636 -0.19608934223651886 0.6419783234596252
0.779048502445221 -0.19395746290683746 0.6431542634963989
0.778008222579956 -0.19022908806800842 0.6451421976089478
0.7760873436927795 -0.1849147528409958 0.647651731967926
0.772399365901947 -0.1756894439458847 0.6517470479011536
0.766252875328064 -0.16197139024734497 0.6573464870452881
0.7658205032348633 -0.16095440089702606 0.6577789187431335
0.7641290426254272 -0.15764808654785156 0.6589731574058533
0.7625556588172913 -0.15776163339614868 0.6577256321907043
0.7605738043785095 -0.15805353224277496 0.6560440063476562
0.7507340312004089 -0.1593797355890274 0.6477862596511841
0.7486141324043274 -0.1596909761428833 0.6459882855415344
0.7443369030952454 -0.1574873924255371 0.6444547176361084
0.7392256855964661 -0.15187352895736694 0.6448264718055725
0.7384085655212402 -0.14978499710559845 0.6457667946815491
0.735335111618042 -0.14945855736732483 0.6437351703643799
0.7330905199050903 -0.1497894823551178 0.641830325126648
0.7225932478904724 -0.14175230264663696 0.6400111317634583
0.7208011746406555 -0.147148996591568 0.634694516658783
0.7201035618782043 -0.15014712512493134 0.631961464881897
0.7819750308990479 -0.20324328541755676 0.6375699043273926
0.7773414850234985 -0.1879454255104065 0.6454787850379944
0.7758612036705017 -0.18322928249835968 0.6478788256645203
0.7740076184272766 -0.17855796217918396 0.649968683719635
0.7682114839553833 -0.1650516241788864 0.6556866765022278
0.7656313180923462 -0.15954582393169403 0.6578566431999207
0.7612268924713135 -0.15796135365962982 0.6557650566101074
0.760831892490387 -0.1581372767686844 0.6553415656089783
0.7588269114494324 -0.15843328833580017 0.6536352038383484
0.7567988038063049 -0.15873241424560547 0.6519092321395874
0.7420521974563599 -0.1537366360425949 0.6446775197982788
0.7364808320999146 -0.14917130768299103 0.6439316272735596
0.7272212505340576 -0.1452520489692688 0.6399707794189453
0.7259163856506348 -0.14406952261924744 0.6398800611495972
0.7254801392555237 -0.14369437098503113 0.6398347020149231
0.7237374186515808 -0.14213521778583527 0.6396986246109009
0.7233003973960876 -0.14175955951213837 0.639653205871582
0.7220888137817383 -0.14579300582408905 0.6357632279396057
0.7216503620147705 -0.14535459876060486 0.6357632279396057
0.7209633588790894 -0.14832530915737152 0.6330504417419434
0.7822657227516174 -0.203342005610466 0.6368289589881897
0.7811453342437744 -0.19889961183071136 0.639299750328064
0.7801604270935059 -0.19627302885055542 0.6405207514762878
0.7796128988265991 -0.19409607350826263 0.6417327523231506
0.7785444259643555 -0.19000722467899323 0.6439789533615112
0.7781181931495667 -0.18958093225955963 0.6439789533615112
0.7761189341545105 -0.18300354480743408 0.647383987903595
0.7724382281303406 -0.1738138496875763 0.6514810919761658
0.7706588506698608 -0.16979946196079254 0.6531435251235962
0.7680167555809021 -0.16362765431404114 0.6557686924934387
0.7642388343811035 -0.15740518271923065 0.6575868725776672
0.7622720003128052 -0.15769381821155548 0.6559092998504639
0.7554154992103577 -0.15894028544425964 0.6498828530311584
0.7529283165931702 -0.15942801535129547 0.647670328617096
0.7508270740509033 -0.15973849594593048 0.6458766460418701
0.7487008571624756 -0.16005313396453857 0.6440611481666565
0.7478477358818054 -0.1593216359615326 0.6439708471298218
0.7461426258087158 -0.15758875012397766 0.6439914703369141
0.7457154393196106 -0.15723620355129242 0.6439357399940491
0.7444388270378113 -0.15576684474945068 0.6440792679786682
0.7423058748245239 -0.15374305844306946 0.6439980864524841
0.7418794631958008 -0.1533167064189911 0.6439980864524841
0.7406110763549805 -0.15159015357494354 0.6443387866020203
0.7349489331245422 -0.14940062165260315 0.6417560577392578
0.7322607636451721 -0.14933419227600098 0.6398060917854309
0.7318225502967834 -0.1490349918603897 0.6397027969360352
0.7305226922035217 -0.1477980613708496 0.6396558880805969
0.7296569347381592 -0.14695358276367188 0.6396402716636658
0.7283576130867004 -0.1456986665725708 0.6396070718765259
0.7261845469474792 -0.1437135636806488 0.6394672989845276
0.7240062355995178 -0.14177951216697693 0.639285683631897
0.7229275107383728 -0.14401288330554962 0.6368222832679749
0.7222545742988586 -0.14696195721626282 0.6341285109519958
0.7211266756057739 -0.1495104879140854 0.6313942670822144
0.7819925546646118 -0.20120841264724731 0.6373310685157776
0.780446469783783 -0.1963651478290558 0.6397904753684998
0.7754725217819214 -0.18090547621250153 0.6476110816001892
0.774043083190918 -0.17667041718959808 0.6497036814689636
0.7736254334449768 -0.17625276744365692 0.6497036814689636
0.77000492811203 -0.16709887981414795 0.6538306474685669
0.7678225636482239 -0.16220863163471222 0.655850350856781
0.7665463089942932 -0.15976835787296295 0.6567185521125793
0.7633318305015564 -0.15801174938678741 0.6556313037872314
0.7613495588302612 -0.15830551087856293 0.6539334654808044
0.7609377503395081 -0.15789374709129333 0.6539334654808044
0.7585281729698181 -0.158366397023201 0.65178382396698
0.7560834884643555 -0.15884585678577423 0.649603009223938
0.7540176510810852 -0.1591506153345108 0.6478350162506104
0.7493861317634583 -0.15995651483535767 0.6437795162200928
0.7451263070106506 -0.1557215452194214 0.6437608599662781
0.743849515914917 -0.15437401831150055 0.64381343126297
0.7400360703468323 -0.14974559843540192 0.644421398639679
0.7387399673461914 -0.14921361207962036 0.6438513994216919
0.7365279197692871 -0.1495417356491089 0.6419569253921509
0.7237578630447388 -0.14225180447101593 0.6378697156906128
0.7224218249320984 -0.14813601970672607 0.6324846148490906
0.7219802141189575 -0.14769431948661804 0.6324846148490906
0.7212911248207092 -0.1507042497396469 0.6297256946563721
0.7828478217124939 -0.2035396546125412 0.6353437304496765
0.7822823524475098 -0.20130528509616852 0.6365918517112732
0.7817212343215942 -0.19908861815929413 0.6378299593925476
0.7801819443702698 -0.19427622854709625 0.6402783393859863
0.779635488986969 -0.19211222231388092 0.6414880752563477
0.7781444191932678 -0.1876283437013626 0.6437265276908875
0.7776384353637695 -0.18592965602874756 0.644618570804596
0.775250256061554 -0.17926080524921417 0.6478201746940613
0.7734071016311646 -0.17459985613822937 0.6499278545379639
0.7724770903587341 -0.17195352911949158 0.6512116193771362
0.7716070413589478 -0.17034241557121277 0.6517658829689026
0.769802987575531 -0.16559508442878723 0.6539672017097473
0.768064558506012 -0.16181190311908722 0.6554965376853943
0.7676295042037964 -0.16079512238502502 0.6559317708015442
0.764369785785675 -0.15774495899677277 0.6557751297950745
0.7620038986206055 -0.15821309387683868 0.6536552309989929
0.7600037455558777 -0.15850938856601715 0.65193772315979
0.7526051998138428 -0.15936334431171417 0.6457651853561401
0.7504954934120178 -0.15967488288879395 0.643954336643219
0.7415633201599121 -0.15104910731315613 0.6437251567840576
0.7407174110412598 -0.14999006688594818 0.6438845992088318
0.7349911332130432 -0.14977343380451202 0.6397637128829956
0.7232646346092224 -0.1463359147310257 0.6335638761520386
0.722590446472168 -0.14931879937648773 0.6308283805847168
0.7825724482536316 -0.20140224695205688 0.6358511447906494
0.7820098996162415 -0.19918347895145416 0.6370934844017029
0.7804672122001648 -0.1943667232990265 0.639549195766449
0.779384970664978 -0.19019202888011932 0.6418687105178833
0.778957724571228 -0.1897648125886917 0.6418687105178833
0.7768963575363159 -0.18239395320415497 0.6458511352539062
0.77647465467453 -0.18197216093540192 0.6458511352539062
0.7741357088088989 -0.17580130696296692 0.6487254500389099
0.7714007496833801 -0.1688239425420761 0.6519073843955994
0.7700490355491638 -0.16527242958545685 0.6535573601722717
0.7674626111984253 -0.15999116003513336 0.6555788516998291
0.7661920189857483 -0.15761247277259827 0.6564099192619324
0.764241099357605 -0.1580035388469696 0.6546532511711121
0.7630499005317688 -0.15794453024864197 0.6538040637969971
0.7586437463760376 -0.1587153822183609 0.6499210000038147
0.7561922073364258 -0.15919926762580872 0.647719144821167
0.7541206479072571 -0.1595068871974945 0.6459346413612366
0.7516026496887207 -0.16000358760356903 0.6436734795570374
0.7490531206130981 -0.1578442007303238 0.6433808207511902
0.7469264268875122 -0.15579991042613983 0.6433190107345581
0.738794207572937 -0.14958295226097107 0.6418824791908264
0.7365750670433044 -0.14991335570812225 0.6399702429771423
0.7321818470954895 -0.147718146443367 0.6383213996887207
0.730018675327301 -0.14559781551361084 0.6382893323898315
0.7282865047454834 -0.1439279019832611 0.6382427215576172
0.7261152267456055 -0.14192871749401093 0.6381135582923889
0.72475266456604 -0.14163994789123535 0.6373081207275391
0.7240993976593018 -0.14455021917819977 0.6346352696418762
0.7234353423118591 -0.14750611782073975 0.6319200992584229
0.7227600812911987 -0.1505105346441269 0.6291602253913879
0.7813065648078918 -0.19664216041564941 0.6375920176506042
0.7802032232284546 -0.1922888308763504 0.6400366425514221
0.7781733274459839 -0.18572555482387543 0.6434465646743774
0.7762455344200134 -0.1802566945552826 0.6461101174354553
0.7752842903137207 -0.17739221453666687 0.6475418210029602
0.7734435796737671 -0.17272982001304626 0.6496641039848328
0.772101879119873 -0.16968964040279388 0.650941789150238
0.7694370150566101 -0.163365438580513 0.653694212436676
0.766852080821991 -0.1579144299030304 0.6558498740196228
0.7645015716552734 -0.15808701515197754 0.6539521813392639
0.7621292471885681 -0.15855887532234192 0.6518128514289856
0.7527039051055908 -0.15967662632465363 0.6438823342323303
0.7480370402336121 -0.15598195791244507 0.6431512236595154
0.7446212768554688 -0.15388071537017822 0.6421625018119812
0.7441914677619934 -0.1536954790353775 0.6419786214828491
0.7437602281570435 -0.15358616411685944 0.6417362689971924
0.7425054907798767 -0.15092238783836365 0.6427962779998779
0.7368244528770447 -0.1500052809715271 0.6392129063606262
0.7346081733703613 -0.14953671395778656 0.6378982067108154
0.7337416410446167 -0.14872734248638153 0.6378552317619324
0.7328786849975586 -0.1478288471698761 0.6378821134567261
0.7315813302993774 -0.1465529054403305 0.6378659009933472
0.7307162880897522 -0.14570878446102142 0.6378501653671265
0.7298513650894165 -0.14485451579093933 0.6378421187400818
0.7285524606704712 -0.14359882473945618 0.6378098130226135
0.7276857495307922 -0.14277498424053192 0.6377773284912109
0.7268164157867432 -0.141991525888443 0.6377126574516296
0.7249261736869812 -0.14278095960617065 0.6356972455978394
0.7242721319198608 -0.14571139216423035 0.6330010294914246
0.782588541507721 -0.1993733048439026 0.6356167197227478
0.7804879546165466 -0.19237735867500305 0.6393094062805176
0.7789899110794067 -0.18792317807674408 0.6415391564369202
0.7779343128204346 -0.18392162024974823 0.6437613368034363
0.7760183811187744 -0.17856189608573914 0.6463589072227478
0.7750637531280518 -0.17576755583286285 0.6477468609809875
0.7741706371307373 -0.1739240288734436 0.648463785648346
0.7732268571853638 -0.17109248042106628 0.6498875617980957
0.7714415788650513 -0.16698752343654633 0.6516372561454773
0.7692370414733887 -0.16187548637390137 0.6538304686546326
0.768353283405304 -0.15960922837257385 0.6548734307289124
0.7607840895652771 -0.15876471996307373 0.6498008370399475
0.7583547830581665 -0.159247487783432 0.6476044058799744
0.7563017010688782 -0.15955473482608795 0.6458237767219543
0.7508429884910583 -0.1577269434928894 0.6430850625038147
0.7465876340866089 -0.15498189628124237 0.6419456005096436
0.7457317113876343 -0.1545320749282837 0.6416394710540771
0.7423439025878906 -0.14995068311691284 0.6425397992134094
0.7406215667724609 -0.14919786155223846 0.6418084502220154
0.7384201884269714 -0.1495257318019867 0.6399005651473999
0.724446177482605 -0.14687791466712952 0.6313573122024536
0.7237805724143982 -0.14987272024154663 0.6285960674285889
0.7813253402709961 -0.19463832676410675 0.6373553276062012
0.7802244424819946 -0.1903107762336731 0.6397961378097534
0.7797963619232178 -0.18988259136676788 0.6397961378097534
0.7782019972801208 -0.1838308423757553 0.643168032169342
0.776764988899231 -0.17988330125808716 0.645067036151886
0.7744253277778625 -0.17369870841503143 0.6479754447937012
0.7721413373947144 -0.16784904897212982 0.6506727337837219
0.7712364792823792 -0.16548225283622742 0.6517784595489502
0.7703755497932434 -0.16389431059360504 0.6523284912109375
0.7649908065795898 -0.1573626846075058 0.6531960368156433
0.7544751763343811 -0.15910319983959198 0.643925130367279
0.7523688077926636 -0.1579824835062027 0.6431792974472046
0.7438685297966003 -0.15152427554130554 0.6416347622871399
0.7426002025604248 -0.14978070557117462 0.6419941782951355
0.7373242378234863 -0.15018834173679352 0.6376950144767761
0.7368932366371155 -0.14975735545158386 0.6376950144767761
0.7321105003356934 -0.145930677652359 0.6369718909263611
0.7263561487197876 -0.14260204136371613 0.6351367831230164
0.7246218323707581 -0.14805296063423157 0.629701554775238
0.7821709513664246 -0.19692063331604004 0.6353833675384521
0.7810581922531128 -0.1925548017024994 0.6378511190414429
0.7800799012184143 -0.1899690181016922 0.6390703916549683
0.7790132164955139 -0.18596111238002777 0.6413014531135559
0.7779608964920044 -0.18199554085731506 0.6435112953186035
0.776049792766571 -0.17667771875858307 0.6460957527160645
0.7732635736465454 -0.16923870146274567 0.6496251225471497
0.7710321545600891 -0.16398313641548157 0.6519190669059753
0.7680171728134155 -0.15795204043388367 0.654207170009613
0.7640502452850342 -0.15703807771205902 0.6518911719322205
0.7636699080467224 -0.15753541886806488 0.651225209236145
0.7629088163375854 -0.15869326889514923 0.6497697234153748
0.7609066367149353 -0.15911553800106049 0.6479305624961853
0.7580513954162598 -0.15918292105197906 0.6457135081291199
0.7505086064338684 -0.15587641298770905 0.6425002217292786
0.7488106489181519 -0.15520213544368744 0.6417235136032104
0.7441284656524658 -0.15115591883659363 0.6412411332130432
0.7406821846961975 -0.14956745505332947 0.6398318409919739
0.7384738922119141 -0.1498977392911911 0.6379062533378601
0.7380251288414001 -0.15008920431137085 0.6374203562736511
0.7345281839370728 -0.14795002341270447 0.6363905668258667
0.7306454181671143 -0.1439220905303955 0.6365006566047668
0.7284830808639526 -0.14180193841457367 0.636468768119812
0.7265357971191406 -0.14375025033950806 0.6335134506225586
0.7818998098373413 -0.19482019543647766 0.6358870267868042
0.7798185348510742 -0.18791446089744568 0.6395570635795593
0.7787429690361023 -0.18372394144535065 0.6419267654418945
0.7782290577888489 -0.18192078173160553 0.6429075002670288
0.7772987484931946 -0.17973248660564423 0.6438644528388977
0.776793897151947 -0.17797936499118805 0.6448140144348145
0.7744596004486084 -0.1718299388885498 0.6477161645889282
0.7726365923881531 -0.167230024933815 0.6498286128044128
0.7695269584655762 -0.1597520112991333 0.6531516909599304
0.7682706713676453 -0.1578395515680313 0.6536509394645691
0.7678602933883667 -0.1573677808046341 0.6536975502967834
0.7646656036376953 -0.1559625118970871 0.6523363590240479
0.763131856918335 -0.1575673669576645 0.6499489545822144
0.7558119893074036 -0.15796388685703278 0.6440788507461548
0.7553948760032654 -0.15783222019672394 0.6438617706298828
0.7516139149665833 -0.15661004185676575 0.6419153213500977
0.7507661581039429 -0.15570887923240662 0.6419558525085449
0.7469319105148315 -0.15445931255817413 0.6399897336959839
0.7460774183273315 -0.15374551713466644 0.639882504940033
0.7456459999084473 -0.15375952422618866 0.6395438313484192
0.7400472164154053 -0.15003702044487 0.6381165385246277
0.7365179061889648 -0.14945575594902039 0.6358738541603088
0.7356532216072083 -0.14859458804130554 0.6358712315559387
0.7347903251647949 -0.14769089221954346 0.6359021663665771
0.7339292764663696 -0.1467483788728714 0.6359641551971436
0.7330666780471802 -0.14584527909755707 0.6359949111938477
0.7278810739517212 -0.14067727327346802 0.6359816193580627
0.7267168760299683 -0.14490532875061035 0.6318795680999756
0.7256333231925964 -0.14742258191108704 0.6291404962539673
0.7827494144439697 -0.19710668921470642 0.6339049339294434
0.7821877002716064 -0.19491127133369446 0.6351513266563416
0.7810774445533752 -0.1905713528394699 0.6376151442527771
0.7801014184951782 -0.18799914419651031 0.6388328075408936
0.779565155506134 -0.18596766889095306 0.6399732232093811
0.7760810852050781 -0.17480163276195526 0.6458335518836975
0.7756632566452026 -0.1743837296962738 0.6458335518836975
0.772426962852478 -0.16569176316261292 0.6499956250190735
0.770663857460022 -0.1617588847875595 0.6516507267951965
0.7702167630195618 -0.16059358417987823 0.6521985530853271
0.7617921233177185 -0.15777647495269775 0.6479209065437317
0.759763777256012 -0.15765634179115295 0.6464652419090271
0.7585334181785583 -0.15738360583782196 0.6457346677780151
0.7577158808708191 -0.1575285643339157 0.6450003981590271
0.7560659646987915 -0.1576097011566162 0.6436800360679626
0.7535631656646729 -0.1576281040906906 0.6417566537857056
0.7488983273506165 -0.15547293424606323 0.6398420333862305
0.7450658082962036 -0.15144860744476318 0.6399884223937988
0.7429310083389282 -0.14960849285125732 0.6397637128829956
0.7407430410385132 -0.1499386876821518 0.6378427147865295
0.7402990460395813 -0.1501295119524002 0.6373584270477295
0.7385294437408447 -0.150216206908226 0.635942280292511
0.7316062450408936 -0.14373277127742767 0.6356067657470703
0.729877233505249 -0.14203517138957977 0.6355828046798706
0.7294447422027588 -0.14161323010921478 0.6355747580528259
0.726899266242981 -0.146065816283226 0.6302362084388733
0.7258135080337524 -0.14859965443611145 0.6274749636650085
0.7819172143936157 -0.19282206892967224 0.6356547474861145
0.7787600755691528 -0.1816791296005249 0.6417639851570129
0.7773265242576599 -0.17782564461231232 0.6436153054237366
0.7744936943054199 -0.16996978223323822 0.6474578976631165
0.7740219235420227 -0.16856630146503448 0.6481707096099854
0.7722201347351074 -0.16419096291065216 0.6501393914222717
0.7700155377388 -0.15911321341991425 0.6523374915122986
0.7667686939239502 -0.15631842613220215 0.651991605758667
0.7640174627304077 -0.1566566675901413 0.6496280431747437
0.7620270848274231 -0.15695776045322418 0.647875189781189
0.7546608448028564 -0.15766796469688416 0.6416966319084167
0.7500090003013611 -0.15528330206871033 0.639962375164032
0.7444772720336914 -0.1499830186367035 0.6397852897644043
0.7340230345726013 -0.14575931429862976 0.6350188255310059
0.7322998642921448 -0.143914595246315 0.6351118087768555
0.7301417589187622 -0.14172470569610596 0.635136067867279
0.7270829677581787 -0.14723484218120575 0.6285809278488159
0.7822044491767883 -0.19291144609451294 0.6349203586578369
0.7806684970855713 -0.18816904723644257 0.6373802423477173
0.7781010270118713 -0.17950567603111267 0.6420566439628601
0.7761759161949158 -0.1739645153284073 0.6448308825492859
0.775695264339447 -0.17251692712306976 0.6455727219581604
0.7738608121871948 -0.16792790591716766 0.6476859450340271
0.772465705871582 -0.16386839747428894 0.6497300267219543
0.7720138430595398 -0.16269551217556 0.65028315782547
0.7707061171531677 -0.15995335578918457 0.651383638381958
0.7698514461517334 -0.15838205814361572 0.6519333720207214
0.7694432735443115 -0.15797379612922668 0.6519333720207214
0.7606764435768127 -0.1571674644947052 0.6458265781402588
0.758237361907959 -0.15765659511089325 0.6435800194740295
0.7561755180358887 -0.15796789526939392 0.6417593359947205
0.7557611465454102 -0.1580926775932312 0.641345739364624
0.7472757697105408 -0.15419188141822815 0.6378287076950073
0.7468482851982117 -0.1537642925977707 0.6378287076950073
0.7460047602653503 -0.15174166858196259 0.6387333273887634
0.742999255657196 -0.1499796062707901 0.6377792954444885
0.7408044934272766 -0.1503121256828308 0.6358404755592346
0.7403740882873535 -0.14988182485103607 0.6358404755592346
0.7381665706634521 -0.14962545037269592 0.6343436241149902
0.7364400029182434 -0.1478171944618225 0.6344062685966492
0.7285239696502686 -0.14251936972141266 0.632397472858429
0.7279013395309448 -0.14544206857681274 0.6296778917312622
0.7272685170173645 -0.14840784668922424 0.6269170045852661
0.7268258929252625 -0.14796532690525055 0.6269170045852661
0.781934380531311 -0.19083310663700104 0.6354236602783203
0.7804053425788879 -0.18612171709537506 0.6378718018531799
0.7783654928207397 -0.1793786585330963 0.6414901614189148
0.7773541808128357 -0.17592746019363403 0.6433672308921814
0.7754752039909363 -0.1709151417016983 0.6457776427268982
0.7741135358810425 -0.1677037924528122 0.6472007632255554
0.771848738193512 -0.16196341812610626 0.6498746275901794
0.7665092349052429 -0.1565278172492981 0.6499485969543457
0.7641493082046509 -0.1570054292678833 0.6477655172348022
0.7621537446975708 -0.15730933845043182 0.6459965705871582
0.7564372420310974 -0.1580558568239212 0.641024112701416
0.7543413639068604 -0.15750651061534882 0.6398345828056335
0.753919243812561 -0.15729740262031555 0.6396706700325012
0.7522217631340027 -0.15560945868492126 0.6396631598472595
0.7496735453605652 -0.15547245740890503 0.6378083229064941
0.7441269755363464 -0.14969147741794586 0.6379886865615845
0.743252694606781 -0.15007080137729645 0.6370242834091187
0.7392948865890503 -0.1501779556274414 0.6338969469070435
0.7388571500778198 -0.14994041621685028 0.6337430477142334
0.737991988658905 -0.1490861028432846 0.6337347030639648
0.736702024936676 -0.14756503701210022 0.6339123845100403
0.7358391880989075 -0.14665429294109344 0.6339491009712219
0.7293246984481812 -0.14076939225196838 0.6334647536277771
0.7287116646766663 -0.1436670422554016 0.6307638883590698
0.7280885577201843 -0.14660698175430298 0.6280229687690735
0.7822209596633911 -0.1909206658601761 0.6346907019615173
0.7812374830245972 -0.18833929300308228 0.635923445224762
0.7801440358161926 -0.18408720195293427 0.638360321521759
0.7796173691749573 -0.18218529224395752 0.6394214630126953
0.7791932225227356 -0.18176119029521942 0.6394214630126953
0.7781268954277039 -0.1775967925786972 0.6418116092681885
0.7766984105110168 -0.17369693517684937 0.6437180638313293
0.7752543687820435 -0.16929589211940765 0.6459994912147522
0.7720937728881836 -0.16164201498031616 0.6494660377502441
0.7607995271682739 -0.15752136707305908 0.64393150806427
0.7583533525466919 -0.1580144613981247 0.6416640281677246
0.7562834024429321 -0.15817676484584808 0.6399418115615845
0.7507855296134949 -0.15554489195346832 0.637730598449707
0.7456724643707275 -0.1501120924949646 0.6379772424697876
0.7426388263702393 -0.1499226838350296 0.6357830166816711
0.7421976923942566 -0.1501139998435974 0.6352952122688293
0.7404345273971558 -0.15024639666080475 0.6338327527046204
0.7356701493263245 -0.14593158662319183 0.6334859132766724
0.7339467406272888 -0.1440788209438324 0.633585512638092
0.7335161566734314 -0.14360815286636353 0.6336167454719543
0.7317937016487122 -0.1417645961046219 0.6337099075317383
0.7300712466239929 -0.13994066417217255 0.6337882280349731
0.7295140624046326 -0.14190644025802612 0.6318418383598328
0.7289007902145386 -0.144819974899292 0.6291208863258362
0.7825080156326294 -0.19100838899612427 0.6339568495750427
0.7804259061813354 -0.1841685175895691 0.6376377940177917
0.7764636874198914 -0.17190240323543549 0.6440622210502625
0.7741485834121704 -0.1658610999584198 0.6469449400901794
0.7736796736717224 -0.1644732803106308 0.6476559638977051
0.7702067494392395 -0.15763568878173828 0.6502590179443359
0.7690055966377258 -0.15694157779216766 0.6498668789863586
0.7594309449195862 -0.15773555636405945 0.6418449282646179
0.7561215162277222 -0.15779511630535126 0.6392382979393005
0.7523185014724731 -0.15569275617599487 0.6379226446151733
0.7480527758598328 -0.1537332534790039 0.636138379573822
0.7472055554389954 -0.151622012257576 0.6371163725852966
0.7441990375518799 -0.150063157081604 0.6359962821006775
0.7342087626457214 -0.14381974935531616 0.6330974698066711
0.7324857115745544 -0.14197592437267303 0.6331910490989685
0.7290915250778198 -0.14597930014133453 0.6274676322937012
0.7812561988830566 -0.1863715648651123 0.635692834854126
0.7801686525344849 -0.18219445645809174 0.6380900740623474
0.7792086601257324 -0.1797146201133728 0.6392691135406494
0.7781530022621155 -0.1756967455148697 0.6415673494338989
0.7767274379730225 -0.17181725800037384 0.6434711813926697
0.7752866148948669 -0.16744504868984222 0.645745575428009
0.7734640836715698 -0.16286900639533997 0.647881805896759
0.7721331119537354 -0.15983469784259796 0.6492034196853638
0.7716946601867676 -0.15887776017189026 0.6496057510375977
0.7708701491355896 -0.1579316109418869 0.6496999859809875
0.7672988176345825 -0.15678167343139648 0.6478213667869568
0.7649390697479248 -0.1572626233100891 0.6456173062324524
0.7629429697990417 -0.15756835043430328 0.6438314914703369
0.7600995898246765 -0.1576404869556427 0.6415697336196899
0.7580479383468628 -0.15795236825942993 0.6397359371185303
0.755121648311615 -0.15738457441329956 0.637906014919281
0.7538476586341858 -0.15615756809711456 0.6378695964813232
0.7504515647888184 -0.15530918538570404 0.6358928680419922
0.749596357345581 -0.15439251065254211 0.635940670967102
0.7483124136924744 -0.15344053506851196 0.6356831192970276
0.7478846311569214 -0.15301264822483063 0.6356831192970276
0.7448903322219849 -0.14996425807476044 0.6357252597808838
0.7427064776420593 -0.1502966731786728 0.6337727904319763
0.7400694489479065 -0.14989790320396423 0.6320365071296692
0.7383438944816589 -0.14796863496303558 0.632194459438324
0.7366227507591248 -0.14596782624721527 0.6324113607406616
0.7309355139732361 -0.14172901213169098 0.6312877535820007
0.7820941209793091 -0.18859557807445526 0.6337295770645142
0.7804465293884277 -0.18222427368164062 0.6374049782752991
0.7800217270851135 -0.18179938197135925 0.6374049782752991
0.7789393663406372 -0.17751222848892212 0.6398981809616089
0.7779129147529602 -0.17388279736042023 0.6419234275817871
0.7760128974914551 -0.1685851365327835 0.6445669531822205
0.7746531963348389 -0.16541318595409393 0.6459769010543823
0.768336296081543 -0.15658284723758698 0.6479325890541077
0.7595508694648743 -0.15809433162212372 0.639921247959137
0.757070004940033 -0.15831534564495087 0.6378191113471985
0.7566456198692322 -0.15789102017879486 0.6378191113471985
0.7464413046836853 -0.15010294318199158 0.6359390616416931
0.7460145354270935 -0.14967605471611023 0.6359390616416931
0.7442718148231506 -0.15043608844280243 0.6339919567108154
0.7412021160125732 -0.15030397474765778 0.6317062973976135
0.7403292655944824 -0.1497492641210556 0.6314590573310852
0.7398980855941772 -0.14925163984298706 0.6315104365348816
0.7386048436164856 -0.14777061343193054 0.6316567063331604
0.7377448081970215 -0.14672324061393738 0.631802499294281
0.7368831634521484 -0.1457676738500595 0.6318755149841309
0.7311312556266785 -0.1428706794977188 0.6296544075012207
0.7300917506217957 -0.14535313844680786 0.6269142031669617
0.7812750339508057 -0.18441331386566162 0.635463297367096
0.7797742486000061 -0.17995546758174896 0.6377704739570618
0.7781787514686584 -0.1738053858280182 0.6413240432739258
0.776756227016449 -0.16994619369506836 0.6432252526283264
0.7744348645210266 -0.16380280256271362 0.646207332611084
0.7735001444816589 -0.1610495150089264 0.6476261019706726
0.7674407958984375 -0.15713033080101013 0.6459563374519348
0.76465904712677 -0.15719950199127197 0.6437320709228516
0.7626549601554871 -0.15750554203987122 0.641929566860199
0.7614511847496033 -0.158052459359169 0.6405637860298157
0.7602217197418213 -0.15799863636493683 0.6396463513374329
0.758163571357727 -0.15827742218971252 0.6378231644630432
0.7543658018112183 -0.15586215257644653 0.636744499206543
0.7531010508537292 -0.15596196055412292 0.6356796622276306
0.7484071254730225 -0.15169255435466766 0.6353485584259033
0.7427743673324585 -0.15067444741725922 0.6317481398582458
0.7358540296554565 -0.14405317604541779 0.631514847278595
0.7354216575622559 -0.14362093806266785 0.631514847278595
0.7337020039558411 -0.14167273044586182 0.6316929459571838
0.7313289046287537 -0.1440178006887436 0.6280117034912109
0.7810107469558716 -0.18238382041454315 0.6359594464302063
0.7805852890014648 -0.18195834755897522 0.6359594464302063
0.7800451517105103 -0.17989298701286316 0.6371528506278992
0.7789552211761475 -0.1754877269268036 0.6397467255592346
0.7775214314460754 -0.17158280313014984 0.641680121421814
0.7760444283485413 -0.16675256192684174 0.6443037986755371
0.7746866941452026 -0.16357913613319397 0.6457244753837585
0.7728794813156128 -0.15910333395004272 0.6478124260902405
0.7716485857963562 -0.1578282117843628 0.6478468775749207
0.7680923938751221 -0.15703707933425903 0.6456835865974426
0.7661242485046387 -0.15734051167964935 0.6439061164855957
0.7617159485816956 -0.15814030170440674 0.6398313045501709
0.7559053897857666 -0.1573118269443512 0.6359331607818604
0.7542037963867188 -0.15567678213119507 0.635881245136261
0.753362774848938 -0.15605196356773376 0.6349295973777771
0.750375509262085 -0.1544322818517685 0.6338596940040588
0.749947190284729 -0.1542862355709076 0.6336387991905212
0.7495185732841492 -0.153729647397995 0.6337388157844543
0.7460929751396179 -0.1500476896762848 0.6339393854141235
0.7361148595809937 -0.14382719993591309 0.6309995055198669
0.734392523765564 -0.14193353056907654 0.631133496761322
0.7321190237998962 -0.1422567218542099 0.6291017532348633
0.7762972712516785 -0.1665206253528595 0.6438241004943848
0.7758828997612 -0.16610635817050934 0.6438241004943848
0.7744688391685486 -0.16197673976421356 0.6459546685218811
0.7740012407302856 -0.16060404479503632 0.6466647386550903
0.7647939920425415 -0.1575528383255005 0.6418347358703613
0.7623833417892456 -0.15804465115070343 0.6395572423934937
0.760344386100769 -0.15835891664028168 0.6377111077308655
0.7578595876693726 -0.1584307700395584 0.6357048749923706
0.7570131421089172 -0.15781410038471222 0.6355246901512146
0.7527737617492676 -0.15578165650367737 0.6337930560112
0.7467831969261169 -0.14994890987873077 0.6336692571640015
0.7454314231872559 -0.15466728806495667 0.6289066076278687
0.7445639371871948 -0.15370170772075653 0.6289834976196289
0.7428469657897949 -0.1508355289697647 0.629885196685791
0.7419759035110474 -0.15021206438541412 0.6296908855438232
0.7415419220924377 -0.14980041980743408 0.6296734809875488
0.7398178577423096 -0.14770032465457916 0.6299685835838318
0.7380942702293396 -0.14569590985774994 0.6301887035369873
0.7323196530342102 -0.1433984935283661 0.6274606585502625
0.7789745926856995 -0.17352665960788727 0.6395569443702698
0.7780519127845764 -0.17142608761787415 0.6404836177825928
0.7775485515594482 -0.16970977187156677 0.6414380669593811
0.7761377096176147 -0.16590699553489685 0.6433200836181641
0.772173285484314 -0.15784014761447906 0.6465479731559753
0.7705790996551514 -0.15710017085075378 0.6458758115768433
0.7682371735572815 -0.15738710761070251 0.6438074707984924
0.7642670273780823 -0.15800322592258453 0.6401990652084351
0.7634498476982117 -0.15776677429676056 0.6397418975830078
0.7589556574821472 -0.1584608107805252 0.6356597542762756
0.7543088793754578 -0.15604417026042938 0.6339049935340881
0.7538877129554749 -0.15623120963573456 0.6334263682365417
0.7500388026237488 -0.15222615003585815 0.6335492134094238
0.7483305931091309 -0.1500868797302246 0.6338884234428406
0.7400785684585571 -0.14752085506916046 0.6294146180152893
0.7387875914573669 -0.1459302306175232 0.6296504139900208
0.7379248142242432 -0.14497420191764832 0.6297237873077393
0.7370654344558716 -0.14392808079719543 0.6298708319664001
0.7331039309501648 -0.1416441798210144 0.6285507082939148
0.7818602919578552 -0.18262439966201782 0.6337825059890747
0.779808521270752 -0.1759800910949707 0.6374061107635498
0.7783172726631165 -0.171347513794899 0.6398847699165344
0.7773118615150452 -0.16792485117912292 0.6417919397354126
0.7759142518043518 -0.16427426040172577 0.6435696482658386
0.7740921974182129 -0.1597481071949005 0.6457032561302185
0.7736588716506958 -0.15894436836242676 0.6459956765174866
0.7724359631538391 -0.15784725546836853 0.6458963751792908
0.7669215202331543 -0.15759944915771484 0.6417409181594849
0.764930009841919 -0.15790824592113495 0.6399258971214294
0.7645331621170044 -0.1580907106399536 0.6394686102867126
0.7625126838684082 -0.15840408205986023 0.6376270651817322
0.7620912194252014 -0.1579827070236206 0.6376270651817322
0.7604681849479675 -0.15872183442115784 0.6357631683349609
0.7571174502372742 -0.15762491524219513 0.6339849233627319
0.7549916505813599 -0.15594621002674103 0.6336321234703064
0.7511581778526306 -0.15453149378299713 0.6317236423492432
0.7502978444099426 -0.1515112668275833 0.6334278583526611
0.7442370057106018 -0.1512867957353592 0.628822922706604
0.7356052994728088 -0.1417422741651535 0.6295430064201355
0.7338806986808777 -0.1399056762456894 0.6296314001083374
0.7806254625320435 -0.17809215188026428 0.6355023384094238
0.7800940871238708 -0.17614410817623138 0.6366233229637146
0.7780778408050537 -0.16955186426639557 0.6402440667152405
0.7756943106651306 -0.16268478333950043 0.6437917351722717
0.7590714693069458 -0.15863700211048126 0.6338416934013367
0.7544137835502625 -0.1563582867383957 0.6319592595100403
0.7539855241775513 -0.15592990815639496 0.6319592595100403
0.7509896159172058 -0.15398456156253815 0.6311283111572266
0.7484167814254761 -0.15046082437038422 0.6318805813789368
0.7479851245880127 -0.15065094828605652 0.6313886046409607
0.7471082210540771 -0.15240228176116943 0.6293089389801025
0.7803740501403809 -0.17622049152851105 0.63590407371521
0.7798224687576294 -0.17395970225334167 0.6372600793838501
0.7783427834510803 -0.16947294771671295 0.6396463513374329
0.7769244909286499 -0.16565434634685516 0.6415508985519409
0.7764286994934082 -0.1639695167541504 0.642494261264801
0.7713754773139954 -0.1572747379541397 0.6437969207763672
0.7690374851226807 -0.15764544904232025 0.6416476964950562
0.7670639753341675 -0.15795429050922394 0.6398366689682007
0.764248788356781 -0.15802888572216034 0.6375436782836914
0.7622860670089722 -0.16054405272006989 0.633990466594696
0.7618783712387085 -0.16071805357933044 0.633529007434845
0.7601653337478638 -0.15858881175518036 0.6338592171669006
0.7580675482749939 -0.15786732733249664 0.6327672004699707
0.7542487382888794 -0.15599316358566284 0.6312240362167358
0.7473766803741455 -0.15116015076637268 0.6296061277389526
0.7382768392562866 -0.1438552439212799 0.6281819343566895
0.7365551590919495 -0.1418544501066208 0.62840336561203
0.7348345518112183 -0.13988371193408966 0.6286019682884216
0.780107319355011 -0.17412151396274567 0.6364791393280029
0.7791333198547363 -0.17137113213539124 0.6378927230834961
0.7781036496162415 -0.16768623888492584 0.6400054097175598
0.7766905426979065 -0.16388879716396332 0.64190274477005
0.7757253646850586 -0.16086061298847198 0.6435443162918091
0.7732266783714294 -0.15786871314048767 0.6439366936683655
0.7700765132904053 -0.15737131237983704 0.6418259739875793
0.7673315405845642 -0.1580413430929184 0.6391083598136902
0.7658174633979797 -0.16041120886802673 0.636017918586731
0.7654187083244324 -0.16059567034244537 0.6355538368225098
0.7637896537780762 -0.1606936752796173 0.6341798305511475
0.7613276839256287 -0.1611415296792984 0.6318645477294922
0.756201982498169 -0.15602855384349823 0.6318542957305908
