ply
format ascii 1.0
element vertex 827
property float x
property float y
property float z
end_header
0.4711877107620239 0.0759270042181015 0.6669082641601562
0.4724464416503906 0.07748515158891678 0.665919840335846
0.4749908745288849 0.08063573390245438 0.6639207005500793
0.4771210253238678 0.08194709569215775 0.6629103422164917
0.4784194231033325 0.08355046808719635 0.6618930101394653
0.4797263443470001 0.08516494929790497 0.6608672738075256
0.4810431897640228 0.08679141104221344 0.6598353385925293
0.4845644235610962 0.08979278802871704 0.6577485203742981
0.485912561416626 0.09145229309797287 0.6566944122314453
0.487270712852478 0.09312539547681808 0.6556312441825867
0.49227938055992126 0.09792318195104599 0.6523981094360352
0.4936807453632355 0.09964393824338913 0.6513045430183411
0.49551334977149963 0.10297607630491257 0.649333655834198
0.4963977038860321 0.10268128663301468 0.649333655834198
0.4981401264667511 0.10560523718595505 0.6475816369056702
0.49954578280448914 0.10723181068897247 0.6465343236923218
0.5008499026298523 0.10845838487148285 0.6457039713859558
0.504576563835144 0.10779336094856262 0.6454158425331116
0.5060230493545532 0.10596685111522675 0.6460877060890198
0.508355438709259 0.10385113954544067 0.6467563509941101
0.5106773972511292 0.10174471884965897 0.6474226713180542
0.5121013522148132 0.09994301944971085 0.6480863094329834
0.514404833316803 0.09785430133342743 0.6487464308738708
0.5166139006614685 0.09549763053655624 0.6495561599731445
0.5182954668998718 0.09463042765855789 0.6497097611427307
0.5198819041252136 0.09346664696931839 0.6500268578529358
0.5206848382949829 0.09292002767324448 0.6501661539077759
0.5230992436408997 0.09131501615047455 0.6505661606788635
0.5245582461357117 0.08979257196187973 0.6510843634605408
0.5268897414207458 0.08798281848430634 0.6516002416610718
0.5287926197052002 0.08492074906826019 0.6528142094612122
0.5302357077598572 0.08343524485826492 0.6533164978027344
0.5313552021980286 0.08102088421583176 0.6543365120887756
0.5317631363868713 0.0793861448764801 0.6550857424736023
0.5330339074134827 0.07747119665145874 0.6558308005332947
0.5334348678588867 0.07585172355175018 0.6565737128257751
0.5342461466789246 0.07541641592979431 0.6566563248634338
0.538393497467041 0.07621057331562042 0.6555682420730591
0.545838475227356 0.09142827242612839 0.6467209458351135
0.5467305183410645 0.09113092720508575 0.6467209458351135
0.5484969019889832 0.09322626888751984 0.6453790664672852
0.5502790212631226 0.09534023702144623 0.6440252661705017
0.5520768165588379 0.09747323393821716 0.6426594257354736
0.3932291567325592 0.13051852583885193 0.6515665650367737
0.39410457015037537 0.1302267163991928 0.6515665650367737
0.3949585258960724 0.1296597570180893 0.65170818567276
0.39666426181793213 0.12852743268013 0.6519909501075745
0.40223947167396545 0.13044926524162292 0.6500946879386902
0.4039783775806427 0.12964244186878204 0.6502085328102112
0.40655824542045593 0.12816645205020905 0.6505178809165955
0.411757230758667 0.12574000656604767 0.6508657932281494
0.41261792182922363 0.12529195845127106 0.6509467363357544
0.4142104983329773 0.1232626885175705 0.651698112487793
0.41586872935295105 0.1218835860490799 0.6521123647689819
0.41742897033691406 0.11971772462129593 0.6529384255409241
0.41898056864738464 0.11756420135498047 0.6537590622901917
0.4213975667953491 0.11519088596105576 0.6545454263687134
0.4300239682197571 0.1120205745100975 0.6546931862831116
0.4361795485019684 0.11059757322072983 0.6543779969215393
0.4388275146484375 0.11002300679683685 0.6542232036590576
0.4400458335876465 0.1119217723608017 0.6530670523643494
0.44064417481422424 0.10994721949100494 0.6539578437805176
0.44243124127388 0.10967383533716202 0.6537960767745972
0.44431647658348083 0.10996971279382706 0.6533327102661133
0.4452837407588959 0.11025051772594452 0.6530294418334961
0.4461548924446106 0.10996013879776001 0.6530294418334961
0.4446123540401459 0.0957464650273323 0.6604181528091431
0.44594889879226685 0.09312978386878967 0.6615064740180969
0.4481186270713806 0.0902518779039383 0.6625876426696777
0.4487811326980591 0.0889848917722702 0.6631124019622803
0.44944313168525696 0.08773332834243774 0.6636298298835754
0.4501023590564728 0.08648572117090225 0.6641451716423035
0.4513936936855316 0.07469400018453598 0.6698442101478577
0.452282190322876 0.0747624859213829 0.669661283493042
0.46371519565582275 0.07462547719478607 0.6678181290626526
0.4646182358264923 0.07469474524259567 0.6676322817802429
0.47473135590553284 0.07970673590898514 0.6634275913238525
0.48077401518821716 0.08584296703338623 0.6593392491340637
0.4820978343486786 0.08747687190771103 0.6582977771759033
0.48835697770118713 0.09383592009544373 0.6540616750717163
0.4906037151813507 0.09523693472146988 0.6529832482337952
0.49199244379997253 0.09693983942270279 0.6518969535827637
0.49790623784065247 0.10483747720718384 0.6469460725784302
0.5004608035087585 0.10712044686079025 0.6453740000724792
0.5024789571762085 0.10736954212188721 0.644911527633667
0.5048117637634277 0.1052129790186882 0.6456031203269958
0.5064254403114319 0.10400713235139847 0.6459386348724365
0.5071442723274231 0.10310108214616776 0.6462721228599548
0.5085775256156921 0.10129494220018387 0.6469388008117676
0.510878324508667 0.09915678948163986 0.6476266980171204
0.5122649073600769 0.09725897759199142 0.6483466029167175
0.5145275592803955 0.09507592767477036 0.6490631699562073
0.5160731673240662 0.0937671959400177 0.6494617462158203
0.5185723304748535 0.09241759777069092 0.6497204899787903
0.5193802118301392 0.09189025312662125 0.6498500108718872
0.5201813578605652 0.09134510159492493 0.6499895453453064
0.5209587216377258 0.09072647243738174 0.6501699686050415
0.5225684642791748 0.08967321366071701 0.6504289507865906
0.5246872305870056 0.08720316737890244 0.6513140201568604
0.5268819332122803 0.08501552045345306 0.6520439982414246
0.5274555087089539 0.08382086455821991 0.6525474786758423
0.5280271768569946 0.08262988924980164 0.6530495285987854
0.529466986656189 0.08115360140800476 0.6535493731498718
0.5309332013130188 0.07695677876472473 0.6554096937179565
0.5349974632263184 0.07478880137205124 0.6558178067207336
0.5368514060974121 0.07457327842712402 0.6556158661842346
0.5380250215530396 0.07515149563550949 0.6551293730735779
0.539716899394989 0.07716096937656403 0.6538381576538086
0.5498867034912109 0.0942307785153389 0.6435750722885132
0.39828604459762573 0.1277240514755249 0.6510803699493408
0.40042516589164734 0.1316392421722412 0.6487510204315186
0.402149498462677 0.13062559068202972 0.6489719152450562
0.4038926661014557 0.1298455446958542 0.6490722894668579
0.4047550559043884 0.12935984134674072 0.6491721272468567
0.4064790904521942 0.1284056305885315 0.6493625640869141
0.4082224369049072 0.12766294181346893 0.6494444608688354
0.410755455493927 0.12579242885112762 0.6499603986740112
0.4132123291492462 0.12331412732601166 0.6507961750030518
0.4147825837135315 0.12114093452692032 0.651626467704773
0.4179876148700714 0.11758355796337128 0.6528795957565308
0.42050981521606445 0.11602815985679626 0.6532395482063293
0.42137303948402405 0.1157006174325943 0.6532593369483948
0.4222363233566284 0.11537296324968338 0.6532797813415527
0.4248301684856415 0.11442766338586807 0.6533200144767761
0.42655542492866516 0.11377115547657013 0.6533612608909607
0.42829054594039917 0.11318846046924591 0.6533631682395935
0.43005111813545227 0.11278698593378067 0.65326988697052
0.43268144130706787 0.11209586262702942 0.6531763076782227
0.43356528878211975 0.11191059648990631 0.6531211137771606
0.4344509541988373 0.11173433810472488 0.6530613899230957
0.4373074173927307 0.11844173818826675 0.6492061018943787
0.4381874203681946 0.11814840883016586 0.6492061018943787
0.4389827251434326 0.11731579154729843 0.6494916081428528
0.44053757190704346 0.11545943468809128 0.6501650810241699
0.44217875599861145 0.1141820102930069 0.6505330801010132
0.4429406523704529 0.11319880187511444 0.6508994102478027
0.44356197118759155 0.1113843098282814 0.6517090797424316
0.44452789425849915 0.1116478368639946 0.651414155960083
0.44557711482048035 0.11239010840654373 0.65086430311203
0.4464521110057831 0.11209839582443237 0.65086430311203
0.4454672038555145 0.09587623178958893 0.6591953635215759
0.4461304247379303 0.09452903270721436 0.6597628593444824
0.4468027651309967 0.09325562417507172 0.6602907776832581
0.44831910729408264 0.09170538932085037 0.6608163714408875
0.44964924454689026 0.08918307721614838 0.6618632078170776
0.45031067728996277 0.08792858570814133 0.6623839139938354
0.45032110810279846 0.07395833730697632 0.6694145202636719
0.45291775465011597 0.07382062822580338 0.669048011302948
0.45469820499420166 0.07395675778388977 0.6686806082725525
0.4573074281215668 0.07381835579872131 0.6683123707771301
0.45820239186286926 0.07388664782047272 0.668127715587616
0.4590984284877777 0.07395483553409576 0.667943000793457
0.4599958658218384 0.07402349263429642 0.6677582263946533
0.46089398860931396 0.07409168034791946 0.6675726771354675
0.46172022819519043 0.07381640374660492 0.6675726771354675
0.462620347738266 0.07388453930616379 0.6673877835273743
0.466156542301178 0.07381433993577957 0.6668300032615662
0.4700896739959717 0.07542077451944351 0.6653614640235901
0.47320008277893066 0.07720880955457687 0.6639392971992493
0.4757539927959442 0.08036293089389801 0.661922812461853
0.4765966236591339 0.0800819993019104 0.661922812461853
0.47919344902038574 0.08328037708997726 0.6598770618438721
0.48182693123817444 0.08652495592832565 0.6578021049499512
0.4826817810535431 0.0862400084733963 0.6578021049499512
0.48401591181755066 0.08787909150123596 0.6567526459693909
0.48535940051078796 0.08952841907739639 0.6556976437568665
0.4867127537727356 0.09119053184986115 0.6546334028244019
0.4880758821964264 0.09286455065011978 0.6535620093345642
0.49170565605163574 0.0959584042429924 0.6513957977294922
0.4935570955276489 0.09941019117832184 0.6493470072746277
0.49518340826034546 0.10195481032133102 0.6477941274642944
0.4960674047470093 0.1016601026058197 0.6477941274642944
0.497571736574173 0.10369288176298141 0.6465178728103638
0.4988633990287781 0.10490255057811737 0.6456923484802246
0.5000693202018738 0.10577414184808731 0.6450513601303101
0.5028797388076782 0.10536952316761017 0.644783616065979
0.5043252110481262 0.10355382412672043 0.6454548835754395
0.5066362619400024 0.10138848423957825 0.6461573839187622
0.5080358386039734 0.0994812399148941 0.6468823552131653
0.5103123784065247 0.09728482365608215 0.6476060748100281
0.5116916298866272 0.095380038022995 0.6483335494995117
0.5123488903045654 0.09433038532733917 0.6487510800361633
0.5138843059539795 0.09299042820930481 0.649168074131012
0.5146582722663879 0.09234756231307983 0.6493621468544006
0.5154656767845154 0.09181788563728333 0.6494931578636169
0.5162723064422607 0.0912885069847107 0.6496246457099915
0.518761396408081 0.08993914723396301 0.6498858332633972
0.519565224647522 0.08941087126731873 0.6500168442726135
0.520301342010498 0.08867102116346359 0.6502657532691956
0.5218812227249146 0.08754319697618484 0.6505683064460754
0.5225831270217896 0.08670920133590698 0.6508709192276001
0.5232834219932556 0.08587704598903656 0.6511716246604919
0.5248558521270752 0.08475564420223236 0.651472806930542
0.5255485773086548 0.08391542732715607 0.651779294013977
0.5266965627670288 0.0815381184220314 0.6527836918830872
0.5287030935287476 0.07888734340667725 0.6537811160087585
0.5292688012123108 0.07771273702383041 0.6542776823043823
0.5301090478897095 0.07454414665699005 0.6557316184043884
0.5317973494529724 0.07387389987707138 0.6557852625846863
0.5327830910682678 0.07394541800022125 0.6555838584899902
0.5337700843811035 0.07401703298091888 0.6553820967674255
0.5356212854385376 0.07380127906799316 0.6551805138587952
0.5366115570068359 0.07387274503707886 0.6549782156944275
0.5450723767280579 0.08924081921577454 0.6458224058151245
0.5477210283279419 0.09102480113506317 0.6444804072380066
0.5494953393936157 0.09312386065721512 0.6431259512901306
0.39301273226737976 0.13062863051891327 0.649457573890686
0.39474520087242126 0.12976889312267303 0.6496001482009888
0.3964540362358093 0.12863457202911377 0.6498854160308838
0.39946815371513367 0.13231705129146576 0.647517740726471
0.4003336429595947 0.13182629644870758 0.6476196646690369
0.40206363797187805 0.13085182011127472 0.647821307182312
0.40975314378738403 0.12584473192691803 0.6490550637245178
0.41221362352371216 0.12336545437574387 0.649893581867218
0.41378551721572876 0.12117540836334229 0.6507351994514465
0.4154379665851593 0.11977594345808029 0.6511639356613159
0.41621503233909607 0.11867085099220276 0.651591420173645
0.41701874136924744 0.1178150475025177 0.6518880128860474
0.41874900460243225 0.11715786159038544 0.651928722858429
0.42048364877700806 0.11653979122638702 0.6519492864608765
0.4222128987312317 0.11588247120380402 0.651989758014679
0.42656269669532776 0.11444996297359467 0.6519812941551208
0.4283140301704407 0.11395912617444992 0.6519342064857483
0.4300784170627594 0.11355666071176529 0.6518398523330688
0.43271830677986145 0.11289206892251968 0.651731014251709
0.4347795844078064 0.12061748653650284 0.64748215675354
0.43558621406555176 0.11981651186943054 0.6477505564689636
0.4404144585132599 0.1151590645313263 0.6492906212806702
0.44205591082572937 0.11388164758682251 0.6496593952178955
0.44491538405418396 0.1143760085105896 0.6489279270172119
0.44601139426231384 0.11536520719528198 0.6482439041137695
0.44652271270751953 0.09712634980678558 0.657370924949646
0.44800859689712524 0.09532373398542404 0.658031702041626
0.44863778352737427 0.09381276369094849 0.6586887240409851
0.449924498796463 0.09100914001464844 0.6598882079124451
0.45057475566864014 0.08967459946870804 0.6604527235031128
0.45206570625305176 0.08806383609771729 0.6610157489776611
0.4554020166397095 0.07335637509822845 0.667883038520813
0.45629459619522095 0.0734240934252739 0.6676985025405884
0.464230477809906 0.07334969937801361 0.6663999557495117
0.46777239441871643 0.07327768206596375 0.6658397912979126
0.46885553002357483 0.07412157952785492 0.6652313470840454
0.4719667136669159 0.0759580209851265 0.6637797951698303
0.4742141664028168 0.0778546929359436 0.6624431014060974
0.47549358010292053 0.07943310588598251 0.6614304780960083
0.4763355553150177 0.07915244996547699 0.6614304780960083
0.48023751378059387 0.0839526504278183 0.6583489179611206
0.4815567135810852 0.0855754017829895 0.6573065519332886
0.482410728931427 0.08529072999954224 0.6573065519332886
0.48779550194740295 0.09189527481794357 0.653063952922821
0.48866188526153564 0.09160647541284561 0.653063952922821
0.49003615975379944 0.09328770637512207 0.6519832015037537
0.4985235631465912 0.10374290496110916 0.6452724933624268
0.5023736953735352 0.10362482070922852 0.6446838974952698
0.5037850737571716 0.10170210897922516 0.6454177498817444
0.5044881105422974 0.10074447095394135 0.6457825899124146
0.5060760378837585 0.09949376434087753 0.6461472511291504
0.5074700117111206 0.09758448600769043 0.646877110004425
0.5081349015235901 0.09652995318174362 0.6472983360290527
0.5096794366836548 0.0951840803027153 0.6477175951004028
0.5109968781471252 0.09308971464633942 0.6485538482666016
0.512531042098999 0.0917540192604065 0.6489703059196472
0.5148283839225769 0.0897708311676979 0.6495851278305054
0.5165090560913086 0.08895187824964523 0.6497161984443665
0.5181148052215576 0.08789907395839691 0.6499773859977722
0.5189060568809509 0.0873405709862709 0.6501261591911316
0.5211856365203857 0.08538611233234406 0.6507294774055481
0.5225847363471985 0.08373013138771057 0.651330292224884
0.5247959494590759 0.08163289725780487 0.6520175337791443
0.525942325592041 0.07927076518535614 0.6530174612998962
0.5265125632286072 0.07809598743915558 0.6535149812698364
0.5273776650428772 0.07780762761831284 0.6535149812698364
0.5279445052146912 0.0766369104385376 0.654011070728302
0.5284433364868164 0.07527457177639008 0.6546154618263245
0.5287355184555054 0.07332009077072144 0.6555535793304443
0.5429558157920837 0.0860961526632309 0.646705150604248
0.5455795526504517 0.08785469830036163 0.6453750133514404
0.5473344326019287 0.08992799371480942 0.6440327167510986
0.40024539828300476 0.1320541501045227 0.6464648246765137
0.40459588170051575 0.1298835128545761 0.646830141544342
0.4062724709510803 0.12839145958423615 0.6473034024238586
0.40795278549194336 0.12699592113494873 0.6477271318435669
0.41033539175987244 0.12368084490299225 0.6490050554275513
0.41278234124183655 0.12116120755672455 0.649868905544281
0.422189325094223 0.11639277637004852 0.6506959199905396
0.42481598258018494 0.11562664061784744 0.6506408452987671
0.4283373951911926 0.1147327870130539 0.6504989862442017
0.43010804057121277 0.11434464156627655 0.6503962278366089
0.43214309215545654 0.12215795367956161 0.646091639995575
0.4329570233821869 0.12137726694345474 0.6463505029678345
0.4362466633319855 0.11858592182397842 0.6472095847129822
0.4370388686656952 0.11771324276924133 0.6475176215171814
0.438742458820343 0.11676342785358429 0.647711455821991
0.43952348828315735 0.11584647744894028 0.6480442881584167
0.4421246647834778 0.11475557088851929 0.6481577157974243
0.4431970417499542 0.11564052850008011 0.6475276350975037
0.4443005919456482 0.11669016629457474 0.6468093395233154
0.4475897550582886 0.09841005504131317 0.655519962310791
0.4484465420246124 0.0981244146823883 0.655519962310791
0.44907861948013306 0.0965978354215622 0.6561867594718933
0.44970768690109253 0.09507865458726883 0.656850278377533
0.4503343105316162 0.09356623142957687 0.657511830329895
0.450957715511322 0.09206020087003708 0.6581695675849915
0.4518069326877594 0.09177727997303009 0.6581695675849915
0.45242562890052795 0.0902789980173111 0.6588248014450073
0.4499508738517761 0.07262654602527618 0.6681906580924988
0.4517233967781067 0.07276047766208649 0.6678231358528137
0.45254451036453247 0.0724867656826973 0.6678231358528137
0.463135302066803 0.07261016219854355 0.665971040725708
0.46403661370277405 0.07267753034830093 0.6657845377922058
0.4686858057975769 0.07356678694486618 0.664548397064209
0.46987804770469666 0.07487237453460693 0.6636855602264404
0.4741520881652832 0.07776378840208054 0.6614973545074463
0.47736403346061707 0.07980943471193314 0.6599175333976746
0.47866231203079224 0.08140359073877335 0.6588901877403259
0.47996991872787476 0.08300992101430893 0.6578550934791565
0.4834694564342499 0.0859718844294548 0.6557624936103821
0.48480847477912903 0.08761195093393326 0.6547049880027771
0.4861571192741394 0.08926369994878769 0.6536392569541931
0.4916779100894928 0.09609729051589966 0.6492429375648499
0.4931986927986145 0.09827808290719986 0.6478801369667053
0.4955655038356781 0.09999113529920578 0.6466118693351746
0.49687230587005615 0.10128815472126007 0.6457335948944092
0.5002254247665405 0.10296828299760818 0.6443153619766235
0.5018218755722046 0.10171207040548325 0.6446825265884399
0.503230631351471 0.09979882836341858 0.6454145908355713
0.5047876238822937 0.09844349324703217 0.6458386182785034
0.5054562091827393 0.09738670289516449 0.6462613940238953
0.5067880153656006 0.09528175741434097 0.6471028923988342
0.5083314180374146 0.09394018352031708 0.6475221514701843
0.5096498131752014 0.09185398370027542 0.648357093334198
0.5103063583374023 0.09081485867500305 0.6487728953361511
0.5109610557556152 0.0897786021232605 0.6491876244544983
0.5125881433486938 0.0887855663895607 0.6494163274765015
0.5141945481300354 0.08773501962423325 0.6496771574020386
0.5166714191436768 0.08639489114284515 0.6499377489089966
0.5174719095230103 0.08587110787630081 0.6500684022903442
0.518220841884613 0.08518671244382858 0.650287926197052
0.5204944610595703 0.0832429751753807 0.6508895754814148
0.5218908190727234 0.08159717172384262 0.6514881253242493
0.5225870013237 0.08077681064605713 0.651786208152771
0.5251291990280151 0.07682548463344574 0.6533599495887756
0.5255769491195679 0.07529539614915848 0.6540594100952148
0.5264381170272827 0.0750083327293396 0.6540594100952148
0.5268820524215698 0.07348602265119553 0.6547560691833496
0.534282386302948 0.07269147038459778 0.6539086699485779
0.5361330509185791 0.07247485220432281 0.6537057161331177
0.5425780415534973 0.08501449227333069 0.6462603211402893
0.5469484925270081 0.08883393555879593 0.643585741519928
0.5487149357795715 0.09091820567846298 0.6422305703163147
0.40015727281570435 0.13228313624858856 0.6453075408935547
0.40102729201316833 0.131825789809227 0.6453925967216492
0.4027807116508484 0.13107791543006897 0.6454758048057556
0.4044601619243622 0.12955062091350555 0.6459678411483765
0.407742440700531 0.1259090006351471 0.6472641825675964
0.40853652358055115 0.12478645890951157 0.6477006077766418
0.4093283414840698 0.1236671507358551 0.6481357216835022
0.41177859902381897 0.12114706635475159 0.6490018367767334
0.4143456220626831 0.11979832500219345 0.6492524147033691
0.4160868227481842 0.1191776916384697 0.6492732167243958
0.41869059205055237 0.11818650364875793 0.6493354439735413
0.4195631742477417 0.11789564043283463 0.6493354439735413
0.4204307198524475 0.1175653338432312 0.6493563055992126
0.42219045758247375 0.11709887534379959 0.6492953300476074
0.4248323142528534 0.11640507727861404 0.6492008566856384
0.42660224437713623 0.11600222438573837 0.6491050720214844
0.4274879992008209 0.11580200493335724 0.6490570902824402
0.4283613860607147 0.11551087349653244 0.6490570902824402
0.43036988377571106 0.12331607937812805 0.6447463631629944
0.43201467394828796 0.12184128910303116 0.6452173590660095
0.4345245957374573 0.11998762935400009 0.6457348465919495
0.4405948519706726 0.11723365634679794 0.6461062431335449
0.4416986107826233 0.11831443011760712 0.6453692317008972
0.44258272647857666 0.1180197224020958 0.6453692317008972
0.4501567482948303 0.09788143634796143 0.6543287038803101
0.45141181349754333 0.09483295679092407 0.6556665897369385
0.45226603746414185 0.09454821795225143 0.6556665897369385
0.4528875946998596 0.09303507208824158 0.6563311219215393
0.4535059928894043 0.09152813255786896 0.6569926738739014
0.45235803723335266 0.07182065397500992 0.6672115325927734
0.45413535833358765 0.07195400446653366 0.6668431758880615
0.45674005150794983 0.07181352376937866 0.6664729118347168
0.45852750539779663 0.07194685190916061 0.6661019325256348
0.4594229757785797 0.07201371341943741 0.6659160256385803
0.4603196382522583 0.07208052277565002 0.6657298803329468
0.46114465594291687 0.07180552184581757 0.6657298803329468
0.46204301714897156 0.07187271118164062 0.6655433773994446
0.46557238698005676 0.0717979446053505 0.664983332157135
0.4664760231971741 0.07186530530452728 0.6647952198982239
0.4685003161430359 0.07294204831123352 0.6639045476913452
0.4732571542263031 0.0779847726225853 0.6605330109596252
0.47527965903282166 0.0788690373301506 0.6597402691841125
0.48106300830841064 0.08386628329753876 0.6562178730964661
0.48751622438430786 0.09106322377920151 0.6514625549316406
0.48838263750076294 0.09077441692352295 0.6514625549316406
0.49000829458236694 0.0934327244758606 0.6498345732688904
0.49147990345954895 0.09545771777629852 0.6485553979873657
0.49298787117004395 0.09759041666984558 0.6472148299217224
0.4988585412502289 0.10160007327795029 0.6441797614097595
0.501214861869812 0.09959877282381058 0.6447983384132385
0.5025613307952881 0.0974835529923439 0.6456460356712341
0.5032318234443665 0.0964302346110344 0.6460676789283752
0.504781186580658 0.09508606046438217 0.6464886665344238
0.5061104893684387 0.09299462288618088 0.6473273038864136
0.5067722201347351 0.09195330739021301 0.6477448344230652
0.508965253829956 0.08958752453327179 0.648576557636261
0.510287880897522 0.08757156878709793 0.649377703666687
0.5127637982368469 0.08623380213975906 0.6496387124061584
0.5135645270347595 0.08571091294288635 0.6497682929039001
0.5143646597862244 0.08518853038549423 0.6498987078666687
0.5168329477310181 0.08385550230741501 0.6501579880714417
0.5182409286499023 0.08222414553165436 0.6507492065429688
0.5191094279289246 0.08193464577198029 0.6507492065429688
0.5211517214775085 0.07932409644126892 0.6517311930656433
0.5217397212982178 0.07818179577589035 0.6522120833396912
0.5226039886474609 0.0778937116265297 0.6522120833396912
0.5235106348991394 0.07483195513486862 0.6536158919334412
0.523960530757904 0.07331178337335587 0.6543129086494446
0.5244771242141724 0.07200412452220917 0.6548900008201599
0.52533358335495 0.07171863317489624 0.6548900008201599
0.526310384273529 0.0717887133359909 0.6546890735626221
0.5282675623893738 0.0719294473528862 0.6542859077453613
0.5301069021224976 0.07171349972486496 0.6540838479995728
0.5310894846916199 0.07178342342376709 0.6538814902305603
0.5320732593536377 0.07185374200344086 0.653678834438324
0.5340446829795837 0.07199398428201675 0.6532731056213379
0.5404894948005676 0.08191484957933426 0.6471344828605652
0.5422016382217407 0.08393716812133789 0.6458150744438171
0.5439298748970032 0.08597923815250397 0.644483208656311
0.5448165535926819 0.0856836810708046 0.644483208656311
0.5465638637542725 0.08774241805076599 0.6431396007537842
0.5483263731002808 0.08981896936893463 0.6417849659919739
0.4034480154514313 0.1295776516199112 0.6450708508491516
0.4050537049770355 0.12731513381004333 0.6459527015686035
0.4058527648448944 0.12618862092494965 0.6463913321495056
0.40832072496414185 0.12365353107452393 0.6472655534744263
0.4099539816379547 0.12193220853805542 0.6478658318519592
0.41082853078842163 0.12164069712162018 0.6478658318519592
0.41256898641586304 0.12097994983196259 0.6479070782661438
0.4143088757991791 0.12031802535057068 0.64794921875
0.4160529375076294 0.11969556659460068 0.6479705572128296
0.4186701774597168 0.11877789348363876 0.647993266582489
0.42042964696884155 0.11828475445508957 0.6479455232620239
0.4222010374069214 0.1178818941116333 0.6478497982025146
0.4248484969139099 0.11718737334012985 0.6477538347244263
0.42770129442214966 0.12476417422294617 0.6434008479118347
0.42852774262428284 0.12402330338954926 0.6436383128166199
0.4294145107269287 0.1237277090549469 0.6436383128166199
0.4302392303943634 0.12298882752656937 0.6438755989074707
0.4318845272064209 0.12151424586772919 0.6443480849266052
0.43598097562789917 0.11787862330675125 0.6455069780349731
0.43690064549446106 0.1178358644247055 0.6453717350959778
0.43887004256248474 0.11856524646282196 0.6446648836135864
0.4399716556072235 0.11964959651231766 0.6439239978790283
0.45209547877311707 0.09884293377399445 0.6524811387062073
0.4534090757369995 0.09610926359891891 0.6536536812782288
0.45402583479881287 0.09456212818622589 0.6543385982513428
0.45463964343070984 0.0930219292640686 0.6550199389457703
0.45135173201560974 0.07142867147922516 0.6666014790534973
0.45572856068611145 0.07141968607902527 0.6658610701560974
0.4565510153770447 0.07114554196596146 0.6658610701560974
0.45833730697631836 0.0712783932685852 0.6654892563819885
0.4671853184700012 0.07126064598560333 0.6639928817749023
0.4681260585784912 0.07148222625255585 0.6637197732925415
0.4703100323677063 0.07322125136852264 0.6624605655670166
0.47156691551208496 0.07477658241987228 0.6614527702331543
0.47331473231315613 0.07840901613235474 0.6593016982078552
0.4741000533103943 0.0778895691037178 0.6594330668449402
0.47726869583129883 0.07973618805408478 0.6579509377479553
0.47846925258636475 0.08092222362756729 0.6571416258811951
0.481038898229599 0.08391891419887543 0.655174732208252
0.48459765315055847 0.08705104887485504 0.6529702544212341
0.4860527813434601 0.08912383764982224 0.6516646146774292
0.48981142044067383 0.09279511123895645 0.6491512656211853
0.49128249287605286 0.09481977671384811 0.6478675603866577
0.4939829111099243 0.09785684198141098 0.6458581686019897
0.49486327171325684 0.09756339341402054 0.6458581686019897
0.4961378574371338 0.09875110536813736 0.6450347900390625
0.49829402565956116 0.09961044043302536 0.6442294716835022
0.5005316734313965 0.09720753878355026 0.6450755000114441
0.5018764734268188 0.09511137753725052 0.6459158062934875
0.5025463104248047 0.09406735748052597 0.6463350653648376
0.5034253001213074 0.09377436339855194 0.6463350653648376
0.5040919184684753 0.09273406863212585 0.6467525362968445
0.5047569274902344 0.09169632941484451 0.6471694111824036
0.5060809254646301 0.08962947875261307 0.6479988694190979
0.5076115131378174 0.08830288052558899 0.6484154462814331
0.5082387924194336 0.08717793971300125 0.6488834023475647
0.5088267922401428 0.08593089878559113 0.6494195461273193
0.5104303956031799 0.08489546924829483 0.6496753096580505
0.51202392578125 0.08383828401565552 0.6499438881874084
0.5128195285797119 0.08331014961004257 0.6500781178474426
0.5144822001457214 0.08249373733997345 0.6502119898796082
0.5152761340141296 0.08196667581796646 0.6503459215164185
0.5166586637496948 0.0802684798836708 0.6509770154953003
0.5173176527023315 0.07932636886835098 0.6513461470603943
0.518182098865509 0.07903821766376495 0.6513461470603943
0.5194927453994751 0.07716076821088791 0.6520816087722778
0.5201305747032166 0.07617952674627304 0.6524739861488342
0.5205893516540527 0.07465476542711258 0.6531741619110107
0.521902859210968 0.07285120338201523 0.6538708209991455
0.5223553776741028 0.07134118676185608 0.6545652151107788
0.5270554423332214 0.07116537541151047 0.6538548469543457
0.5280337929725647 0.07123509049415588 0.6536527276039124
0.5384226441383362 0.07884592562913895 0.6480005979537964
0.5418264269828796 0.08286231756210327 0.6453712582588196
0.5479388236999512 0.08872292190790176 0.6413401961326599
0.39992812275886536 0.13213622570037842 0.6433044075965881
0.40073975920677185 0.13099637627601624 0.6437491178512573
0.40154898166656494 0.12985961139202118 0.6441933512687683
0.4056401252746582 0.12505216896533966 0.6459569931030273
0.40651771426200867 0.12475959211587906 0.6459569931030273
0.40731585025787354 0.12366893142461777 0.6463800072669983
0.410785973072052 0.12216547876596451 0.646557092666626
0.4160189628601074 0.1202150210738182 0.6466628909111023
0.4222116470336914 0.11866842210292816 0.6463974714279175
0.4259123206138611 0.12592044472694397 0.6420514583587646
0.4309321939945221 0.12192365527153015 0.6432415843009949
0.43257299065589905 0.12043366581201553 0.6437240839004517
0.4351601302623749 0.11911169439554214 0.6439597606658936
0.4362523555755615 0.12019699811935425 0.6432173848152161
0.43823742866516113 0.12099087983369827 0.6424718499183655
0.45640063285827637 0.10247433185577393 0.6488552689552307
0.4565238952636719 0.09834279865026474 0.6509506702423096
0.4529901444911957 0.07114970684051514 0.6654818654060364
0.4634569585323334 0.07066703587770462 0.6639424562454224
0.46435773372650146 0.07073307037353516 0.6637547612190247
0.4712938368320465 0.07377906143665314 0.6610100865364075
0.4796779155731201 0.08227609843015671 0.6552266478538513
0.48316261172294617 0.0851701945066452 0.6531491279602051
0.48590710759162903 0.08868378400802612 0.6508811712265015
0.4873000383377075 0.09048014879226685 0.6497231125831604
0.4881668984889984 0.09019120037555695 0.6497231125831604
0.49101608991622925 0.093915656208992 0.6473288536071777
0.4923296272754669 0.0953097939491272 0.6463902592658997
0.49683326482772827 0.09786413609981537 0.6443131566047668
0.4982985854148865 0.09617215394973755 0.6449300646781921
0.49917930364608765 0.09587858617305756 0.6449300646781921
0.5005249381065369 0.09379047155380249 0.6457690000534058
0.5011951923370361 0.0927506685256958 0.6461874842643738
0.5018634796142578 0.09171402454376221 0.6466042995452881
0.5027391910552979 0.09142206609249115 0.6466042995452881
0.5040121674537659 0.08916176855564117 0.6475447416305542
0.5045952200889587 0.08786206692457199 0.6481112837791443
0.5060464143753052 0.08627765625715256 0.6486746668815613
0.5066235065460205 0.08498817682266235 0.6492363810539246
0.5071987509727478 0.0837038978934288 0.6497961282730103
0.5078898668289185 0.0828227549791336 0.6501296162605286
0.5086938142776489 0.08232651650905609 0.6502467393875122
0.5103616714477539 0.08154192566871643 0.6503636240959167
0.5127424001693726 0.0799793228507042 0.6507577896118164
0.514357328414917 0.0790410190820694 0.6509621143341064
0.5156755447387695 0.07716646045446396 0.6516973376274109
0.5163324475288391 0.07623255997896194 0.6520639061927795
0.517192542552948 0.07594586163759232 0.6520639061927795
0.5184990167617798 0.07408542931079865 0.6527939438819885
0.5189936757087708 0.07267659157514572 0.6534305810928345
0.5194525718688965 0.07116907089948654 0.6541244387626648
0.5203065872192383 0.0708843469619751 0.6541244387626648
0.523041844367981 0.07054965943098068 0.6538293361663818
0.5240151286125183 0.07061877846717834 0.6536276936531067
0.5355090498924255 0.076100192964077 0.6488574147224426
0.5363783836364746 0.07581040263175964 0.6488574147224426
0.5380556583404541 0.07778814435005188 0.647558331489563
0.5397468209266663 0.0797807052731514 0.6462489366531372
0.541452169418335 0.08179018646478653 0.6449285745620728
0.5431729555130005 0.0838179886341095 0.6435959935188293
0.5440574884414673 0.08352313935756683 0.6435959935188293
0.5457971096038818 0.0855674296617508 0.64225172996521
0.5475512146949768 0.08762781322002411 0.6408966183662415
0.39972084760665894 0.13098427653312683 0.6428700089454651
0.40053170919418335 0.12984727323055267 0.6433156132698059
0.4022219777107239 0.12841947376728058 0.6437599062919617
0.4030270576477051 0.1272893100976944 0.6442029476165771
0.4072454869747162 0.12397996336221695 0.6451811790466309
0.40811887383461 0.12364769726991653 0.6452022194862366
0.41074320673942566 0.1226901262998581 0.6452450752258301
0.4124893248081207 0.1220252737402916 0.645287275314331
0.4133623242378235 0.1216929480433464 0.6453089118003845
0.41424593329429626 0.12145689129829407 0.6452787518501282
0.41601088643074036 0.12096244096755981 0.6452306509017944
0.4186762571334839 0.12035714834928513 0.6450849175453186
0.42044341564178467 0.11986266821622849 0.6450362801551819
0.4223925769329071 0.1281244307756424 0.6404566168785095
0.42322662472724915 0.1273781657218933 0.6406965255737305
0.42405980825424194 0.12663328647613525 0.6409371495246887
0.425780713558197 0.12559302151203156 0.6411767601966858
0.42661020159721375 0.12485060840845108 0.6414161920547485
0.42826563119888306 0.1233687624335289 0.6418939828872681
0.4345110058784485 0.12154026329517365 0.6417636275291443
0.4356136620044708 0.12268344312906265 0.6409873366355896
0.45323044061660767 0.07264623790979385 0.6636870503425598
0.45482832193374634 0.07184343785047531 0.6638261675834656
0.45654287934303284 0.07162045687437057 0.6636466979980469
0.45706531405448914 0.06987913697957993 0.6644526720046997
0.45974674820899963 0.07007569074630737 0.6638920903205872
0.4605705142021179 0.06980109959840775 0.6638920903205872
0.46236497163772583 0.06993240863084793 0.6635170578956604
0.46499019861221313 0.06978907436132431 0.6631408929824829
0.4667954444885254 0.0699206069111824 0.6627642512321472
0.4694333076477051 0.06977608054876328 0.6623864769935608
0.47230830788612366 0.07445049285888672 0.6594916582107544
0.47382059693336487 0.07704851776361465 0.6578970551490784
0.4748671054840088 0.07763739675283432 0.6574146747589111
0.4782054126262665 0.08014824986457825 0.6555527448654175
0.4808080792427063 0.0832817479968071 0.6534960865974426
0.4843396246433258 0.08630242198705673 0.6513386964797974
0.48711246252059937 0.08987535536289215 0.6490270495414734
0.4893522262573242 0.09126632660627365 0.6479279398918152
0.49324002861976624 0.0952635258436203 0.6452078819274902
0.4941176176071167 0.09497100114822388 0.6452078819274902
0.4962764084339142 0.09589291363954544 0.6443639993667603
0.4976292550563812 0.09380660206079483 0.6452048420906067
0.4985068440437317 0.09351407736539841 0.6452048420906067
0.49975740909576416 0.09110571444034576 0.6462284326553345
0.5003494024276733 0.0898001566529274 0.646797776222229
0.5023972988128662 0.08691421151161194 0.6479306817054749
0.5029810667037964 0.08562376350164413 0.6484936475753784
0.5041424036026001 0.08305766433477402 0.6496135592460632
0.5055832862854004 0.08149383217096329 0.6501706838607788
0.5062320232391357 0.08047772943973541 0.650581419467926
0.5070331692695618 0.07998445630073547 0.6506979465484619
0.5086947083473206 0.0792040228843689 0.6508141160011292
0.5102930068969727 0.0782192051410675 0.6510464549064636
0.5110893249511719 0.07772091031074524 0.6511663198471069
0.5127292275428772 0.07688537985086441 0.6513145565986633
0.513388454914093 0.07595304399728775 0.6516806483268738
0.5140464305877686 0.07502303272485733 0.6520463228225708
0.5153567790985107 0.07316926121711731 0.6527743339538574
0.5162125825881958 0.07288399338722229 0.6527743339538574
0.5167934894561768 0.07173928618431091 0.6532634496688843
0.517116367816925 0.06980075687170029 0.6542043089866638
0.518081784248352 0.06986943632364273 0.6540035009384155
0.5190488696098328 0.06993839889764786 0.6538028120994568
0.5208702087402344 0.06972196698188782 0.6536018252372742
0.5228116512298584 0.069858618080616 0.6531987190246582
0.5246392488479614 0.06964217871427536 0.6529967784881592
0.5265899300575256 0.06977967917919159 0.6525921821594238
0.5285457968711853 0.06991687417030334 0.652186930179596
0.5303835868835449 0.0696997418999672 0.6519829630851746
0.5320451855659485 0.07171644270420074 0.6506618857383728
0.5334925055503845 0.07309875637292862 0.6497032046318054
0.5351476073265076 0.07505127787590027 0.6484165787696838
0.5376896262168884 0.07673286646604538 0.6471171379089355
0.5393766760826111 0.07871759682893753 0.6458074450492859
0.5454148650169373 0.08448389172554016 0.6418090462684631
0.39870187640190125 0.1309722512960434 0.6419909000396729
0.39951440691947937 0.129834845662117 0.6424378752708435
0.40113216638565063 0.1275699883699417 0.643327534198761
0.40201282501220703 0.1272764354944229 0.643327534198761
0.4036914110183716 0.12580136954784393 0.6437997221946716
0.4045668840408325 0.12546880543231964 0.6438210606575012
0.4063214957714081 0.12484246492385864 0.6438428163528442
0.4080718159675598 0.1241760104894638 0.6438859105110168
0.40894660353660583 0.12384266406297684 0.6439066529273987
0.4107001721858978 0.12321653217077255 0.643928050994873
0.4124610126018524 0.12265703827142715 0.6439139246940613
0.41423943638801575 0.12225364148616791 0.6438168287277222
0.4151187241077423 0.12196055054664612 0.6438168287277222
0.416008323431015 0.12175848335027695 0.6437675356864929
0.41969388723373413 0.12958955764770508 0.6390954256057739
0.4205867052078247 0.1292921006679535 0.6390954256057739
0.42225968837738037 0.12779653072357178 0.6395789384841919
0.4273071587085724 0.1237814649939537 0.6407818794250488
0.4307868182659149 0.12208489328622818 0.6410589218139648
0.4330321252346039 0.12475360184907913 0.6392966508865356
0.4557526409626007 0.07232759892940521 0.6624289751052856
0.4565783143043518 0.0720524713397026 0.6624289751052856
0.45780858397483826 0.069471575319767 0.6635487675666809
0.45866161584854126 0.06934289634227753 0.6634681820869446
0.46750420331954956 0.0693158358335495 0.6619619131088257
0.46840909123420715 0.0693812295794487 0.661773145198822
0.4701433777809143 0.06917095929384232 0.661583423614502
0.47669869661331177 0.07784923166036606 0.6559802293777466
0.47802984714508057 0.07958169281482697 0.654857873916626
0.4793218970298767 0.08112411946058273 0.6538404226303101
0.48280200362205505 0.08400875329971313 0.6517541408538818
0.48415449261665344 0.08570381253957748 0.6506476402282715
0.4854937493801117 0.08731994032859802 0.6495837569236755
0.4902949631214142 0.0913807600736618 0.6466636657714844
0.49156224727630615 0.0926089957356453 0.6458128690719604
0.49273625016212463 0.09346169233322144 0.6451711058616638
0.49547362327575684 0.0930023044347763 0.6449373960494995
0.49607032537460327 0.09167461842298508 0.6455196142196655
0.49666494131088257 0.09035205096006393 0.6460994482040405
0.4981280267238617 0.08874410390853882 0.6466772556304932
0.49871599674224854 0.08743170648813248 0.6472525000572205
0.49988606572151184 0.08482255786657333 0.6483970284461975
0.5007520318031311 0.08453385531902313 0.6483970284461975
0.5013323426246643 0.08323723077774048 0.6489665508270264
0.5019099712371826 0.08194544166326523 0.6495335102081299
0.5023585557937622 0.08021558076143265 0.6503488421440125
0.502796471118927 0.07846769690513611 0.6511745452880859
0.5042809247970581 0.07710356265306473 0.6516228914260864
0.5058203339576721 0.07594424486160278 0.6519560217857361
0.5066409111022949 0.07554081082344055 0.6520229578018188
0.5083165764808655 0.07485254108905792 0.6520898938179016
0.5098928213119507 0.07384054362773895 0.6523412466049194
0.5104542970657349 0.07260002940893173 0.6528844237327576
0.5118650197982788 0.07108010351657867 0.6534258127212524
0.5124208331108093 0.06984912604093552 0.6539649963378906
0.5131537914276123 0.06919295340776443 0.6541778445243835
0.5141141414642334 0.06926070898771286 0.6539771556854248
0.5168901085853577 0.06911312788724899 0.6535763144493103
0.526357889175415 0.06908801943063736 0.651961624622345
0.528312087059021 0.06922416388988495 0.6515553593635559
0.5316241383552551 0.07049112766981125 0.6503322720527649
0.5347867012023926 0.0740046352148056 0.6479769945144653
0.5356540083885193 0.07371553033590317 0.6479769945144653
0.5373243689537048 0.07567992806434631 0.6466764211654663
0.5390076041221619 0.07765720784664154 0.6453673839569092
0.540706217288971 0.07965344190597534 0.6440463066101074
0.5424193143844604 0.08166702836751938 0.6427126526832581
0.545033872127533 0.08340249210596085 0.64136803150177
0.5467799305915833 0.08544590324163437 0.6400142312049866
0.3967975676059723 0.1312551200389862 0.641111433506012
0.39849621057510376 0.1298224925994873 0.641559362411499
0.40451350808143616 0.12600095570087433 0.642499566078186
0.41600555181503296 0.1225581169128418 0.6422987580299377
0.417880117893219 0.13076184689998627 0.6377295255661011
0.41872087121009827 0.13001114130020142 0.637973427772522
0.42379504442214966 0.1259773224592209 0.6391856670379639
0.4246852397918701 0.1256805807352066 0.6391856670379639
0.42634686827659607 0.12419457733631134 0.6396678686141968
0.4271758794784546 0.12345360964536667 0.6399081349372864
0.4281419515609741 0.12373079359531403 0.6395981311798096
0.43011531233787537 0.1245381310582161 0.6388397812843323
0.43133044242858887 0.1265370100736618 0.6375960111618042
0.4548426866531372 0.07245399802923203 0.6615289449691772
0.45651715993881226 0.07201097160577774 0.6614698767662048
0.45836520195007324 0.07240188121795654 0.6609482765197754
0.4637778699398041 0.06872668117284775 0.6619171500205994
0.4646029770374298 0.0684516429901123 0.6619171500205994
0.4726724326610565 0.0686984434723854 0.6603971123695374
0.47441336512565613 0.06848759949207306 0.6602057814598083
0.4762400686740875 0.06861919909715652 0.6598222851753235
0.4789038300514221 0.06847340613603592 0.6594385504722595
0.48644113540649414 0.08749863505363464 0.6482921838760376
0.4886302053928375 0.08871391415596008 0.6472852230072021
0.4910646677017212 0.09082186222076416 0.6457743048667908
0.4922347068786621 0.09166917204856873 0.6451338529586792
0.49440327286720276 0.08911216259002686 0.6460837721824646
0.4949980676174164 0.08779994398355484 0.6466597318649292
0.4964580833911896 0.08620405197143555 0.647234320640564
0.4970467686653137 0.08490263670682907 0.6478063464164734
0.4975772500038147 0.08340276777744293 0.6484907865524292
0.4980299472808838 0.081639863550663 0.6493251323699951
0.4984779357910156 0.07987792789936066 0.6501599550247192
0.4996177554130554 0.07726945728063583 0.6513129472732544
0.4990445375442505 0.07198192924261093 0.6541481614112854
0.500043511390686 0.07222671061754227 0.6538493037223816
0.5028391480445862 0.07223595678806305 0.6533620357513428
0.5036746859550476 0.0719054564833641 0.6533887982368469
0.5045104026794434 0.07157506048679352 0.6534159779548645
0.5061435699462891 0.07079055160284042 0.6535400152206421
0.5075328946113586 0.06920665502548218 0.6541200280189514
0.5082577466964722 0.06852181255817413 0.6543499231338501
0.5100588798522949 0.06830644607543945 0.6541500091552734
0.5110145211219788 0.06837309896945953 0.653950572013855
0.5223519802093506 0.06847866624593735 0.651940643787384
0.5241778492927551 0.06826155632734299 0.6517384052276611
0.5312120318412781 0.06929044425487518 0.6499924063682556
0.5327811241149902 0.07102735340595245 0.6488228440284729
0.5403342843055725 0.07858876138925552 0.6436063051223755
0.39577722549438477 0.13124291598796844 0.6402311325073242
0.39747798442840576 0.12981022894382477 0.6406808495521545
0.4000629186630249 0.12816736102104187 0.6410864591598511
0.40094196796417236 0.1278330534696579 0.6411082744598389
0.4027028977870941 0.12720422446727753 0.6411293148994446
0.40445980429649353 0.1265350580215454 0.6411729454994202
0.40622037649154663 0.12590652704238892 0.6411949992179871
0.40888074040412903 0.12516307830810547 0.6411201357841492
0.4106552302837372 0.12466687709093094 0.6410706639289856
0.4124402105808258 0.12426234781742096 0.6409722566604614
0.415164053440094 0.1322365403175354 0.6363596320152283
0.4185868203639984 0.12968215346336365 0.6370931267738342
0.42031970620155334 0.1286350041627884 0.6373374462127686
0.421157568693161 0.12788696587085724 0.6375807523727417
0.4274570345878601 0.12619496881961823 0.6373691558837891
0.42872190475463867 0.1286296546459198 0.6358857154846191
0.4584585726261139 0.07310112565755844 0.6595746278762817
0.4595121443271637 0.0696740597486496 0.6611716747283936
0.46033722162246704 0.06939902901649475 0.6611716747283936
0.46268633008003235 0.06799425929784775 0.6614948511123657
0.4644094407558441 0.06778398156166077 0.6613056659698486
0.4662114083766937 0.06791413575410843 0.6609258651733398
0.4688448905944824 0.06776868551969528 0.660545825958252
0.470657080411911 0.0678984671831131 0.6601646542549133
0.47156527638435364 0.06796368956565857 0.6599739193916321
0.4724743068218231 0.06802862882614136 0.6597827672958374
0.47330334782600403 0.06775227934122086 0.6597827672958374
0.47421449422836304 0.067817822098732 0.6595907807350159
0.4760397672653198 0.06794842332601547 0.6592068672180176
0.4787019193172455 0.0678018257021904 0.6588224768638611
0.4805382192134857 0.06793279200792313 0.6584362983703613
0.48229146003723145 0.06772024184465408 0.6582431197166443
0.48413631319999695 0.06785202771425247 0.6578556299209595
0.48682162165641785 0.06770461052656174 0.6574670672416687
0.48867732286453247 0.06783606112003326 0.6570779085159302
0.4905376434326172 0.06796782463788986 0.6566872596740723
0.49230849742889404 0.06775439530611038 0.6564919352531433
0.4941776990890503 0.0678863450884819 0.6560995578765869
0.49511411786079407 0.06795243918895721 0.6559031009674072
0.4968926012516022 0.06773842871189117 0.6557067632675171
0.49877282977104187 0.06787067651748657 0.6553118824958801
0.5005573630332947 0.06765617430210114 0.6551147103309631
0.5024464130401611 0.06778861582279205 0.6547192335128784
0.504340410232544 0.06792137771844864 0.6543217301368713
0.5061346888542175 0.06770586222410202 0.6541234254837036
0.5070852637290955 0.067772276699543 0.653924286365509
0.508037269115448 0.06783844530582428 0.6537250876426697
0.5107926726341248 0.06768877804279327 0.6533260941505432
0.5127067565917969 0.0678216964006424 0.6529256105422974
0.5145152807235718 0.06760542839765549 0.6527252197265625
0.5164387226104736 0.06773969531059265 0.6523222923278809
0.5183672308921814 0.0678730234503746 0.6519194841384888
0.5201852917671204 0.06765568256378174 0.6517176032066345
0.5221227407455444 0.06778965145349503 0.6513123512268066
0.5249201059341431 0.06763967126607895 0.6509063839912415
0.526868999004364 0.06777345389127731 0.6504993438720703
0.5287018418312073 0.06755539029836655 0.650295078754425
0.5340674519538879 0.07191852480173111 0.647100567817688
0.5365963578224182 0.07358144968748093 0.645799458026886
0.5382727384567261 0.07554590702056885 0.6444891095161438
0.5399635434150696 0.07752681523561478 0.6431671977043152
0.5416696667671204 0.0795263946056366 0.6418339610099792
0.5425498485565186 0.07923295348882675 0.6418339610099792
