ply
format ascii 1.0
element vertex 817
property float x
property float y
property float z
end_header
0.4097863435745239 0.028700780123472214 0.6878076195716858
0.4087795913219452 0.03203468397259712 0.6888943314552307
0.40420201420783997 0.03309608995914459 0.6872527003288269
0.39884817600250244 0.032138921320438385 0.6843056678771973
0.3962750732898712 0.0321437232196331 0.6831063032150269
0.39406582713127136 0.031585291028022766 0.6818140149116516
0.3918627202510834 0.031038332730531693 0.6805299520492554
0.388105183839798 0.030361035838723183 0.678459107875824
0.3854188024997711 0.029543176293373108 0.6768229007720947
0.3819361627101898 0.03471953421831131 0.6776136755943298
0.37363946437835693 0.03872237727046013 0.67560875415802
0.3697162866592407 0.03732016682624817 0.673122227191925
0.415113240480423 0.0040695504285395145 0.6779438853263855
0.4135502576828003 0.014088346622884274 0.6819045543670654
0.41162168979644775 0.024359583854675293 0.6858125329017639
0.41011983156204224 0.03061763197183609 0.6880403161048889
0.40669530630111694 0.033192265778779984 0.6876422762870789
0.4028434753417969 0.03314846381545067 0.6858174204826355
0.3992508053779602 0.03250206261873245 0.683832049369812
0.39480480551719666 0.032154981046915054 0.6815865635871887
0.39029282331466675 0.031003456562757492 0.6789340972900391
0.38671737909317017 0.03044942580163479 0.6769997477531433
0.383806049823761 0.031126627698540688 0.6759530901908875
0.3802540898323059 0.04022028669714928 0.6785489320755005
0.3774776756763458 0.04022447019815445 0.6772504448890686
0.37482553720474243 0.03952297568321228 0.6756796836853027
0.3717087507247925 0.03857099637389183 0.6737739443778992
0.3677493929862976 0.03716088458895683 0.6712586283683777
0.35223013162612915 0.030183516442775726 0.6607213020324707
0.41154125332832336 0.026028651744127274 0.6857320666313171
0.4100427031517029 0.0322616770863533 0.6879565715789795
0.40902945399284363 0.03319791704416275 0.6879205107688904
0.3933420479297638 0.032177459448575974 0.6800699830055237
0.3906301259994507 0.03213205188512802 0.6787742376327515
0.3882049024105072 0.03146902471780777 0.6773233413696289
0.3838607668876648 0.03209114447236061 0.6755744218826294
0.3789549171924591 0.04040350392460823 0.6771749258041382
0.37581002712249756 0.04021013528108597 0.6756065487861633
0.3697599768638611 0.038418274372816086 0.671921968460083
0.365764319896698 0.03700019791722298 0.6693779826164246
0.35065850615501404 0.03029310144484043 0.6591289043426514
0.41593679785728455 0.010014703497290611 0.6794294714927673
0.40661442279815674 0.03414927423000336 0.6864111423492432
0.4050840735435486 0.03397943079471588 0.6856096386909485
0.40190252661705017 0.033579021692276 0.6839212775230408
0.3977884352207184 0.03342075273394585 0.6819074749946594
0.39411112666130066 0.03276466578245163 0.6798651218414307
0.38914501667022705 0.03215748816728592 0.6772382855415344
0.3866204619407654 0.031442686915397644 0.6757115721702576
0.3824584484100342 0.04016432166099548 0.6778605580329895
0.3817123472690582 0.04052537679672241 0.6776791214942932
0.3767909109592438 0.04089471697807312 0.6755335330963135
0.37412866950035095 0.04019550606608391 0.673949122428894
0.36779314279556274 0.038264062255620956 0.6700524687767029
0.41576340794563293 0.012533255852758884 0.679693341255188
0.4117898941040039 0.029615135863423347 0.6858911514282227
0.4087320566177368 0.03401380032300949 0.6865248084068298
0.4073016047477722 0.03390059247612953 0.6857951283454895
0.40681663155555725 0.03438563272356987 0.6857951283454895
0.4052862226963043 0.03421640768647194 0.6849915385246277
0.4037468135356903 0.03404628857970238 0.6841831803321838
0.40221983194351196 0.03388875722885132 0.6833866238594055
0.4000363349914551 0.03412453830242157 0.6824657917022705
0.39821934700012207 0.033800963312387466 0.6814536452293396
0.39262452721595764 0.032778315246105194 0.6783250570297241
0.3876487612724304 0.032183095812797546 0.675690770149231
0.3839491605758667 0.03640400618314743 0.6759374737739563
0.38187140226364136 0.039959944784641266 0.6766363382339478
0.3794861435890198 0.040969230234622955 0.6759854555130005
0.37243425846099854 0.04018091782927513 0.672278642654419
0.3652905821800232 0.03862588852643967 0.6681658625602722
0.3489110767841339 0.03046114183962345 0.6565613150596619
0.41001930832862854 0.03414749726653099 0.6863765120506287
0.40877190232276917 0.03414704278111458 0.6857848167419434
0.4039492905139923 0.03428412228822708 0.6835626363754272
0.4008750021457672 0.033962126821279526 0.681951642036438
0.40038397908210754 0.03445320576429367 0.681951642036438
0.39864999055862427 0.03418098762631416 0.6810003519058228
0.3968217372894287 0.033856477588415146 0.6799792647361755
0.3932036757469177 0.033249031752347946 0.6779752373695374
0.3906395435333252 0.03330060839653015 0.6767835021018982
0.388401597738266 0.032757390290498734 0.6754644513130188
0.38430172204971313 0.03832549229264259 0.6761608719825745
0.38328155875205994 0.038528237491846085 0.6757732033729553
0.3812818229198456 0.03975467383861542 0.675406277179718
0.38053157925605774 0.040117308497428894 0.6752225160598755
0.376101016998291 0.04156775027513504 0.6738089323043823
0.37072622776031494 0.04016607627272606 0.6705950498580933
0.3673216700553894 0.03988277167081833 0.6688458919525146
0.3632843494415283 0.0384712815284729 0.6662617921829224
0.34731748700141907 0.0305738877505064 0.6549433469772339
0.41599640250205994 0.016251347959041595 0.6798842549324036
0.4135507643222809 0.02694927155971527 0.6838104128837585
0.41236621141433716 0.03258718550205231 0.6859291195869446
0.4118756055831909 0.03306500241160393 0.6859230399131775
0.41088539361953735 0.034015022218227386 0.6859039068222046
0.4056656062602997 0.03467494249343872 0.6837344765663147
0.3972545862197876 0.034237783402204514 0.6795249581336975
0.3931148946285248 0.034114718437194824 0.6774968504905701
0.3799365758895874 0.03991168364882469 0.6739851236343384
0.3791831135749817 0.04027555137872696 0.6737998127937317
0.36849072575569153 0.040665194392204285 0.6688980460166931
0.3653339147567749 0.03973465785384178 0.6669533252716064
0.3612595498561859 0.03831532225012779 0.6643397808074951
0.34571340680122375 0.03068760223686695 0.6533144116401672
0.41395312547683716 0.0281232800334692 0.6837336421012878
0.4075181484222412 0.034364067018032074 0.6836410164833069
0.4028065800666809 0.0345909558236599 0.6815006136894226
0.39921504259109497 0.034758809953927994 0.6798668503761292
0.3958494961261749 0.03429505228996277 0.6780392527580261
0.39402273297309875 0.03398379683494568 0.6770191192626953
0.3917025625705719 0.034182559698820114 0.6760064959526062
0.38803690671920776 0.033588528633117676 0.6739736795425415
0.3871990144252777 0.03389314189553261 0.6737191677093506
0.386694997549057 0.03439722955226898 0.6737191677093506
0.38135215640068054 0.03847187012434006 0.6731138825416565
0.3756612539291382 0.04159519821405411 0.6718884706497192
0.3727263808250427 0.04154934361577034 0.6704661846160889
0.37221643328666687 0.042059365659952164 0.6704661846160889
0.36672112345695496 0.0406348891556263 0.6671634912490845
0.36332806944847107 0.03958531841635704 0.6650434136390686
0.3592146039009094 0.038157351315021515 0.6623988747596741
0.41780605912208557 0.013485023751854897 0.6777421832084656
0.4168024957180023 0.0186677984893322 0.6797427535057068
0.4153248965740204 0.02426351048052311 0.6817141175270081
0.41200143098831177 0.034148264676332474 0.6848554611206055
0.40889325737953186 0.0345483236014843 0.6835587620735168
0.4043901562690735 0.03489408642053604 0.6815686225891113
0.3962840437889099 0.0346774123609066 0.6775842905044556
0.3944346606731415 0.03435267135500908 0.6765434145927429
0.39211398363113403 0.034550990909338 0.6755275726318359
0.3902807831764221 0.034250881522893906 0.6745062470436096
0.38865819573402405 0.034082867205142975 0.6736488342285156
0.38660919666290283 0.036074232310056686 0.6736214756965637
0.3839011490345001 0.03927312418818474 0.6738564372062683
0.3794950544834137 0.03913246467709541 0.671679675579071
0.37798017263412476 0.03986287862062454 0.6713042855262756
0.37722116708755493 0.04022875055670738 0.6711159348487854
0.37050706148147583 0.04205215722322464 0.6687746047973633
0.36492133140563965 0.04059577360749245 0.6654032468795776
0.3613026440143585 0.039434392005205154 0.6631147861480713
0.3566230237483978 0.038525111973285675 0.6604393124580383
0.41972577571868896 0.008964570239186287 0.6756470799446106
0.4191393554210663 0.010259211994707584 0.6759871244430542
0.41564375162124634 0.02620588056743145 0.6819663047790527
0.4141104519367218 0.032435473054647446 0.684221625328064
0.4102635383605957 0.034731797873973846 0.683476984500885
0.40165525674819946 0.03489992395043373 0.6794238686561584
0.39803776144981384 0.035066649317741394 0.6777667999267578
0.38440951704978943 0.0396951287984848 0.6734446883201599
0.3766128420829773 0.04002160206437111 0.6698575615882874
0.3753415048122406 0.04089827463030815 0.6696680188179016
0.37372732162475586 0.04158735275268555 0.6692237257957458
0.3723243474960327 0.042397577315568924 0.6689391136169434
0.3687836527824402 0.042044732719659805 0.6670693159103394
0.36602580547332764 0.041339557617902756 0.6654064655303955
0.36310604214668274 0.04055614396929741 0.6636279821395874
0.3587334454059601 0.039806950837373734 0.6611685156822205
0.41768762469291687 0.020296424627304077 0.679271936416626
0.41702860593795776 0.022325636819005013 0.6799318790435791
0.4146682024002075 0.032103776931762695 0.6835052371025085
0.4135253429412842 0.03375089913606644 0.6837482452392578
0.4130149781703949 0.03421607241034508 0.6837262511253357
0.4076369106769562 0.034767281264066696 0.6814010739326477
0.40310466289520264 0.03511499613523483 0.6793854236602783
0.3950941860675812 0.03499056398868561 0.675466775894165
0.3911065459251404 0.03498988226056099 0.6735454797744751
0.3867979049682617 0.04040983319282532 0.674081027507782
0.3849175274372101 0.04011678323149681 0.6730340719223022
0.38289493322372437 0.03974844142794609 0.6718822121620178
0.3823906481266022 0.04025277495384216 0.6718822121620178
0.38034921884536743 0.03988341987133026 0.6707211136817932
0.37829047441482544 0.039510950446128845 0.6695499420166016
0.37676531076431274 0.03944598138332367 0.6687837839126587
0.3722808063030243 0.04172025993466377 0.6677191853523254
0.371768981218338 0.04223214462399483 0.6677191853523254
0.3670467138290405 0.04203740879893303 0.6653504371643066
0.3642674386501312 0.04132933169603348 0.6636709570884705
0.36075326800346375 0.04103873670101166 0.6618378758430481
0.35666733980178833 0.03965572640299797 0.6592035293579102
0.34010159969329834 0.031639110296964645 0.6473621726036072
0.419941246509552 0.012717233039438725 0.6758589744567871
0.41595470905303955 0.029039334505796432 0.6818193793296814
0.4101015031337738 0.03484499827027321 0.6817966103553772
0.4089248478412628 0.0348944291472435 0.6812516450881958
0.40584298968315125 0.035341471433639526 0.6799788475036621
0.4017839729785919 0.035208068788051605 0.6779530048370361
0.39685186743736267 0.03537674993276596 0.6756510734558105
0.3932025134563446 0.03556831553578377 0.6739802956581116
0.38870441913604736 0.03608626872301102 0.6720572113990784
0.380863219499588 0.040308136492967606 0.6703081130981445
0.37672725319862366 0.03955947980284691 0.6679480671882629
0.37538737058639526 0.039604172110557556 0.6673222184181213
0.37487587332725525 0.04011573642492294 0.6673222184181213
0.3717723786830902 0.04157944396138191 0.6665299534797668
0.3694942593574524 0.042715951800346375 0.6659783124923706
0.3652955889701843 0.042029883712530136 0.6636178493499756
0.3587764501571655 0.040931858122348785 0.65993732213974
0.35458093881607056 0.039502888917922974 0.6572195887565613
0.3378964960575104 0.032308898866176605 0.6456812024116516
0.41782429814338684 0.024700529873371124 0.6797916293144226
0.40763840079307556 0.03498820960521698 0.6798409819602966
0.4031672775745392 0.03538089990615845 0.6778640747070312
0.3985994756221771 0.03576067462563515 0.6758343577384949
0.3904404640197754 0.035638757050037384 0.6718204617500305
0.3896801173686981 0.03598786145448685 0.6716209053993225
0.3891771733760834 0.036490678787231445 0.6716209053993225
0.3793247938156128 0.04036405682563782 0.6687229871749878
0.3734879195690155 0.04027670621871948 0.6658515334129333
0.37194564938545227 0.041017938405275345 0.6654634475708008
0.36632004380226135 0.0427280031144619 0.6635655760765076
0.36300984025001526 0.04254280775785446 0.6618713140487671
0.35670995712280273 0.04078594967722893 0.657966136932373
0.35247400403022766 0.039348166435956955 0.6552161574363708
0.35194167494773865 0.03988061472773552 0.6552161574363708
0.3362286388874054 0.032430753111839294 0.643989086151123
0.41601860523223877 0.032492198050022125 0.6818655133247375
0.4155353903770447 0.03297547623515129 0.6818655133247375
0.41370654106140137 0.034182216972112656 0.6815630197525024
0.40871140360832214 0.03497840091586113 0.6795215606689453
0.40456530451774597 0.03556529060006142 0.6777909398078918
0.3956570029258728 0.03568913787603378 0.673520028591156
0.3951587378978729 0.036187514662742615 0.673520028591156
0.3935777544975281 0.0360359288752079 0.672677755355835
0.39012423157691956 0.03637556731700897 0.6711636781692505
0.38910600543022156 0.03817059099674225 0.6715413928031921
0.3756919205188751 0.04004760459065437 0.6659320592880249
0.3705417513847351 0.041182346642017365 0.6639797687530518
0.36924949288368225 0.04207070544362068 0.6637834310531616
0.36404260993003845 0.04324270412325859 0.6618216633796692
0.3612278401851654 0.04253732040524483 0.6601100564002991
0.354623943567276 0.04063858464360237 0.6559760570526123
0.3345491886138916 0.03255356475710869 0.6422848105430603
0.41451191902160645 0.034009937196969986 0.6810416579246521
0.41093480587005615 0.03490348160266876 0.6797325611114502
0.40187138319015503 0.035606179386377335 0.6756551265716553
0.40137773752212524 0.03609970957040787 0.6756551265716553
0.3986436426639557 0.036022599786520004 0.6742842793464661
0.39727330207824707 0.03598799929022789 0.6735988259315491
0.39217478036880493 0.036118023097515106 0.6711758375167847
0.38944363594055176 0.040082745254039764 0.6717773675918579
0.38580983877182007 0.04585571214556694 0.6728206276893616
0.3853113353252411 0.04635434225201607 0.6728206276893616
0.3699074685573578 0.040974363684654236 0.6626843810081482
0.3668770492076874 0.04252006858587265 0.6619601845741272
0.35943174362182617 0.04253184795379639 0.6583349704742432
0.35584259033203125 0.04224240779876709 0.6564432382583618
0.35198527574539185 0.04102235287427902 0.6539669632911682
0.3343810439109802 0.03262612223625183 0.6412863731384277
0.419524610042572 0.023678340017795563 0.6776084303855896
0.4194379448890686 0.02444177120923996 0.6779394149780273
0.4183520972728729 0.030218536034226418 0.6802341938018799
0.4132572114467621 0.03410493582487106 0.6796432137489319
0.4085032045841217 0.03506668657064438 0.6777879595756531
0.40730902552604675 0.035112980753183365 0.6772263646125793
0.40323618054389954 0.03576553985476494 0.6755532026290894
0.3986659049987793 0.036153875291347504 0.6735072731971741
0.397294282913208 0.036119572818279266 0.6728193163871765
0.3901866674423218 0.03825998678803444 0.6703895926475525
0.3872489631175995 0.04601838067173958 0.6727478504180908
0.3833979666233063 0.04620088264346123 0.670953094959259
0.3720141351222992 0.040674902498722076 0.6626806259155273
0.3700501024723053 0.040391743183135986 0.6615812182426453
0.3692702353000641 0.04076539725065231 0.6613825559616089
0.3679709732532501 0.0416581854224205 0.661183774471283
0.36320266127586365 0.04388587549328804 0.659940779209137
0.3604796230792999 0.04323748126626015 0.6582915186882019
0.3575729727745056 0.04250112920999527 0.6565091609954834
0.353954017162323 0.04220898076891899 0.6545959711074829
0.3498561382293701 0.04087470844388008 0.6519386768341064
0.3326922059059143 0.03275298699736595 0.6395683288574219
0.42214375734329224 0.014723079279065132 0.6736581921577454
0.4213387072086334 0.02004997245967388 0.675877034664154
0.41868358850479126 0.030537346377968788 0.6797205805778503
0.4178161919116974 0.031572237610816956 0.6798028945922852
0.41741663217544556 0.03211173042654991 0.6798716187477112
0.41509538888931274 0.03379856422543526 0.6795602440834045
0.4104669392108917 0.034823037683963776 0.6777916550636292
0.40551111102104187 0.03569541871547699 0.6757878065109253
0.4000695049762726 0.03632883355021477 0.6734283566474915
0.3959362506866455 0.03621719777584076 0.6713452339172363
0.39190495014190674 0.03700409457087517 0.6697531342506409
0.39091673493385315 0.03801754117012024 0.6697655320167542
0.39051681756973267 0.040169402956962585 0.6706254482269287
0.3898552656173706 0.042155731469392776 0.6712755560874939
0.3862062692642212 0.04634404554963112 0.6715400815010071
0.38570746779441833 0.04684290289878845 0.6715400815010071
0.36732661724090576 0.041450269520282745 0.6598740220069885
0.3657556474208832 0.04220237582921982 0.6594721078872681
0.3586762845516205 0.04323490709066391 0.6565046906471252
0.35516777634620667 0.04299837350845337 0.6546670198440552
0.3520274758338928 0.042163871228694916 0.6527165174484253
0.3477056622505188 0.04072531685233116 0.6498897671699524
0.3309919834136963 0.032880865037441254 0.63783860206604
0.4138409495353699 0.033893126994371414 0.6781551837921143
0.41280511021614075 0.03402717784047127 0.6777113080024719
0.4081534743309021 0.035066958516836166 0.6759335398674011
0.40709659457206726 0.03520197421312332 0.6754797101020813
0.40299585461616516 0.035846173763275146 0.6737784147262573
0.4017924666404724 0.03590379282832146 0.6732142567634583
0.39871659874916077 0.03642099350690842 0.6719548106193542
0.39733651280403137 0.03638320788741112 0.671256959438324
0.3940684199333191 0.03681638464331627 0.6698614358901978
0.39296281337738037 0.03695641830563545 0.6693862080574036
0.3903501033782959 0.042569391429424286 0.670863151550293
0.3896118402481079 0.045280396938323975 0.6718339323997498
0.3886491358280182 0.04629306495189667 0.6718587279319763
0.3842145502567291 0.046924665570259094 0.6699867248535156
0.3825127184391022 0.04676099866628647 0.6690685153007507
0.36874690651893616 0.04076187685132027 0.6593394875526428
0.36589178442955017 0.04161795228719711 0.6583553552627563
0.3642837107181549 0.042356591671705246 0.6579275727272034
0.3637615740299225 0.042878780514001846 0.6579275727272034
0.36197933554649353 0.04353060573339462 0.657370924949646
0.35920292139053345 0.04446553438901901 0.6564645767211914
0.35632991790771484 0.04376010596752167 0.6547029614448547
0.34989821910858154 0.04202168434858322 0.6506815552711487
0.3455340564250946 0.04057426005601883 0.6478210687637329
0.4226020574569702 0.016070902347564697 0.6728436350822449
0.4224259555339813 0.018478617072105408 0.6739455461502075
0.4217217266559601 0.02216201089322567 0.6754165291786194
0.42005664110183716 0.028414851054549217 0.6776817440986633
0.41978269815444946 0.029042603448033333 0.6778563261032104
0.4158163368701935 0.0328744500875473 0.677790105342865
0.4135461747646332 0.03380924090743065 0.6771308183670044
0.4100039601325989 0.03474713861942291 0.6758448481559753
0.40408387780189514 0.03583424165844917 0.6734586358070374
0.3923199772834778 0.03829767554998398 0.6688663363456726
0.3915896415710449 0.040255818516016006 0.6694726943969727
0.38099831342697144 0.0468430295586586 0.6674955487251282
0.3665691316127777 0.04132561385631561 0.6576467752456665
0.3652384579181671 0.04140867665410042 0.6570309400558472
0.36050039529800415 0.043696898967027664 0.6558213233947754
0.35963594913482666 0.04404275864362717 0.655565083026886
0.3573903441429138 0.044468000531196594 0.6546664834022522
0.35448890924453735 0.043756674975156784 0.6528825759887695
0.351361483335495 0.04293789342045784 0.6509340405464172
0.3472106158733368 0.04241593927145004 0.6486269235610962
0.3425541818141937 0.04083933308720589 0.6455493569374084
0.4220219850540161 0.024116359651088715 0.6756879687309265
0.41934677958488464 0.030468251556158066 0.6775088906288147
0.4179319143295288 0.03195079043507576 0.677542507648468
0.41719529032707214 0.03227147459983826 0.6773363947868347
0.4122864305973053 0.033907994627952576 0.6757155060768127
0.4076665937900543 0.03498244658112526 0.6739598512649536
0.40275630354881287 0.035928428173065186 0.6719962954521179
0.40154752135276794 0.035985127091407776 0.6714258193969727
0.40105152130126953 0.03648119047284126 0.6714258193969727
0.3973878026008606 0.03665313124656677 0.6696963906288147
0.39208483695983887 0.04067157581448555 0.6690601110458374
0.3919192850589752 0.04215685650706291 0.6697139739990234
0.3905888497829437 0.046095773577690125 0.67100590467453
0.386801540851593 0.04707743972539902 0.669616162776947
0.38291001319885254 0.047253403812646866 0.6677759885787964
0.3794727921485901 0.04692564904689789 0.6659113168716431
0.3648984432220459 0.04136993736028671 0.6559415459632874
0.363788902759552 0.041577354073524475 0.655494749546051
0.3624698519706726 0.042481470853090286 0.6552892327308655
0.3598787784576416 0.04351786524057388 0.6545190215110779
0.35556265711784363 0.044470347464084625 0.6528534293174744
0.3525877296924591 0.043730005621910095 0.6510131359100342
0.3494337499141693 0.042907170951366425 0.6490433812141418
0.34503743052482605 0.042273782193660736 0.6465525031089783
0.3391830623149872 0.040099114179611206 0.6425759196281433
0.3258100152015686 0.03411918133497238 0.6329910755157471
0.42290619015693665 0.01730690337717533 0.6719005703926086
0.42283135652542114 0.020617494359612465 0.6735081672668457
0.42154261469841003 0.025527209043502808 0.6753070950508118
0.42143988609313965 0.026277855038642883 0.6756290793418884
0.41595882177352905 0.0323706790804863 0.6759328246116638
0.4119130074977875 0.03377601504325867 0.674621045589447
0.4095378518104553 0.034670766443014145 0.6738856434822083
0.3997134864330292 0.03658188879489899 0.6699545979499817
0.3944494128227234 0.03741089627146721 0.6677511930465698
0.3938252627849579 0.037839602679014206 0.6676539778709412
0.39344435930252075 0.03841307386755943 0.6677497029304504
0.39241287112236023 0.042570412158966064 0.6693024635314941
0.39174923300743103 0.04454462602734566 0.6699536442756653
0.3886144459247589 0.04744764789938927 0.6698383688926697
0.37742879986763 0.047516658902168274 0.664315938949585
0.3623296618461609 0.04174696281552315 0.6539484262466431
0.3618035912513733 0.04227309674024582 0.6539484262466431
0.35925376415252686 0.043337881565093994 0.6532105803489685
0.3578563630580902 0.04421297088265419 0.652951180934906
0.35371994972229004 0.04447285458445549 0.6510252952575684
0.35067018866539 0.0437031053006649 0.6491275429725647
0.35013529658317566 0.044237807393074036 0.6491275429725647
0.3469509184360504 0.04341442510485649 0.6471366882324219
0.3428419232368469 0.04212968796491623 0.6444570422172546
0.3260078430175781 0.034388188272714615 0.6322479844093323
0.42241886258125305 0.01873740553855896 0.6715161204338074
0.4224388301372528 0.02210179530084133 0.673202633857727
0.4208827018737793 0.02844717912375927 0.6755892634391785
0.4195860028266907 0.030016150325536728 0.6757250428199768
0.41767144203186035 0.03117584064602852 0.6753488183021545
0.41244494915008545 0.03342040628194809 0.6738629937171936
0.4115408957004547 0.03364529460668564 0.6735244989395142
0.41015058755874634 0.034366145730018616 0.6731910109519958
0.4071913957595825 0.034906595945358276 0.6719855666160583
0.4056358337402344 0.035538189113140106 0.6715250611305237
0.40130558609962463 0.03606937825679779 0.6696320176124573
0.397140234708786 0.036743320524692535 0.6678920984268188
0.39414292573928833 0.03815184161067009 0.6671002507209778
0.3932414948940277 0.040012773126363754 0.6675785779953003
0.3923241198062897 0.04421969875693321 0.6692177653312683
0.3917528986930847 0.04623863846063614 0.6699392199516296
0.38665640354156494 0.04804288595914841 0.6682984232902527
0.38500910997390747 0.047907087951898575 0.6674099564552307
0.3815952241420746 0.04758455604314804 0.6655482649803162
0.3776284158229828 0.047765735536813736 0.6636617183685303
0.37587955594062805 0.04760231822729111 0.6627086997032166
0.3616615831851959 0.0415361262857914 0.6526007652282715
0.35863444209098816 0.043161455541849136 0.6519021391868591
0.3577538728713989 0.043504975736141205 0.6516343951225281
0.3572247624397278 0.044034164398908615 0.6516343951225281
0.3554745018482208 0.04473262280225754 0.6511104106903076
0.34819892048835754 0.044212985783815384 0.6472257375717163
0.3449869453907013 0.0433853380382061 0.6452126502990723
0.3406246602535248 0.041984088718891144 0.6423408389091492
0.32467782497406006 0.034734923392534256 0.6307818293571472
0.4209522008895874 0.018636375665664673 0.6698777079582214
0.42219841480255127 0.020352713763713837 0.6713584661483765
0.42231908440589905 0.02459818497300148 0.6735410690307617
0.42169663310050964 0.025820333510637283 0.6738409399986267
0.41945648193359375 0.029216179624199867 0.6744185090065002
0.41642776131629944 0.03126863017678261 0.6739304065704346
0.41568440198898315 0.03159095346927643 0.6737199425697327
0.41419801115989685 0.032239560037851334 0.673301100730896
0.4088691473007202 0.03446756675839424 0.6717512607574463
0.4032745361328125 0.03579220548272133 0.6696169376373291
0.398238867521286 0.036725230515003204 0.6675660610198975
0.39265012741088867 0.04609981179237366 0.6694585084915161
0.38720571994781494 0.047705069184303284 0.6675397753715515
0.38670578598976135 0.04820505157113075 0.6675397753715515
0.38518622517585754 0.048140909522771835 0.6667479872703552
0.38350701332092285 0.04799312353134155 0.6658347845077515
0.3800707757472992 0.04766997694969177 0.6639556288719177
0.379564493894577 0.04817630350589752 0.6639556288719177
0.37782740592956543 0.04801483824849129 0.6630066633224487
0.36445173621177673 0.042374927550554276 0.6535018086433411
0.35483425855636597 0.04455425217747688 0.6497837901115417
0.35395410656929016 0.0449051596224308 0.6495190858840942
0.3462451994419098 0.04418759420514107 0.6453072428703308
0.34288427233695984 0.043294403702020645 0.6431809067726135
0.33838582038879395 0.04183715954422951 0.6402038931846619
0.3378375172615051 0.0423855297267437 0.6402038931846619
0.32266420125961304 0.035596344619989395 0.6292257905006409
0.4194740653038025 0.018534500151872635 0.6682265400886536
0.4209146499633789 0.02038470469415188 0.6698763370513916
0.42136403918266296 0.022371361032128334 0.6710977554321289
0.42076054215431213 0.02610003389418125 0.6726646423339844
0.4198148846626282 0.027922498062253 0.6731042265892029
0.4193257689476013 0.028411656618118286 0.6731042265892029
0.4176579713821411 0.029746297746896744 0.6729373931884766
0.4124501347541809 0.03283088654279709 0.6718729734420776
0.41170671582221985 0.03316053748130798 0.6716652512550354
0.4098868668079376 0.03361191228032112 0.6709792613983154
0.4066719710826874 0.03480429947376251 0.6699651479721069
0.40564706921577454 0.034968044608831406 0.6695331931114197
0.40195778012275696 0.03589978441596031 0.6681506037712097
0.40089237689971924 0.03604979068040848 0.6676916480064392
0.39625582098960876 0.037254758179187775 0.6659711599349976
0.3957538902759552 0.03775652125477791 0.6659711599349976
0.3952268362045288 0.0382431335747242 0.6659507751464844
0.3947307765483856 0.040344253182411194 0.6667554378509521
0.3940601348876953 0.042329952120780945 0.6674149036407471
0.3939751982688904 0.04307004064321518 0.6677432656288147
0.3887660503387451 0.04793199151754379 0.6675693392753601
0.385234534740448 0.0483037494122982 0.6659849882125854
0.38370567560195923 0.04823968559503555 0.66518634557724
0.38199374079704285 0.04807969555258751 0.6642479300498962
0.3762788772583008 0.04810243472456932 0.6613940596580505
0.3745189309120178 0.047939594835042953 0.660429835319519
0.3627948462963104 0.042440690100193024 0.6517944931983948
0.3581717610359192 0.0424092561006546 0.6494609117507935
0.3573639392852783 0.04279402270913124 0.6492487788200378
0.3559904396533966 0.043693907558918 0.6490111947059631
0.352423757314682 0.045078810304403305 0.6479174494743347
0.3518901765346527 0.04561246186494827 0.6479174494743347
0.34427422285079956 0.04416191950440407 0.6433718204498291
0.3406677842140198 0.04315495118498802 0.6410583853721619
0.33512482047080994 0.04201497137546539 0.6377081274986267
0.41798439621925354 0.018431885167956352 0.6665624380111694
0.4191254675388336 0.020913470536470413 0.6683840155601501
0.42010363936424255 0.022427275776863098 0.6696375012397766
0.4203321039676666 0.024249475449323654 0.6706687211990356
0.41983968019485474 0.02474195882678032 0.6706687211990356
0.41951823234558105 0.02617628127336502 0.6712285280227661
0.4180799126625061 0.028494441881775856 0.6716710925102234
0.4175220727920532 0.02894064038991928 0.6716150045394897
0.4159146547317505 0.030324388295412064 0.6715022921562195
0.41391608119010925 0.03145584091544151 0.6710662841796875
0.40951088070869446 0.03348170220851898 0.6698696613311768
0.40810060501098633 0.03420297056436539 0.6695230007171631
0.4027649760246277 0.03570833057165146 0.6675968170166016
0.4017007350921631 0.03585800528526306 0.6671366095542908
0.39600858092308044 0.038031212985515594 0.665367066860199
0.3927821218967438 0.04408261179924011 0.6667877435684204
0.39168885350227356 0.04815060645341873 0.6682837009429932
0.39032018184661865 0.048158060759305954 0.6675992012023926
0.3888169527053833 0.048093926161527634 0.6668110489845276
0.3821932375431061 0.04832741245627403 0.6635972857475281
0.38047000765800476 0.0481669083237648 0.6626499891281128
0.3782266676425934 0.04851368069648743 0.6616961359977722
0.37471887469291687 0.048190582543611526 0.6597693562507629
0.37294724583625793 0.04802747070789337 0.6587965488433838
0.3605961799621582 0.04303557798266411 0.6500744223594666
0.35667625069618225 0.042583804577589035 0.6478757262229919
0.35586440563201904 0.04296986013650894 0.6476616263389587
0.34865811467170715 0.04573721066117287 0.645429253578186
0.342286080121994 0.044136062264442444 0.6414191126823425
0.3417418301105499 0.04468011483550072 0.6414191126823425
0.3378807604312897 0.04356252774596214 0.6389153599739075
0.33174508810043335 0.04132350906729698 0.6347034573554993
0.4159811735153198 0.01883014291524887 0.6648849248886108
0.41782262921333313 0.02094755321741104 0.6668822765350342
0.41883498430252075 0.022483451291918755 0.6681676506996155
0.41857463121414185 0.024805432185530663 0.6692075729370117
0.41826775670051575 0.026253074407577515 0.6697829961776733
0.41796165704727173 0.026871686801314354 0.6699405312538147
0.4171653687953949 0.027983661741018295 0.6700999736785889
0.4157058596611023 0.02947310544550419 0.6701149344444275
0.41340047121047974 0.03122522681951523 0.6698359847068787
0.4121549427509308 0.03204376995563507 0.6696205139160156
0.4114013910293579 0.03236978128552437 0.6694047451019287
0.40589088201522827 0.0345398411154747 0.6677194833755493
0.4003724157810211 0.03596634045243263 0.6656554937362671
0.3998721241950989 0.036466728895902634 0.6656554937362671
0.3958037495613098 0.04043060913681984 0.6656028628349304
0.39278942346572876 0.04342658072710037 0.6655938029289246
0.391519695520401 0.044273242354393005 0.6653802990913391
0.39183172583580017 0.04523871839046478 0.6660246849060059
0.39214205741882324 0.0461997427046299 0.6666657328605652
0.3919536769390106 0.04765395447611809 0.6673043370246887
0.38735532760620117 0.04819212108850479 0.6652562022209167
0.38066935539245605 0.048415523022413254 0.6619961857795715
0.3708488643169403 0.048631321638822556 0.6571509838104248
0.35382023453712463 0.043681658804416656 0.6460638046264648
0.35289493203163147 0.04401400312781334 0.6457648873329163
0.35111671686172485 0.044720523059368134 0.6452240347862244
0.346758633852005 0.045744914561510086 0.6435424089431763
0.3397340178489685 0.04465644061565399 0.6394495368003845
0.40357014536857605 0.010337972082197666 0.6534358263015747
0.4144660234451294 0.018727993592619896 0.6631946563720703
0.41651132702827454 0.02098201774060726 0.6653700470924377
0.41755780577659607 0.02253999188542366 0.6666879653930664
0.41730421781539917 0.024870995432138443 0.6677390336990356
0.4173159897327423 0.025708932429552078 0.6681689620018005
0.41590964794158936 0.028069516643881798 0.6686518788337708
0.4116334021091461 0.0318138487637043 0.6683828234672546
0.4101216495037079 0.03246842324733734 0.6679490208625793
0.40937528014183044 0.03280363604426384 0.6677408814430237
0.40733787417411804 0.03394376114010811 0.6672866344451904
0.4064147174358368 0.03417230024933815 0.6669355034828186
0.40316241979599 0.03537873551249504 0.6659002304077148
0.39638423919677734 0.040101274847984314 0.6648601293563843
0.3957095742225647 0.04208914190530777 0.6655246615409851
0.39025020599365234 0.04446510598063469 0.6639643311500549
0.39087995886802673 0.04639647528529167 0.6652602553367615
0.3889186382293701 0.04841843619942665 0.6652908325195312
0.38538071513175964 0.0487937405705452 0.6636906862258911
0.3768785893917084 0.04885370656847954 0.6594188809394836
0.3733479082584381 0.04853161424398422 0.6574692726135254
0.36925211548805237 0.04872238263487816 0.6554936170578003
0.35474085807800293 0.04268819838762283 0.6450973153114319
0.3531191349029541 0.04347251355648041 0.6446735858917236
0.3504583537578583 0.044540148228406906 0.6438676118850708
0.3499208092689514 0.04507775232195854 0.6438676118850708
0.34723159670829773 0.04614594206213951 0.6430473327636719
0.34482207894325256 0.04574202001094818 0.6416236758232117
0.3442806005477905 0.04628362879157066 0.6416236758232117
0.34101808071136475 0.04546442627906799 0.6395583152770996
0.3377082049846649 0.04463249444961548 0.6374626159667969
0.33332929015159607 0.043281204998493195 0.634563148021698
0.40513086318969727 0.002602533670142293 0.6493958234786987
0.41293904185295105 0.018624868243932724 0.6614908576011658
0.415190726518631 0.021016551181674004 0.6638474464416504
0.4157734513282776 0.023096229881048203 0.6651989221572876
0.4158969521522522 0.02401660569012165 0.665728747844696
0.4155532121658325 0.026281222701072693 0.666703462600708
0.4146456718444824 0.028155863285064697 0.6671943068504333
0.4137977659702301 0.029241405427455902 0.6673151254653931
0.41266965866088867 0.030143044888973236 0.667199969291687
0.41155925393104553 0.03105727955698967 0.6671004891395569
0.4060285687446594 0.034042105078697205 0.6658084392547607
0.4051034450531006 0.03427320346236229 0.6654561758041382
0.39991554617881775 0.03592294082045555 0.6636602282524109
0.3994137644767761 0.036424797028303146 0.6636602282524109
0.39780232310295105 0.03786677494645119 0.6635742783546448
0.39757031202316284 0.038530733436346054 0.6637937426567078
0.3967008590698242 0.042003750801086426 0.6651149988174438
0.39253321290016174 0.04353510960936546 0.6637770533561707
0.39203140139579773 0.04403676092624664 0.6637770533561707
0.38947686553001404 0.04415436461567879 0.662540078163147
0.38878995180130005 0.04613123834133148 0.6631947755813599
0.3874553143978119 0.04851790890097618 0.6637285351753235
0.38235482573509216 0.048832181841135025 0.6612995862960815
0.37873661518096924 0.049214351922273636 0.6596570014953613
0.3753196895122528 0.04894476383924484 0.6577857732772827
0.3712497055530548 0.04913763329386711 0.6558181643486023
0.36764398217201233 0.04881425201892853 0.6538239121437073
0.3524419963359833 0.04327669367194176 0.6432974934577942
0.35159167647361755 0.04365222156047821 0.6430565714836121
0.3474607765674591 0.04561058059334755 0.6419539451599121
0.34229373931884766 0.04626736417412758 0.6396645903587341
0.33900266885757446 0.04544409364461899 0.6375765204429626
0.33565840125083923 0.04460527375340462 0.635453462600708
0.3310193717479706 0.043138373643159866 0.6323544979095459
0.4054141044616699 0.008275571279227734 0.6515101790428162
0.4113995134830475 0.01852097176015377 0.6597732305526733
0.41335824131965637 0.021554598584771156 0.6623145937919617
0.4144634008407593 0.023145349696278572 0.6636871695518494
0.4142770767211914 0.026359038427472115 0.6652286052703857
0.41397014260292053 0.026984095573425293 0.6653904914855957
0.41337379813194275 0.02824283577501774 0.6657276749610901
0.41195133328437805 0.02977994829416275 0.66578608751297
0.41138917207717896 0.030234765261411667 0.6657315492630005
0.4097769260406494 0.03164944052696228 0.6656306982040405
0.40906059741973877 0.03200684115290642 0.6654482483863831
0.4075454771518707 0.03267264366149902 0.6650158166885376
0.405538946390152 0.03384755179286003 0.6645923256874084
0.4037855565547943 0.03437592834234238 0.6639686822891235
0.40143370628356934 0.03535299003124237 0.6632686853408813
0.39818650484085083 0.03821917623281479 0.6630749106407166
0.39745816588401794 0.04018767178058624 0.6637062430381775
0.3893440067768097 0.044209931045770645 0.6616230607032776
0.38768792152404785 0.04485234245657921 0.6611069440841675
0.3875071406364441 0.04632943496108055 0.6617668867111206
0.38783031702041626 0.047296568751335144 0.6624237298965454
0.388152152299881 0.048259589821100235 0.6630780696868896
0.3808504045009613 0.048934295773506165 0.6597039103507996
0.36550241708755493 0.049427662044763565 0.6521416306495667
0.35088029503822327 0.04344165697693825 0.6416501402854919
0.3491314947605133 0.04417635500431061 0.6411336660385132
0.34028953313827515 0.04625118523836136 0.6376885175704956
0.3369697034358978 0.04542364180088043 0.6355771422386169
0.33337217569351196 0.04447033628821373 0.6332604885101318
0.32757270336151123 0.04328273609280586 0.6297032237052917
0.40571606159210205 0.010353312827646732 0.6518146991729736
0.40933799743652344 0.018925951793789864 0.6580418944358826
0.41202229261398315 0.02159411460161209 0.6607750654220581
0.41313880681991577 0.02319077029824257 0.6621607542037964
0.41330334544181824 0.024140851572155952 0.6627299785614014
0.4129926860332489 0.02643740363419056 0.6637440919876099
0.40776166319847107 0.03210435062646866 0.663966715335846
0.40574517846107483 0.033275920897722244 0.6635352373123169
0.3977717459201813 0.042090144008398056 0.6639646887779236
0.3948132395744324 0.04352903366088867 0.6631883978843689
0.39227554202079773 0.04364416375756264 0.66195148229599
0.3917725086212158 0.044147033244371414 0.66195148229599
0.38660433888435364 0.04437236115336418 0.6594271659851074
0.38588833808898926 0.045554615557193756 0.6596652865409851
0.38687002658843994 0.04846404492855072 0.6616524457931519
0.3855269253253937 0.049285609275102615 0.6613860726356506
0.3824487328529358 0.049162108451128006 0.6597511768341064
0.3772543668746948 0.04948508366942406 0.6572635173797607
0.37394946813583374 0.04928884655237198 0.6554757952690125
0.3698541522026062 0.04948488250374794 0.653484582901001
0.366224467754364 0.049162570387125015 0.651466429233551
0.36570313572883606 0.049683745950460434 0.651466429233551
0.35379815101623535 0.04429449513554573 0.6426348090171814
0.3493366241455078 0.04362243786454201 0.6400136351585388
0.3484717905521393 0.04399758577346802 0.6397632956504822
0.347929984331131 0.0445391945540905 0.6397632956504822
0.34520724415779114 0.04560961201786995 0.6389196515083313
0.33826756477355957 0.04623463377356529 0.6356950998306274
0.33491840958595276 0.045402947813272476 0.633560061454773
0.33050546050071716 0.044890422374010086 0.6310447454452515
0.4056001603603363 0.01213117502629757 0.651757538318634
0.40777188539505005 0.018822377547621727 0.656296968460083
0.41067853569984436 0.021634653210639954 0.6592262387275696
0.4118049740791321 0.023236330598592758 0.6606236100196838
0.4114918112754822 0.024707579985260963 0.6612170338630676
0.4117000102996826 0.026516325771808624 0.6622498035430908
0.41059646010398865 0.028282178565859795 0.6625889539718628
0.4099326729774475 0.029502643272280693 0.6628742814064026
0.4088631868362427 0.030458899214863777 0.6628164052963257
0.40774065256118774 0.031382009387016296 0.6627141237258911
0.4036742150783539 0.03372159227728844 0.6618295311927795
0.402912974357605 0.034062404185533524 0.6616142988204956
0.401636004447937 0.03489954397082329 0.6613889336585999
0.4001208245754242 0.03640423342585564 0.6613836288452148
0.399617999792099 0.03690716624259949 0.6613836288452148
0.39921560883522034 0.03827713802456856 0.6618791222572327
0.39853259921073914 0.040274299681186676 0.6625523567199707
0.39826247096061707 0.04250393435359001 0.6635560393333435
0.3890770971775055 0.04432123899459839 0.6597821116447449
0.38464370369911194 0.04499123990535736 0.657854437828064
0.38491860032081604 0.04672924801707268 0.6588854789733887
0.38474351167678833 0.04820755124092102 0.6595529913902283
0.3788706362247467 0.04971323907375336 0.6573160886764526
0.3757167458534241 0.04959052801132202 0.6556376814842224
0.3736118674278259 0.05004315450787544 0.654791533946991
0.3718514144420624 0.04989821836352348 0.6538155674934387
0.36824652552604675 0.04957965016365051 0.6518059372901917
0.36406904458999634 0.049779802560806274 0.6497686505317688
0.3520295321941376 0.044351864606142044 0.6408216953277588
0.3477822542190552 0.04380432143807411 0.6383657455444336
0.3454349935054779 0.045069485902786255 0.6378117203712463
0.343614786863327 0.04578939080238342 0.6372478604316711
0.3430696725845337 0.046334318816661835 0.6372478604316711
0.336227685213089 0.04621799662709236 0.6336838006973267
0.3356766104698181 0.04676913470029831 0.6336838006973267
0.3322937786579132 0.045937009155750275 0.631524920463562
0.32816922664642334 0.044755030423402786 0.6288067102432251
0.4065254330635071 0.018941648304462433 0.6548235416412354
0.40932515263557434 0.02167534828186035 0.6576662063598633
0.4088166356086731 0.022183705121278763 0.6576662063598633
0.4099563956260681 0.023788318037986755 0.6590762138366699
0.41017505526542664 0.024774489924311638 0.6596952676773071
0.41039881110191345 0.02659561112523079 0.6607457399368286
0.4098956286907196 0.02709861285984516 0.6607457399368286
0.40929827094078064 0.02837040275335312 0.6610924005508423
0.40812551975250244 0.030092764645814896 0.6613747477531433
0.4075579047203064 0.030552508309483528 0.6613191962242126
0.4058675169944763 0.03194187581539154 0.6611645817756653
0.40536507964134216 0.032444149255752563 0.6611645817756653
0.3981640636920929 0.04415429010987282 0.6634811758995056
0.3970754146575928 0.044308409094810486 0.6630008220672607
0.394561767578125 0.04363788664340973 0.6613651514053345
0.3902304768562317 0.04431729391217232 0.659489095211029
0.3863512873649597 0.04449723660945892 0.6575883030891418
0.3831802308559418 0.04510355368256569 0.6562705636024475
0.38361257314682007 0.04693107679486275 0.6574316620826721
0.3809886574745178 0.049431461840867996 0.6573683023452759
0.3773419260978699 0.04981924965977669 0.6556938290596008
0.372050940990448 0.0501512736082077 0.6531461477279663
0.36610543727874756 0.050196532160043716 0.6501150131225586
0.3642703592777252 0.050037018954753876 0.6490897536277771
0.3624227046966553 0.049876537173986435 0.648058295249939
0.35024675726890564 0.044409602880477905 0.6389939785003662
0.3477593660354614 0.04395340383052826 0.6374815702438354
0.3472159802913666 0.04449686035513878 0.6374815702438354
0.3429267704486847 0.04560869559645653 0.6358494162559509
0.342380553483963 0.04615505412220955 0.6358494162559509
0.3414642810821533 0.04651710391044617 0.6355645060539246
0.3336155116558075 0.04675444960594177 0.6316540837287903
0.33020341396331787 0.04591849446296692 0.6294716596603394
0.4060559868812561 0.020443623885512352 0.654457688331604
0.4074527621269226 0.02222653105854988 0.6560962200164795
0.4088495671749115 0.024841902777552605 0.6581636071205139
0.4084968566894531 0.026287497952580452 0.6587269902229309
0.4079917073249817 0.028459349647164345 0.6595860123634338
0.4068100154399872 0.03018319606781006 0.6598652601242065
0.40567830204963684 0.031111132353544235 0.6597602963447571
0.40460920333862305 0.03207959979772568 0.6597083806991577
0.4034076929092407 0.03296607732772827 0.6595460176467896
0.40193429589271545 0.03450249880552292 0.6595785021781921
0.4002928137779236 0.038363728672266006 0.6607224941253662
0.40001577138900757 0.040605396032333374 0.661734938621521
0.3995155394077301 0.04110569879412651 0.661734938621521
0.3953726887702942 0.04423629119992256 0.6612131595611572
0.39316391944885254 0.04375050961971283 0.659824788570404
0.3918866515159607 0.04380878433585167 0.6591964960098267
0.3888089060783386 0.044433094561100006 0.6579321026802063
0.3830806314945221 0.04518486186861992 0.6553676128387451
0.3817062973976135 0.04521654546260834 0.6546756029129028
0.38195836544036865 0.0461525022983551 0.6552879810333252
0.38212916254997253 0.04862063378095627 0.656647801399231
0.3805255591869354 0.050106894224882126 0.6565871834754944
0.3789603114128113 0.05004701390862465 0.6557497978210449
0.37420979142189026 0.049865126609802246 0.6532080769538879
0.3704568147659302 0.05024857819080353 0.6514716744422913
0.36864882707595825 0.05009062960743904 0.6504586935043335
0.3668290972709656 0.049931760877370834 0.6494389772415161
0.36630725860595703 0.05045340582728386 0.6494389772415161
0.3626245856285095 0.05013484135270119 0.6473770141601562
0.3607640862464905 0.049973972141742706 0.6463350057601929
0.34844970703125 0.04446771368384361 0.6371516585350037
0.3453984260559082 0.044555772095918655 0.6356246471405029
0.34168779850006104 0.0459747388958931 0.6344435811042786
0.3398480713367462 0.04670116305351257 0.633870005607605
0.33492863178253174 0.047567062079906464 0.6317809224128723
0.3315357565879822 0.04673963040113449 0.6296061873435974
0.405818909406662 0.02038920298218727 0.6534085869789124
0.4064958393573761 0.022545352578163147 0.6548729538917542
0.40751519799232483 0.024909714236855507 0.656622052192688
0.40716397762298584 0.02635996602475643 0.6571899652481079
0.4058789908885956 0.029697036370635033 0.6582508087158203
0.40399980545043945 0.0318082831799984 0.6583706140518188
0.4025496244430542 0.03418345004320145 0.658848762512207
0.40163731575012207 0.036065421998500824 0.6593499183654785
0.40087804198265076 0.03803184628486633 0.6599740386009216
0.39991480112075806 0.04226331040263176 0.6616634130477905
0.39877888560295105 0.04633917286992073 0.6631830930709839
0.39365535974502563 0.04416355490684509 0.6594099402427673
0.38607504963874817 0.044610168784856796 0.6557228565216064
0.3855653703212738 0.045119915157556534 0.6557228565216064
0.38160499930381775 0.04529841989278793 0.6537678837776184
0.37977173924446106 0.04587987810373306 0.6531208753585815
0.38011911511421204 0.046867307275533676 0.6538108587265015
0.38081005215644836 0.048829011619091034 0.6551820635795593
0.38027215003967285 0.050111886113882065 0.6555671095848083
0.37742987275123596 0.050154395401477814 0.6541199088096619
0.37584519386291504 0.05009423941373825 0.6532696485519409
0.3721320331096649 0.05048980563879013 0.6515548825263977
0.3688499629497528 0.0503462515771389 0.6497840285301208
0.3646739423274994 0.05055240914225578 0.6477319002151489
0.3609659969806671 0.05023333430290222 0.6456506848335266
0.3590930700302124 0.05007229745388031 0.644599199295044
0.34609362483024597 0.04507158696651459 0.6352948546409607
0.343566358089447 0.04461515694856644 0.6337526440620422
0.3415405750274658 0.04524446651339531 0.633030891418457
0.34006959199905396 0.04615721106529236 0.632742166519165
0.33744463324546814 0.04732634499669075 0.6319898962974548
0.3360159993171692 0.04826880991458893 0.6317386031150818
0.3328604996204376 0.04755619168281555 0.629738986492157
0.3294372260570526 0.046724509447813034 0.6275397539138794
0.4084393382072449 0.008297398686408997 0.6475972533226013
0.4079165756702423 0.008820200338959694 0.6475972533226013
0.4055846333503723 0.009856320917606354 0.6469252109527588
0.4077261984348297 0.013111873529851437 0.6497235894203186
0.4065316617488861 0.020111653953790665 0.6527332663536072
0.4061952233314514 0.022451361641287804 0.6537718772888184
0.4065128564834595 0.024357078596949577 0.6549248099327087
0.4060801863670349 0.0266006700694561 0.6558637022972107
0.40585434436798096 0.028127817437052727 0.6565382480621338
