ply
format ascii 1.0
element vertex 809
property float x
property float y
property float z
end_header
0.534224808216095 -0.013537837192416191 0.6608172059059143
0.5204759836196899 -0.002872515469789505 0.6589568853378296
0.5188232064247131 -0.001803143066354096 0.6586047410964966
0.5169511437416077 -0.0009633181034587324 0.6579820513725281
0.5158423781394958 -0.0002476173103787005 0.6577448844909668
0.5159773826599121 0.002731363056227565 0.6596237421035767
0.515433132648468 0.00403198879212141 0.660079836845398
0.5146923065185547 0.004190506413578987 0.6597285270690918
0.5103025436401367 0.005245068576186895 0.6577163338661194
0.5011695027351379 0.004453578032553196 0.651728630065918
0.5368554592132568 -0.019555503502488136 0.6579223871231079
0.535769522190094 -0.015764964744448662 0.659558892250061
0.533196210861206 -0.012830842286348343 0.659777045249939
0.5282725691795349 -0.009692356921732426 0.6586970090866089
0.5281403064727783 -0.003958117216825485 0.6620867252349854
0.5257993340492249 -0.0017879502847790718 0.6619832515716553
0.5238267779350281 -0.00015977084694895893 0.6617750525474548
0.5185325741767883 -0.0011865951819345355 0.6579502820968628
0.516193687915802 0.00010833945998456329 0.6573185324668884
0.5163395404815674 0.0021572764962911606 0.6586465835571289
0.5092855095863342 0.006062066648155451 0.6567409038543701
0.49945947527885437 0.004642013926059008 0.6499359607696533
0.49699851870536804 0.0041085644625127316 0.6481242775917053
0.5371284484863281 -0.029900850728154182 0.6509565711021423
0.5345144867897034 -0.025765692815184593 0.6518795490264893
0.5334588885307312 -0.024984922260046005 0.651712954044342
0.5361262559890747 -0.015388933010399342 0.659155011177063
0.5356562733650208 -0.013932901434600353 0.6597533822059631
0.5310285687446594 -0.012478455901145935 0.6578277349472046
0.5301320552825928 -0.01153920590877533 0.6578535437583923
0.5297825336456299 -0.010952957905828953 0.6579973697662354
0.5302596688270569 -0.005449246149510145 0.6616266965866089
0.5298076868057251 -0.004997197538614273 0.6616266965866089
0.5284758806228638 -0.0036135707050561905 0.6616581082344055
0.5275800228118896 -0.0027004105504602194 0.6616687774658203
0.5266358256340027 -0.0018417739775031805 0.6616168022155762
0.5241583585739136 0.00017777156608644873 0.6613389253616333
0.5205428004264832 -0.0018930271035060287 0.6578881144523621
0.516068696975708 0.004671669099479914 0.6591569185256958
0.5126191973686218 0.005746948532760143 0.6577159762382507
0.5086261630058289 0.006319128908216953 0.6556399464607239
0.5026406645774841 0.004048303700983524 0.6506296396255493
0.4971497356891632 0.004263614304363728 0.6474279761314392
0.5365827679634094 -0.03180043771862984 0.6485950946807861
0.5366182327270508 -0.026342323049902916 0.6519386768341064
0.5374734401702881 -0.017885001376271248 0.6576064229011536
0.5323134064674377 -0.011997330002486706 0.6580492854118347
0.529323399066925 -0.009549597278237343 0.6577193737030029
0.5171017646789551 0.002932219998911023 0.6578777432441711
0.5148930549621582 0.005297309253364801 0.6579729318618774
0.5129364728927612 0.006065407767891884 0.6572495698928833
0.5112307071685791 0.006175125017762184 0.6562781929969788
0.5103660821914673 0.006222562864422798 0.6557806730270386
0.5041751861572266 0.0027664604131132364 0.649909257888794
0.5385791659355164 -0.027093058452010155 0.6518077254295349
0.5363484621047974 -0.025704603642225266 0.6512935161590576
0.5350365042686462 -0.011781075038015842 0.6589917540550232
0.5330551266670227 -0.012167981825768948 0.6575460433959961
0.5325981974601746 -0.011711145751178265 0.6575460433959961
0.5300225019454956 -0.009771826677024364 0.6571576595306396
0.530034065246582 -0.0038468369748443365 0.6607814431190491
0.5188974738121033 9.474403486819938e-05 0.6563894748687744
0.5140039324760437 0.006227561738342047 0.6571458578109741
0.5038341879844666 0.00430305628105998 0.6497634649276733
0.5019417405128479 0.006162332836538553 0.6497431993484497
0.5001989603042603 0.005384108982980251 0.6482043266296387
0.5376071333885193 -0.015797192230820656 0.6572582125663757
0.534332275390625 -0.011688526719808578 0.6577686667442322
0.5292803645133972 -0.007710461039096117 0.6571111679077148
0.5285865068435669 -0.0016687075840309262 0.6603851318359375
0.5261638164520264 0.0004051560827065259 0.6601715087890625
0.5221168398857117 -0.0012057889252901077 0.6567080020904541
0.5192230939865112 0.00042422948172315955 0.6559342741966248
0.5177568197250366 0.001702450099401176 0.6558189988136292
0.5178784728050232 0.004661644343286753 0.6577053666114807
0.5127093195915222 0.006746265105903149 0.655816912651062
0.504547655582428 0.004078306257724762 0.6491872072219849
0.5029581785202026 0.006237489636987448 0.6495358943939209
0.5004456639289856 0.005631596315652132 0.6476269364356995
0.4999742805957794 0.006103044375777245 0.6476269364356995
0.4976043403148651 0.004729823675006628 0.6453350782394409
0.5382028222084045 -0.025609467178583145 0.6507462859153748
0.5353686809539795 -0.023925568908452988 0.6500400304794312
0.5384290814399719 -0.015865260735154152 0.6568678617477417
0.5366219878196716 -0.011985302902758121 0.6581403613090515
0.5321837067604065 -0.011314247734844685 0.655827522277832
0.5300001502037048 -0.007906362414360046 0.6565792560577393
0.5315988659858704 -0.004070677794516087 0.6599158048629761
0.5311474204063416 -0.0036191290710121393 0.6599158048629761
0.5298166871070862 -0.002237181644886732 0.6599473357200623
0.5293733477592468 -0.0017765640513971448 0.6599578261375427
0.5279563665390015 -0.0004927808768115938 0.6598761081695557
0.5269458889961243 0.00029012226150371134 0.6597363352775574
0.5259882807731628 0.0011338983895257115 0.6596665382385254
0.5207875967025757 0.0001875437592389062 0.6558923125267029
0.5181466341018677 0.002100006677210331 0.6554449796676636
0.5182273387908936 0.003132833866402507 0.6561287641525269
0.518242597579956 0.004091952461749315 0.6567270755767822
0.5165857076644897 0.006094375159591436 0.6569392085075378
0.500220775604248 0.006350681651383638 0.6470490097999573
0.5387861132621765 -0.029256004840135574 0.6479882597923279
0.537336528301239 -0.0246760044246912 0.6499158143997192
0.5356985926628113 -0.02358262613415718 0.649580717086792
0.5369675159454346 -0.011624114587903023 0.6577255129814148
0.531875491142273 -0.009728305973112583 0.6557576060295105
0.5301514863967896 -0.001893480191938579 0.6595202088356018
0.5227721929550171 -0.0005401699454523623 0.6558098196983337
0.5154101848602295 0.006723449565470219 0.6557490825653076
0.5116047263145447 0.00746358884498477 0.6538616418838501
0.5040576457977295 0.006399346515536308 0.6485590934753418
0.4979071319103241 0.00504040252417326 0.6439349055290222
0.5382174849510193 -0.03229808062314987 0.6448792815208435
0.5377442836761475 -0.03182489052414894 0.6448792815208435
0.5393174290657043 -0.025400759652256966 0.6498180627822876
0.5364950299263 -0.023706551641225815 0.6491213440895081
0.539303719997406 -0.01593870297074318 0.6556528210639954
0.5341941714286804 -0.011022821068763733 0.6555333733558655
0.532557487487793 -0.0099708903580904 0.6551722884178162
0.5310647487640381 -0.007745799142867327 0.6556243896484375
0.5322672128677368 -0.0033825880382210016 0.6590616106987
0.5286155939102173 0.00018059575813822448 0.6590070128440857
0.525981068611145 0.002019320148974657 0.6585155129432678
0.5225117802619934 0.00010576928616501391 0.6551912426948547
0.5190014839172363 0.004863412119448185 0.6559616327285767
0.5185600519180298 0.00627099210396409 0.6565582156181335
0.5164721012115479 0.006884476635605097 0.6556478142738342
0.5127758383750916 0.007723554037511349 0.6538833379745483
0.5114375352859497 0.00821672659367323 0.6533613204956055
0.5063360929489136 0.003990599419921637 0.6476010084152222
0.5059834718704224 0.004577024839818478 0.6477453112602234
0.5029250979423523 0.007148395758122206 0.6474449038505554
0.5011860728263855 0.006374467629939318 0.6458927392959595
0.49805888533592224 0.005195918958634138 0.6432337164878845
0.5402631163597107 -0.026402821764349937 0.648909866809845
0.5381112098693848 -0.011356312781572342 0.6568959951400757
0.5318769812583923 -0.004863210953772068 0.6570563912391663
0.5269792675971985 0.0021433730144053698 0.6583625674247742
0.5256422162055969 0.0016147043788805604 0.6572070121765137
0.5198760628700256 0.001993937650695443 0.6538708209991455
0.5194176435470581 0.002452489687129855 0.6538708209991455
0.5182727575302124 0.006888642441481352 0.6559092402458191
0.5130845308303833 0.008032901212573051 0.6534045338630676
0.506696879863739 0.00435227993875742 0.647168755531311
0.5056247115135193 0.006092778407037258 0.6475825309753418
0.5389072299003601 -0.023961862549185753 0.6487082839012146
0.5401791334152222 -0.016012581065297127 0.6544361710548401
0.5400335192680359 -0.015162618830800056 0.6548735499382019
0.5394328832626343 -0.013859758153557777 0.655309796333313
0.5376624464988708 -0.009948547929525375 0.6566394567489624
0.5367357134819031 -0.010072187520563602 0.6559870839118958
0.5343063473701477 -0.009993670508265495 0.6545268893241882
0.5321104526519775 -0.007606924511492252 0.6546453833580017
0.5320408344268799 -0.0017839442007243633 0.658219039440155
0.5302606821060181 4.7211971832439303e-05 0.6582507491111755
0.5282651782035828 0.0016363259637728333 0.6579984426498413
0.5278139114379883 0.0020876482594758272 0.6579984426498413
0.5253016352653503 0.001207917695865035 0.6558914184570312
0.5214788913726807 0.0017976474482566118 0.6538832783699036
0.5208443999290466 0.002064179629087448 0.6536546945571899
0.5159014463424683 0.00813286378979683 0.6543539762496948
0.515105128288269 0.008240611292421818 0.6539261341094971
0.5047416090965271 0.00801614485681057 0.6473495960235596
0.5380683541297913 -0.022992832586169243 0.6479136943817139
0.5374832153320312 -0.022678999230265617 0.6477446556091309
0.5390881896018982 -0.011293672025203705 0.6558371186256409
0.5370187759399414 -0.009787549264729023 0.6554864048957825
0.5339310169219971 -0.009495284408330917 0.6537448763847351
0.5337116122245789 -0.002811737824231386 0.6577717065811157
0.5328177213668823 -0.0019008476519957185 0.657782256603241
0.5319316387176514 -0.0009809472830966115 0.6578034162521362
0.5305948853492737 0.00038968047010712326 0.6578243970870972
0.5281434059143066 0.0024237032048404217 0.6575644612312317
0.5234913229942322 0.0010998944053426385 0.6538417935371399
0.5200903415679932 0.004082285799086094 0.6535810232162476
0.5201262831687927 0.005065413191914558 0.6542156934738159
0.5201374888420105 0.0060180192813277245 0.6548163294792175
0.5166743993759155 0.00799313560128212 0.6538892388343811
0.5162173509597778 0.00845001544803381 0.6538892388343811
0.5127670168876648 0.008626480586826801 0.6518496870994568
0.5067135691642761 0.006245385389775038 0.6465954184532166
0.5036634802818298 0.00788880791515112 0.6457191705703735
0.5406137108802795 -0.024053417146205902 0.6479638814926147
0.5401483178138733 -0.023588256910443306 0.6479638814926147
0.537346363067627 -0.021870505064725876 0.6472866535186768
0.538690447807312 -0.009821707382798195 0.6556540727615356
0.535332441329956 -0.009878084063529968 0.6535205841064453
0.5336121320724487 -0.007924575358629227 0.6536663174629211
0.5320660471916199 -0.005770443938672543 0.6540462970733643
0.5340449810028076 -0.002468407154083252 0.657345712184906
0.5249943137168884 0.0008084177388809621 0.6537384390830994
0.522746741771698 0.0021731203887611628 0.6531867980957031
0.5140106081962585 0.0089607834815979 0.6519696116447449
0.5077787041664124 0.005436390172690153 0.6458739638328552
0.5039095282554626 0.00813569501042366 0.6451431512832642
0.5020421743392944 0.007236609235405922 0.6434150338172913
0.5015699863433838 0.0077088866382837296 0.6434150338172913
0.54027259349823 -0.011993159539997578 0.6544302701950073
0.5366033315658569 -0.009404736571013927 0.6537532210350037
0.5327849984169006 -0.005965873599052429 0.6535153985023499
0.5321561694145203 0.0001642181014176458 0.6569623351097107
0.5195297598838806 0.008153265342116356 0.6540565490722656
0.5187901854515076 0.008310877718031406 0.6536920666694641
0.5081388354301453 0.0057971663773059845 0.6454430818557739
0.5077860951423645 0.00638191681355238 0.6455883383750916
0.5061946511268616 0.008532269857823849 0.6459385752677917
0.5057759284973145 0.009047972969710827 0.6459994316101074
0.5419148206710815 -0.025758104398846626 0.645954966545105
0.542439877986908 -0.02398231439292431 0.6474008560180664
0.5390543341636658 -0.021967094391584396 0.6465396881103516
0.5414897799491882 -0.01361401379108429 0.6533191204071045
0.5346501469612122 -0.00779416598379612 0.6526782512664795
0.5347108244895935 -0.0017822104273363948 0.6564944386482239
0.5305891036987305 0.0021968912333250046 0.6564047932624817
0.5244680643081665 0.0020909886807203293 0.6524917483329773
0.5221388936042786 0.0033736913464963436 0.6518340110778809
0.5216360092163086 0.0037828020285815 0.6517753601074219
0.5211783051490784 0.004240615293383598 0.6517753601074219
0.5212616324424744 0.006220563780516386 0.6530718803405762
0.5205807685852051 0.008311090990900993 0.6539576649665833
0.5084986686706543 0.0061578210443258286 0.6450121402740479
0.5044023394584656 0.008629812858998775 0.6439914703369141
0.5018763542175293 0.00802191998809576 0.6420221328735352
0.5416164398193359 -0.027336791157722473 0.6438903212547302
0.5422731637954712 -0.015803491696715355 0.6515727043151855
0.5412197113037109 -0.01196982804685831 0.6533249616622925
0.5404976606369019 -0.00981038436293602 0.6542307138442993
0.5381510257720947 -0.008648757822811604 0.6534839272499084
0.5309174060821533 0.002532421378418803 0.6559718251228333
0.5299108028411865 0.0033151705283671618 0.6558306217193604
0.5289562344551086 0.00415761535987258 0.6557600498199463
0.5220233798027039 0.004178623203188181 0.651404082775116
0.5166414380073547 0.009781058877706528 0.6515430808067322
0.502502977848053 0.007705786265432835 0.6413247585296631
0.5020300149917603 0.008178770542144775 0.6413247585296631
0.540875256061554 -0.021911967545747757 0.6459636092185974
0.5397109389305115 -0.021284017711877823 0.645624577999115
0.5408408045768738 -0.009450632147490978 0.6538179516792297
0.5364707708358765 -0.008733557537198067 0.6515089869499207
0.5356723070144653 -0.007682208437472582 0.6516689658164978
0.5346454977989197 -0.005906488746404648 0.6521422863006592
0.5353760123252869 -0.0010968750575557351 0.6556438207626343
0.5340408682823181 0.0002720205520745367 0.6556652784347534
0.5335984230041504 0.0007313108071684837 0.6556758880615234
0.5322510600090027 0.0020858205389231443 0.6556805372238159
0.5262990593910217 0.0021345873828977346 0.6519493460655212
0.5257144570350647 0.0024482335429638624 0.6517780423164368
0.5220094919204712 0.006038470659404993 0.6517056226730347
0.5220166444778442 0.006989029701799154 0.652310848236084
0.5189935564994812 0.009418412111699581 0.6519355177879333
0.5177953839302063 0.010034451261162758 0.6515676379203796
0.5152441263198853 0.010196911171078682 0.6500577330589294
0.5100616216659546 0.005849162116646767 0.6440343856811523
0.5084994435310364 0.008031979203224182 0.6444265246391296
0.5428351163864136 -0.022653570398688316 0.6458550691604614
0.5427280068397522 -0.01329939253628254 0.6517166495323181
0.5423811674118042 -0.01167734432965517 0.652525007724762
0.5396912693977356 -0.007896611467003822 0.6532163619995117
0.5363471508026123 -0.007932326756417751 0.6510740518569946
0.5349881052970886 -0.005551418289542198 0.651721715927124
0.5337820053100586 -0.003996611572802067 0.651942789554596
0.5301171541213989 0.004436033312231302 0.6549650430679321
0.5224003791809082 0.008318163454532623 0.6525343060493469
0.5200476050376892 0.009575138799846172 0.6518396735191345
0.5181025862693787 0.010342610068619251 0.6510933041572571
0.5155524015426636 0.01050573494285345 0.6495802402496338
0.5103985071182251 0.006186832673847675 0.6435757279396057
0.509930431842804 0.006654756609350443 0.6435757279396057
0.5088541507720947 0.008386798202991486 0.6439913511276245
0.5068544149398804 0.010127204470336437 0.6438269019126892
0.5028108358383179 0.008019322529435158 0.6399276256561279
0.5431262254714966 -0.025608960539102554 0.6432811617851257
0.5421108603477478 -0.0215438362210989 0.6452199816703796
0.5407509803771973 -0.007666663732379675 0.6531771421432495
0.5390002131462097 -0.007794979028403759 0.6519826054573059
0.534124493598938 -0.0036423909477889538 0.6515230536460876
0.5360406041145325 -0.0004121902456972748 0.654794454574585
0.524700403213501 0.004153446760028601 0.6504878401756287
0.5167127251625061 0.010759321972727776 0.6496092677116394
0.505388617515564 0.009618714451789856 0.6416853666305542
0.5423920750617981 -0.009756899438798428 0.6520320177078247
0.5363860130310059 -0.005988407414406538 0.6506054997444153
0.535182535648346 -0.0024473979137837887 0.6520956754684448
0.5341542959213257 0.0022151696030050516 0.6544128060340881
0.529822826385498 0.004998549818992615 0.6534258127212524
0.5243933200836182 0.004748307168483734 0.6498046517372131
0.5237539410591125 0.005007586441934109 0.649562418460846
0.5231121182441711 0.006214721128344536 0.649922788143158
0.5231467485427856 0.00813902448862791 0.6511718034744263
0.5214122533798218 0.010046834126114845 0.6512821912765503
0.5087100863456726 0.010110508650541306 0.6432244777679443
0.5444053411483765 -0.021928275004029274 0.6446753144264221
0.5416039228439331 -0.02023409493267536 0.6439673900604248
0.5410226583480835 -0.01991928741335869 0.643796980381012
0.542744517326355 -0.0093851238489151 0.6516333818435669
0.5405378937721252 -0.007045072503387928 0.6517186164855957
0.5378447771072388 -0.0073028383776545525 0.6498318910598755
0.5362828969955444 -0.0012021951843053102 0.652734100818634
0.5367044806480408 0.00027163568302057683 0.6539459824562073
0.5358126759529114 0.0011802613735198975 0.6539566516876221
0.534928560256958 0.0020976599771529436 0.6539780497550964
0.533560574054718 0.003425420494750142 0.6539523601531982
0.53255695104599 0.004207244608551264 0.653810441493988
0.5315521955490112 0.004989818204194307 0.6536685824394226
0.5270181894302368 0.0037727130111306906 0.6499910950660706
0.5264180302619934 0.004069317132234573 0.6497970819473267
0.5224596261978149 0.01020212285220623 0.6511873602867126
0.5194771885871887 0.010807634331285954 0.6496675610542297
0.5106536149978638 0.008317070081830025 0.6424334049224854
0.5058821439743042 0.010113661177456379 0.6405313611030579
0.5032732486724854 0.008490071631968021 0.6378251314163208
0.5450103878974915 -0.02229725755751133 0.6439443826675415
0.5435553193092346 -0.020986327901482582 0.6438519358634949
0.5441778898239136 -0.01175613608211279 0.6501699686050415
0.542553722858429 -0.007656024768948555 0.6517574787139893
0.5388730764389038 -0.007122090086340904 0.6497398614883423
0.5374078750610352 -0.005875108763575554 0.6495999097824097
0.5291653275489807 0.00420492235571146 0.65077805519104
0.5243389010429382 0.0065454281866550446 0.6491840481758118
0.5213031768798828 0.01083773747086525 0.649989902973175
0.516713559627533 0.011667879298329353 0.6475790143013
0.5118329524993896 0.007626496721059084 0.6418580412864685
0.5113654136657715 0.008093835785984993 0.6418580412864685
0.5078378915786743 0.011112743988633156 0.6415318250656128
0.5061290860176086 0.010361198335886002 0.6399542093276978
0.5454497933387756 -0.02180592156946659 0.6436588764190674
0.5428382158279419 -0.01986761949956417 0.6432256698608398
0.5441433787345886 -0.00981458742171526 0.6505303382873535
0.5401318669319153 -0.006656845565885305 0.6499810814857483
0.5366982221603394 -0.0037791153881698847 0.6496235132217407
0.5358677506446838 -0.0027759368531405926 0.6497345566749573
0.5360342264175415 0.0023211967200040817 0.6531197428703308
0.5342142581939697 0.0040942165069282055 0.6530895233154297
0.5317575931549072 0.006108442321419716 0.6528050303459167
0.5288344025611877 0.003805356565862894 0.6494441032409668
0.528252124786377 0.004119471646845341 0.6492716073989868
0.5242712497711182 0.008342806249856949 0.6494274735450745
0.5242741703987122 0.0092861857265234 0.650036096572876
0.5242444276809692 0.010191384702920914 0.6505990028381348
0.5223519802093506 0.010992169380187988 0.649897038936615
0.5121908783912659 0.007985848933458328 0.64142906665802
0.5106246471405029 0.010157815180718899 0.6418187022209167
0.5097720623016357 0.011171267367899418 0.641922116279602
0.544897198677063 -0.025909872725605965 0.6397711038589478
0.5384284257888794 -0.00576356053352356 0.648592472076416
0.5381405353546143 0.0008376332698389888 0.6526641845703125
0.532085120677948 0.006442484445869923 0.6523736715316772
0.5256816148757935 0.006052272394299507 0.6479920148849487
0.5199388265609741 0.012184612452983856 0.6482433080673218
0.5190951824188232 0.012241844087839127 0.6477360725402832
0.5172905921936035 0.012245568446815014 0.6465746760368347
0.5125484466552734 0.008344870060682297 0.6410004496574402
0.5097398161888123 0.012070462107658386 0.6415917873382568
0.5445342659950256 -0.019965825602412224 0.6424859166145325
0.5460231304168701 -0.012739107944071293 0.6481231451034546
0.545089602470398 -0.009790588170289993 0.6494264006614685
0.5441513061523438 -0.007900784723460674 0.6500418782234192
0.5426304936408997 -0.005732985679060221 0.6504605412483215
0.5416664481163025 -0.005910029169172049 0.6497224569320679
0.5328623056411743 0.0063264621421694756 0.6519424915313721
0.5266398191452026 0.006118128076195717 0.6477829217910767
0.525023877620697 0.010049186646938324 0.6492803692817688
0.5207006931304932 0.012035317718982697 0.6477686762809753
0.5100933909416199 0.012423232197761536 0.6411587595939636
0.5085760951042175 0.011852496303617954 0.6398081183433533
0.5438178777694702 -0.018847264349460602 0.6418596506118774
0.5459293723106384 -0.011897684074938297 0.647737443447113
0.5445022583007812 -0.007530494127422571 0.6496447324752808
0.5433639287948608 -0.00590183399617672 0.649962842464447
0.5400077700614929 -0.005981130991131067 0.6477341651916504
0.5395757555961609 -0.005497761536389589 0.6477674841880798
0.5384538769721985 -0.0038391307462006807 0.6481156945228577
0.536891758441925 -0.0017166058532893658 0.6484792232513428
0.5388023853302002 0.0015199088957160711 0.6518180966377258
0.5379192233085632 0.002436088165268302 0.6518393754959106
0.5361435413360596 0.004256678279489279 0.6518687009811401
0.5356430411338806 0.004647037014365196 0.6517972946166992
0.529227077960968 0.005110031925141811 0.647935688495636
0.5258527398109436 0.008091419003903866 0.6476806998252869
0.5225573182106018 0.012098679319024086 0.6481423377990723
0.5178678035736084 0.012823209166526794 0.6455704569816589
0.5124430656433105 0.010110218077898026 0.6402918100357056
0.5088224411010742 0.012099256739020348 0.639233410358429
0.5068883895874023 0.011127207428216934 0.6373482346534729
0.5466600060462952 -0.021650923416018486 0.6409966349601746
0.5463399887084961 -0.019913993775844574 0.6419182419776917
0.5457631945610046 -0.019600221887230873 0.6417472958564758
0.5442608594894409 -0.0058671399019658566 0.649703860282898
0.5387974977493286 -0.00348172290250659 0.6477015614509583
0.5376080274581909 -0.0019111798610538244 0.6479495167732239
0.5386913418769836 0.0023187592159956694 0.651405930519104
0.534518837928772 0.006211575586348772 0.65122389793396
0.5301324129104614 0.0051253302954137325 0.6476636528968811
0.5283623337745667 0.006042479537427425 0.6471089124679565
0.526228129863739 0.00847463309764862 0.6473027467727661
0.5243349075317383 0.012089341878890991 0.6484226584434509
0.5228707790374756 0.012413722462952137 0.6476810574531555
0.5191697478294373 0.013222428038716316 0.6457996368408203
0.5136208534240723 0.009421017952263355 0.6397167444229126
0.5128002166748047 0.010468228720128536 0.6398640871047974
0.5438914895057678 -0.017852719873189926 0.6407780051231384
0.5463434457778931 -0.009451033547520638 0.6478591561317444
0.5461431741714478 -0.008675842545926571 0.6482343077659607
0.5261470675468445 0.01025370229035616 0.647538423538208
0.5261461138725281 0.011191146448254585 0.648149311542511
0.5251005291938782 0.011950064450502396 0.6479623913764954
0.5246471166610718 0.012403559871017933 0.6479623913764954
0.5203202366828918 0.013470449484884739 0.6458355784416199
0.5143994092941284 0.009267063811421394 0.6392303109169006
0.5120037198066711 0.012469247914850712 0.6397563815116882
0.5115377902984619 0.01293500978499651 0.6397563815116882
0.5071998834609985 0.011443082243204117 0.635952889919281
0.5447960495948792 -0.017828455194830894 0.640495240688324
0.5427948832511902 -0.004775082226842642 0.6477267146110535
0.5401565432548523 -0.003962792921811342 0.6465318202972412
0.5387431979179382 -0.0016597728244960308 0.6471138596534729
0.5380212664604187 0.0043636709451675415 0.6505827903747559
0.5361717343330383 0.006096759345382452 0.6505066156387329
0.5337206125259399 0.008109885267913342 0.6502200961112976
0.5302000641822815 0.006099129561334848 0.6466009020805359
0.5279238224029541 0.007418651133775711 0.6459749341011047
0.5269638895988464 0.008277008309960365 0.6459083557128906
0.5261398553848267 0.012102068401873112 0.6478720307350159
0.5143343210220337 0.010137150064110756 0.6388620734214783
0.5095615386962891 0.012840096838772297 0.6375076770782471
0.544543981552124 -0.017173603177070618 0.6398688554763794
0.5479843020439148 -0.011652521789073944 0.645749032497406
0.544489324092865 -0.004769823979586363 0.6479719281196594
0.5412852168083191 -0.004666056018322706 0.6459375023841858
0.5401236414909363 0.0028822114691138268 0.6501283645629883
0.5354974269866943 0.007211438845843077 0.649933397769928
0.5339665412902832 0.008352569304406643 0.6496778726577759
0.529939591884613 0.0067393165081739426 0.6459769010543823
0.5230639576911926 0.013508818112313747 0.6459071040153503
0.5217723250389099 0.014023986645042896 0.6453975439071655
0.5483405590057373 -0.021960344165563583 0.6383248567581177
0.5482180118560791 -0.018865952268242836 0.640280544757843
0.547063946723938 -0.01824313960969448 0.6399308443069458
0.5464879870414734 -0.017928438261151314 0.6397591233253479
0.5477335453033447 -0.009973101317882538 0.6458138823509216
0.546253502368927 -0.005682740826159716 0.6476633548736572
0.5423943400382996 -0.004381510894745588 0.6459800004959106
0.5413006544113159 -0.0036986139602959156 0.6457095146179199
0.539572536945343 0.001201590639539063 0.6477970480918884
0.5404535531997681 0.0032223446760326624 0.6497066020965576
0.5395715236663818 0.004137195646762848 0.6497282385826111
0.5377710461616516 0.005923979915678501 0.6497191786766052
0.5372714996337891 0.006314250640571117 0.6496473550796509
0.5336514115333557 0.007967821322381496 0.6483532190322876
0.5314281582832336 0.0064428867772221565 0.6458866596221924
0.5285652279853821 0.008068137802183628 0.6450720429420471
0.5277263522148132 0.01000420842319727 0.645794153213501
0.5241226553916931 0.013672595843672752 0.6458367705345154
0.5220775008201599 0.014330171048641205 0.6449234485626221
0.5203487873077393 0.014403408393263817 0.6438342332839966
0.5154015421867371 0.010272730141878128 0.6378602385520935
0.5117375254631042 0.014067878015339375 0.6379464268684387
0.5100548267364502 0.013334255665540695 0.6363564133644104
0.5076680183410645 0.011918135918676853 0.6338537931442261
0.5445998907089233 -0.0037520616315305233 0.6469768285751343
0.5436409115791321 -0.0039240773767232895 0.6462303400039673
0.5405135750770569 -0.0016981193330138922 0.6456354856491089
0.5397629737854004 -0.0006029130890965462 0.6458627581596375
0.540342390537262 0.004019569605588913 0.6492957472801208
0.538096010684967 0.00625684903934598 0.6492897868156433
0.5356490015983582 0.008268141187727451 0.6490023732185364
0.533786416053772 0.007129066623747349 0.6470212936401367
0.5281002521514893 0.01038583554327488 0.6454179883003235
0.5145711302757263 0.012242590077221394 0.637714684009552
0.5137980580329895 0.013332574628293514 0.6379236578941345
0.5129466652870178 0.0143422931432724 0.6380283236503601
0.5103015899658203 0.013581481762230396 0.6357806324958801
0.5078244209289551 0.012076916173100471 0.6331527233123779
0.5482883453369141 -0.017879916355013847 0.6391963958740234
0.5462857484817505 -0.003749252064153552 0.6472234725952148
0.5439228415489197 -0.003640553681179881 0.6457313895225525
0.5396490097045898 0.0002023544948315248 0.6454461812973022
0.5364746451377869 0.008209860883653164 0.6486451625823975
0.5334692001342773 0.006738759111613035 0.645682156085968
0.5302935838699341 0.008001108653843403 0.6444157361984253
0.5285730361938477 0.008978699333965778 0.6439241766929626
0.5280147790908813 0.012156342156231403 0.6456578373908997
0.5280098915100098 0.013087740167975426 0.6462709903717041
0.5266591310501099 0.01351962797343731 0.6456628441810608
0.5254780650138855 0.01413682010024786 0.6452897191047668
0.5231434106826782 0.014486925676465034 0.6439763307571411
0.5161136388778687 0.010987835936248302 0.6370076537132263
0.5137636065483093 0.01422850601375103 0.6375970840454102
0.5458748936653137 -0.015781041234731674 0.6380946040153503
0.5456144213676453 -0.0036380153615027666 0.6459816694259644
0.5404418110847473 0.00010061782813863829 0.6450300216674805
0.530613124370575 0.008325230330228806 0.6439653635025024
0.5265177488327026 0.014286301098763943 0.645203709602356
0.5145009756088257 0.014035835862159729 0.6370611786842346
0.5107951760292053 0.014076161198318005 0.6346280574798584
0.5081375241279602 0.012394465506076813 0.631747841835022
0.5500950813293457 -0.01781526952981949 0.6386539340019226
0.5477874875068665 -0.016573218628764153 0.637944757938385
0.5467491149902344 -0.01579447276890278 0.6377719640731812
0.5497837662696838 -0.009728817269206047 0.643829882144928
0.5478947162628174 -0.004920477978885174 0.64577317237854
0.543525218963623 -0.003244204679504037 0.6439802646636963
0.5422228574752808 -0.0018095681443810463 0.6440682411193848
0.5422117114067078 0.004123960621654987 0.6480106115341187
0.5400015115737915 0.006399370264261961 0.6480540037155151
0.5385714173316956 0.007644972298294306 0.6479312181472778
0.5381232500076294 0.008093167096376419 0.6479312181472778
0.5376244187355042 0.00848381407558918 0.6478593349456787
0.5321429967880249 0.008073735982179642 0.6439375281333923
0.529226541519165 0.010590781457722187 0.6436715126037598
0.5253731608390808 0.014929821714758873 0.6439948081970215
0.5214992761611938 0.015554890036582947 0.6418322324752808
0.5164697170257568 0.012280566617846489 0.6363046169281006
0.5127208232879639 0.015052726492285728 0.6356545090675354
0.5498573780059814 -0.02150387316942215 0.6351394057273865
0.5492605566978455 -0.016864852979779243 0.637837827205658
0.5479714870452881 -0.0038757636211812496 0.6456485390663147
0.5430202484130859 -0.0019052629359066486 0.6436586976051331
0.5418722629547119 -0.0002874102792702615 0.6439723372459412
0.5425407886505127 0.004463300108909607 0.6475901007652283
0.5416597127914429 0.005376840475946665 0.6476118564605713
0.5407714247703552 0.006281390320509672 0.6476225852966309
0.5340753793716431 0.007317851297557354 0.6438444256782532
0.5336219072341919 0.007771353702992201 0.6438444256782532
0.5291383266448975 0.012362024746835232 0.6439159512519836
0.5290398597717285 0.014131586067378521 0.6450314521789551
0.5264137983322144 0.015078236348927021 0.6439104080200195
0.5171799659729004 0.012058847583830357 0.635730504989624
0.5159764289855957 0.01365055050700903 0.6359894275665283
0.5112367868423462 0.014519504271447659 0.6334055662155151
0.5511959195137024 -0.017611335963010788 0.6377382874488831
0.5484366416931152 -0.015896430239081383 0.6370391845703125
0.5498886108398438 -0.007674290798604488 0.6435158848762512
0.5483105778694153 -0.0035199285484850407 0.6452407240867615
0.5450506210327148 -0.0025062276981770992 0.6437369585037231
0.5422109365463257 6.424860475817695e-05 0.643556535243988
0.5418344736099243 0.0006093971896916628 0.6436694264411926
0.5304860472679138 0.010013493709266186 0.6423678398132324
0.5239077210426331 0.016166307032108307 0.642082929611206
0.5230723023414612 0.01623007282614708 0.6415663957595825
0.5163271427154541 0.01400198694318533 0.6355588436126709
0.5159403681755066 0.014545676298439503 0.6356638073921204
0.5147033333778381 0.016096752136945724 0.6358740329742432
0.5506995916366577 -0.007745371200144291 0.643133819103241
0.5498847365379333 -0.005690678954124451 0.6439662575721741
0.5467389822006226 -0.0025067273527383804 0.643992006778717
0.5440363883972168 -0.001794272568076849 0.6426557898521423
0.5423173904418945 0.006054307799786329 0.6467713117599487
0.5400429368019104 0.008251206018030643 0.6467190980911255
0.5376013517379761 0.010261344723403454 0.6464293003082275
0.5342668890953064 0.008427590131759644 0.642959475517273
0.5308060050010681 0.010337373241782188 0.6419178247451782
0.5303356647491455 0.012668037787079811 0.6431668996810913
0.5298740863800049 0.014050474390387535 0.6437853574752808
0.5246678590774536 0.016016755253076553 0.6416100263595581
0.5134588479995728 0.015792077407240868 0.6339332461357117
0.5499792098999023 -0.022748716175556183 0.6316669583320618
0.5502315163612366 -0.015851208940148354 0.6364812254905701
0.5480480194091797 -0.014441510662436485 0.6359601020812988
0.5465684533119202 -0.0017719775205478072 0.6434946656227112
0.5416825413703918 0.0023080394603312016 0.6429522037506104
0.5384247303009033 0.010202132165431976 0.6460738778114319
0.5328385829925537 0.009682630188763142 0.6419627070426941
0.5302451252937317 0.014428382739424706 0.6434119939804077
0.5273488163948059 0.01601872779428959 0.6425326466560364
0.522649347782135 0.016705967485904694 0.6398308873176575
0.5182440876960754 0.013127854093909264 0.6344554424285889
0.5137054324150085 0.01603870466351509 0.633359432220459
0.5117089152336121 0.014996963553130627 0.6313135623931885
0.5521599054336548 -0.01660466007888317 0.6363764405250549
0.551575779914856 -0.007813110947608948 0.6419184803962708
0.5500863790512085 -0.0035323232877999544 0.643803596496582
0.5496358871459961 -0.003081813221797347 0.643803596496582
0.549000084400177 -0.0018482451559975743 0.6442070603370667
0.5482487082481384 -0.0017743005882948637 0.6437496542930603
0.5450522899627686 -0.0016832939581945539 0.6416526436805725
0.5424730777740479 0.002205741126090288 0.6425372362136841
0.5438544154167175 0.005818693898618221 0.6459096670150757
0.5434142351150513 0.006274855695664883 0.6459205746650696
0.5416470170021057 0.008090795949101448 0.645953357219696
0.5397452116012573 0.009752519428730011 0.645791232585907
0.5392473936080933 0.010143022984266281 0.6457189917564392
0.5343350172042847 0.009399084374308586 0.6418992877006531
0.533157229423523 0.010005874559283257 0.6415138244628906
0.5310892462730408 0.012494503520429134 0.641797661781311
0.5283848643302917 0.01616535522043705 0.6424503326416016
0.5269336104393005 0.016498945653438568 0.6416957378387451
0.5189934968948364 0.012947269715368748 0.6339355707168579
0.5182299613952637 0.014046990312635899 0.6341626048088074
0.5166050791740417 0.016140572726726532 0.6344790458679199
0.5520210862159729 -0.01580590382218361 0.6359251141548157
0.5514497756958008 -0.015491153113543987 0.6357515454292297
0.5486968159675598 -0.01376585103571415 0.635055661201477
0.5461781620979309 -0.0013724241871386766 0.6417427062988281
0.5442809462547302 0.00033519379212521017 0.6416143774986267
0.5439401268959045 0.0009238418424502015 0.641782283782959
0.5441824197769165 0.006157001946121454 0.6454899907112122
0.5400691032409668 0.010083772242069244 0.6453636884689331
0.5340806841850281 0.010043001733720303 0.6412808299064636
0.5291479825973511 0.016025660559535027 0.6419918537139893
0.5242500305175781 0.017410052940249443 0.6396123766899109
0.5185797214508057 0.014398070983588696 0.6337329149246216
0.5177281498908997 0.015405726619064808 0.6338384747505188
0.5163183212280273 0.016782637685537338 0.6338163614273071
0.5158538818359375 0.01724712923169136 0.6338163614273071
0.5120245218276978 0.015316192992031574 0.6299153566360474
0.5516760349273682 -0.005767354276031256 0.6416094303131104
0.5500022172927856 -0.0017442115349695086 0.6432051062583923
0.5435246825218201 0.0023625183384865522 0.6415947675704956
0.5443740487098694 0.004369675647467375 0.643534779548645
0.5439243912696838 0.004819146823137999 0.643534779548645
0.5427435040473938 0.008310114033520222 0.6451035737991333
0.5379171371459961 0.010477314703166485 0.6432976126670837
0.5360078811645508 0.00928543135523796 0.6411915421485901
0.5318194627761841 0.014182855375111103 0.6416731476783752
0.5308993458747864 0.01600574515759945 0.6422861218452454
0.5301802158355713 0.016172148287296295 0.6419106721878052
0.5144445896148682 0.016779137775301933 0.631636381149292
0.5530465841293335 -0.017879463732242584 0.633411169052124
0.550380289554596 -0.013869673945009708 0.6343264579772949
0.5516237616539001 -0.0038488798309117556 0.6419982314109802
0.5481444597244263 -0.0010927869006991386 0.6415056586265564
0.5442385673522949 0.0021690092980861664 0.64106684923172
0.5454299449920654 0.005578246898949146 0.6442003846168518
0.5376126170158386 0.010097859427332878 0.6419541835784912
0.5334851741790771 0.011237096972763538 0.639919102191925
0.5322161912918091 0.012700623832643032 0.640051543712616
0.5321895480155945 0.014560803771018982 0.64130038022995
0.5270183086395264 0.01747865416109562 0.6397657990455627
0.5200156569480896 0.013973938301205635 0.6326093077659607
0.5184273719787598 0.016106342896819115 0.6329798698425293
0.5507037043571472 -0.013532429002225399 0.633874773979187
0.549689769744873 -0.012725749053061008 0.633733332157135
0.5460901260375977 0.00034953263821080327 0.6402052640914917
0.5460518002510071 0.006268332712352276 0.6442219614982605
0.5442858338356018 0.008082416839897633 0.6442548632621765
0.5400454998016357 0.011857852339744568 0.6439371705055237
0.5350476503372192 0.011025773361325264 0.6399553418159485
0.5333495736122131 0.012013870291411877 0.6394703388214111
0.5320947170257568 0.01631256192922592 0.6415491104125977
0.5281468629837036 0.017717406153678894 0.6398124694824219
0.5260394215583801 0.01830480620265007 0.6387740969657898
0.5251098871231079 0.01827070116996765 0.6381159424781799
0.5203691124916077 0.014329362660646439 0.6321858763694763
0.5124994516372681 0.01579616591334343 0.627812385559082
0.5527417063713074 -0.014141373336315155 0.6339501142501831
0.5521698594093323 -0.013827512972056866 0.6337733864784241
0.5525669455528259 -0.0038234498351812363 0.640897810459137
0.5517916083335876 -0.0017358328914269805 0.641796886920929
0.5473052263259888 -0.0002387186250416562 0.6397492289543152
0.5467624664306641 0.00010351520904805511 0.6396117806434631
0.5456486940383911 0.0017603397136554122 0.6399838328361511
0.5463788509368896 0.006606312468647957 0.6438033580780029
0.5459320545196533 0.007053180132061243 0.6438033580780029
0.5446133017539978 0.008419712074100971 0.6438360810279846
0.5437272191047668 0.009322079829871655 0.6438472867012024
0.542803168296814 0.010180506855249405 0.643802285194397
0.5403690934181213 0.012188510037958622 0.6435104608535767
0.5369723439216614 0.010267361998558044 0.6398677229881287
0.532943606376648 0.014389704912900925 0.639931857585907
0.5284497141838074 0.01802157051861286 0.6393414735794067
0.5253964066505432 0.018557611852884293 0.6376169919967651
0.5207225680351257 0.01468451227992773 0.6317624449729919
0.5173012614250183 0.017765788361430168 0.6315297484397888
0.5168363451957703 0.018230566754937172 0.6315297484397888
0.5151844620704651 0.0175201166421175 0.6299116015434265
0.5543426871299744 -0.01642000675201416 0.6325814723968506
0.5537163615226746 -0.005524881184101105 0.6396353840827942
0.5521286725997925 -0.0013814016710966825 0.6413910388946533
0.5508757829666138 8.803176751825958e-05 0.6415398716926575
0.5485361814498901 0.00020737090380862355 0.6400148272514343
0.545989990234375 0.0021160305477678776 0.6395767331123352
0.5344400405883789 0.012205323204398155 0.6385734677314758
0.5307003855705261 0.017588669434189796 0.6397024393081665
0.5302483439445496 0.01804077997803688 0.6397024393081665
0.5271026492118835 0.018460307270288467 0.6378298997879028
0.5203258991241455 0.016150178387761116 0.6315876841545105
0.5198618173599243 0.016614113003015518 0.6315876841545105
0.5187015533447266 0.01823793724179268 0.6319061517715454
0.5534563064575195 -0.003868203377351165 0.6397111415863037
0.549281895160675 5.4654556151945144e-05 0.6395376920700073
0.5467960238456726 0.002034714911133051 0.6391893625259399
0.5452122688293457 0.0041130962781608105 0.6395300626754761
0.5461462736129761 0.008183424361050129 0.6429777145385742
0.5420092344284058 0.012068449519574642 0.642803966999054
0.5381877422332764 0.010605178773403168 0.6391633749008179
0.5360085368156433 0.012001876719295979 0.6386244297027588
0.533713698387146 0.013284960761666298 0.6379271149635315
0.5336668491363525 0.01606893725693226 0.6398127675056458
0.5282325148582458 0.018697604537010193 0.6378800868988037
0.5156782269477844 0.01801452413201332 0.6287609338760376
0.5547958016395569 -0.013829655013978481 0.6328686475753784
0.5515602827072144 -0.01168886199593544 0.6321122646331787
0.5542625784873962 -0.00394056411460042 0.6393323540687561
0.5520252585411072 0.00037886982318013906 0.6407708525657654
0.5505204796791077 0.0005185170448385179 0.6398276686668396
0.5447092056274414 0.010332333855330944 0.6425928473472595
0.5357014536857605 0.012586808763444424 0.6379274725914001
0.5340694189071655 0.014596792869269848 0.6381883025169373
0.5340355038642883 0.016445178538560867 0.6394419074058533
0.5320389866828918 0.018044669181108475 0.6391676664352417
0.5180388689041138 0.018503820523619652 0.6298125386238098
0.5175739526748657 0.018968816846609116 0.6298125386238098
0.5529485940933228 -0.012086054310202599 0.6318918466567993
0.5537018775939941 -0.0016477842582389712 0.6396458148956299
0.5485377311706543 0.001025094767101109 0.6379197239875793
0.5463200807571411 0.004340052139014006 0.6386799812316895
0.5431012511253357 0.012282104231417179 0.641952395439148
0.5416619777679443 0.013509462587535381 0.6418055891990662
0.5372337102890015 0.012347270734608173 0.6379323601722717
0.5344568490982056 0.014046288095414639 0.6371855139732361
0.5304585099220276 0.019146952778100967 0.6379493474960327
0.5265421867370605 0.019704768434166908 0.635622501373291
0.522133469581604 0.01610276848077774 0.630072295665741
0.5205204486846924 0.018203381448984146 0.6304101347923279
0.5560263395309448 -0.01344508770853281 0.6321787238121033
0.5554704666137695 -0.0056575811468064785 0.6372033953666687
0.5542982220649719 -0.001987988827750087 0.6389384269714355
0.553474485874176 3.3508738852106035e-05 0.6397708058357239
0.5485720634460449 0.0020136176608502865 0.6377401947975159
0.548011302947998 0.00829298421740532 0.6417135000228882
0.5475648641586304 0.008739241398870945 0.6417135000228882
0.5462481379508972 0.010103827342391014 0.6417467594146729
0.5458091497421265 0.01055870857089758 0.6417577862739563
0.5391899347305298 0.01163087971508503 0.6379036903381348
0.5381612181663513 0.012394155375659466 0.6377192139625549
0.5340867042541504 0.018330201506614685 0.6390125155448914
0.5282970070838928 0.019658222794532776 0.6359126567840576
0.5278424024581909 0.02011287584900856 0.6359126567840576
0.522485613822937 0.01645687036216259 0.6296504139900208
0.5217189788818359 0.01754813641309738 0.629875898361206
0.5212554335594177 0.018011583015322685 0.629875898361206
0.5504575371742249 0.0012497665593400598 0.637631356716156
0.5478070378303528 0.004029407165944576 0.6377213597297668
0.5447361469268799 0.012161977589130402 0.6412482857704163
0.5422816872596741 0.014139549806714058 0.6409160494804382
0.5352149605751038 0.016714682802557945 0.6377862691879272
0.5329669713973999 0.018979480490088463 0.6377979516983032
0.5281280875205994 0.020398912951350212 0.6354151964187622
0.5561812520027161 -0.004896283615380526 0.6364459991455078
0.555229127407074 -0.0019770043436437845 0.6378205418586731
0.5544747710227966 0.00013717220281250775 0.6387706995010376
0.5481699109077454 0.004411519505083561 0.6373518109321594
0.5364258289337158 0.01422563660889864 0.6360033750534058
0.5313854217529297 0.02007933333516121 0.6365715861320496
0.5224143266677856 0.01824595220386982 0.6290215849876404
0.5206496119499207 0.020186694338917732 0.629144549369812
0.5563679933547974 -0.0036915563978254795 0.6365275979042053
0.5537188649177551 0.0021596753504127264 0.6387717127799988
0.5520026683807373 0.0020297695882618427 0.6374779343605042
0.5505934953689575 0.0022982836235314608 0.6366786956787109
0.5481040477752686 0.010203159414231777 0.6404736042022705
0.5463423132896423 0.012012300081551075 0.6405068635940552
0.5402352213859558 0.012705396860837936 0.636712908744812
0.538028359413147 0.014063512906432152 0.6361180543899536
0.5374014377593994 0.014321845956146717 0.6358597278594971
0.5360544919967651 0.016637282446026802 0.6365383863449097
0.5360087156295776 0.018468214198946953 0.6377894282341003
0.5355590581893921 0.018917957320809364 0.6377894282341003
0.5324176549911499 0.02022404968738556 0.6365033984184265
0.5308707356452942 0.02045298181474209 0.6355797648429871
0.5563809275627136 -0.001679684384725988 0.6370578408241272
0.555426836013794 0.00017920036043506116 0.6376937627792358
0.5540576577186584 0.002515624277293682 0.638373613357544
0.5481352806091309 0.00624773558229208 0.6368343234062195
0.5457004308700562 0.013150578364729881 0.6399741172790527
0.5442652106285095 0.0143764428794384 0.6398271322250366
0.5437659025192261 0.014761846512556076 0.6397470235824585
0.5389808416366577 0.014138460159301758 0.6359462738037109
0.5364378094673157 0.016084954142570496 0.6355270147323608
0.529439389705658 0.02080206386744976 0.6339237093925476
0.5547105669975281 0.0022541414946317673 0.6377621293067932
0.5516419410705566 0.0024562773760408163 0.6357420086860657
0.5500819087028503 0.004561902955174446 0.6361266374588013
0.5500705242156982 0.009512213058769703 0.6396073698997498
0.5496392250061035 0.00997515581548214 0.6396295428276062
0.5491936206817627 0.010420803911983967 0.6396295428276062
0.547878086566925 0.011783248744904995 0.6396628022193909
0.5474398732185364 0.012237449176609516 0.6396738886833191
0.540930986404419 0.013420592993497849 0.6359206438064575
0.5349161624908447 0.020054014399647713 0.6363564133644104
0.5342028141021729 0.0202245581895113 0.6359740495681763
0.5334879755973816 0.020395468920469284 0.635590672492981
0.5582094192504883 -0.0046692811883986 0.634453296661377
0.5572603344917297 -0.0017362561775371432 0.6358553767204285
0.5563671588897705 0.00020554593356791884 0.6365966796875
0.5508328676223755 0.004417704418301582 0.6356620788574219
0.5496604442596436 0.005988316144794226 0.6359437108039856
0.5482036471366882 0.012118672952055931 0.6392467617988586
0.5407043099403381 0.01408957690000534 0.6353392004966736
0.5366349816322327 0.02001378685235977 0.6366502046585083
0.5309597849845886 0.021435612812638283 0.6336441040039062
0.5532169938087463 0.003274766029790044 0.6356477737426758
0.5500809550285339 0.006440723314881325 0.6356688141822815
0.5496793985366821 0.00694930087774992 0.6357446312904358
0.5507196187973022 0.010183439590036869 0.6387744545936584
0.5466633439064026 0.01413771416991949 0.6387020945549011
0.5441268086433411 0.016014449298381805 0.6382344365119934
0.5381600856781006 0.01599738933146 0.6339929699897766
0.5377076268196106 0.016449671238660812 0.6339929699897766
0.5376792550086975 0.01831032708287239 0.6352918148040771
0.5362424850463867 0.020504100248217583 0.63582843542099
0.5320793986320496 0.021666748449206352 0.6337016820907593
0.5298621654510498 0.022135823965072632 0.6324623823165894
0.5589174628257751 -0.003909321967512369 0.6336990594863892
0.5581355690956116 -0.0017998814582824707 0.6346428990364075
0.5573080778121948 0.0002320110215805471 0.6354989409446716
0.5564881563186646 0.0022565247491002083 0.6363552808761597
0.5523344278335571 0.004129578825086355 0.6347339749336243
0.5449939966201782 0.016010327264666557 0.637961208820343
