ply
format ascii 1.0
element vertex 798
property float x
property float y
property float z
end_header
0.375519722700119 -0.011933878995478153 0.6598951816558838
0.3762216866016388 -0.012167749926447868 0.6598951816558838
0.37981298565864563 -0.01214186567813158 0.6591009497642517
0.3805381655693054 -0.01207208912819624 0.6588985323905945
0.383148193359375 -0.006120228674262762 0.6544666290283203
0.2969014346599579 0.012911605648696423 0.6598876714706421
0.2977152168750763 0.011677002534270287 0.6605154275894165
0.3000281751155853 0.008991777896881104 0.6617627739906311
0.3039049506187439 0.00391991063952446 0.6642256379127502
0.30547502636909485 0.0015309660229831934 0.6654412746429443
0.3099610507488251 -0.0038997698575258255 0.6680055856704712
0.31494051218032837 -0.008179131895303726 0.6697126626968384
0.31629422307014465 -0.008634088560938835 0.6697152256965637
0.31830185651779175 -0.009001110680401325 0.6695178151130676
0.32027003169059753 -0.008736708201467991 0.6689181923866272
0.32222408056259155 -0.008114156313240528 0.6680881381034851
0.32415613532066345 -0.006911419332027435 0.6668850183486938
0.32661014795303345 -0.002463387092575431 0.6634533405303955
0.32864269614219666 -0.0022553433664143085 0.6628762483596802
0.3335157632827759 -0.004429732449352741 0.6632347106933594
0.33630847930908203 -0.006115951109677553 0.6637265682220459
0.33978596329689026 -0.008206047117710114 0.6643333435058594
0.3432460129261017 -0.010096593759953976 0.6648139953613281
0.3473810851573944 -0.012149007990956306 0.6652529239654541
0.35219112038612366 -0.014182103797793388 0.6655329465866089
0.35837522149086 -0.016090506687760353 0.6654333472251892
0.370159387588501 -0.017739173024892807 0.6639478802680969
0.3723483681678772 -0.016156990081071854 0.6624417901039124
0.3731008470058441 -0.015293344855308533 0.6617155075073242
0.37534740567207336 -0.013255910016596317 0.6598996520042419
0.38118043541908264 -0.011896819807589054 0.6577474474906921
0.3821745812892914 -0.008166984654963017 0.6551008224487305
0.29846495389938354 0.009616008959710598 0.6608074903488159
0.3015650808811188 0.005738408304750919 0.6626666188240051
0.30383944511413574 0.0031042590271681547 0.6638931632041931
0.30618762969970703 -0.0004628851602319628 0.6657131314277649
0.30989739298820496 -0.00477411225438118 0.6677228808403015
0.3105774223804474 -0.005000787321478128 0.6677228808403015
0.3135254383087158 -0.008666526526212692 0.6694765686988831
0.31758856773376465 -0.010134189389646053 0.6695504188537598
0.3182479441165924 -0.010135587304830551 0.6694076657295227
0.32089513540267944 -0.010181700810790062 0.6688610315322876
0.322811096906662 -0.008979114703834057 0.667657732963562
0.32411450147628784 -0.008463381789624691 0.6670363545417786
0.3253215551376343 -0.006106473971158266 0.6652329564094543
0.32724305987358093 -0.004118294920772314 0.6635146141052246
0.33550986647605896 -0.006424098275601864 0.6632208824157715
0.3382936418056488 -0.008111393079161644 0.6637172102928162
0.3417573571205139 -0.010093347169458866 0.664257824420929
0.34589529037475586 -0.012297669425606728 0.6647970676422119
0.35001763701438904 -0.014265762642025948 0.6651856303215027
0.3555067181587219 -0.016074299812316895 0.6651715040206909
0.3561934232711792 -0.01626141369342804 0.665144145488739
0.36515310406684875 -0.018123809248209 0.664409339427948
0.36654436588287354 -0.018184570595622063 0.6641459465026855
0.36794230341911316 -0.018147265538573265 0.6638172268867493
0.36863163113594055 -0.018377074971795082 0.6638172268867493
0.37292957305908203 -0.016705095767974854 0.6617879271507263
0.3744279444217682 -0.015212672762572765 0.6604858040809631
0.3751682937145233 -0.014704597182571888 0.6599923968315125
0.37660494446754456 -0.014524699188768864 0.6595619320869446
0.37805110216140747 -0.014261952601373196 0.6590749025344849
0.38120922446250916 -0.010196603834629059 0.6557295322418213
0.2959643006324768 0.012500614859163761 0.6585738062858582
0.29678356647491455 0.01123787835240364 0.6592226028442383
0.299904465675354 0.007336864713579416 0.6610981822013855
0.3007049858570099 0.006124763749539852 0.6617180109024048
0.3053416609764099 -8.733909635338932e-05 0.6647775173187256
0.3075715899467468 -0.0026006116531789303 0.6659379005432129
0.3112579882144928 -0.006854143459349871 0.6679210066795349
0.3148314356803894 -0.010274657979607582 0.6693828701972961
0.32212480902671814 -0.010758996941149235 0.6681065559387207
0.3227658271789551 -0.01039608009159565 0.6677282452583313
0.32849055528640747 -0.0045280493795871735 0.6626297235488892
0.330539345741272 -0.004681598395109177 0.6622828245162964
0.3333214521408081 -0.006020450498908758 0.6625526547431946
0.33680614829063416 -0.008180197328329086 0.6632068753242493
0.34027379751205444 -0.010272197425365448 0.663820743560791
0.34372374415397644 -0.01215363945811987 0.6643003225326538
0.3478468358516693 -0.014066636562347412 0.6646537184715271
0.348533034324646 -0.014414001256227493 0.6647313237190247
0.3526456654071808 -0.016039758920669556 0.6648982167243958
0.3601962924003601 -0.01802780292928219 0.6645516753196716
0.36226072907447815 -0.018502986058592796 0.6644122004508972
0.36571940779685974 -0.018921155482530594 0.663930356502533
0.3699626922607422 -0.017749987542629242 0.6622349619865417
0.3706796169281006 -0.017454568296670914 0.661884605884552
0.37425193190574646 -0.01665010303258896 0.6605765223503113
0.3802524507045746 -0.01220966037362814 0.6563539505004883
0.3812386691570282 -0.008482590317726135 0.653694748878479
0.29590070247650146 0.011710435152053833 0.6582120656967163
0.2975364625453949 0.009178214706480503 0.6595191359519958
0.3006426692008972 0.005302902776747942 0.6613868474960327
0.30370908975601196 0.001477465033531189 0.6632304787635803
0.30449360609054565 0.00028937807655893266 0.6638395190238953
0.30976834893226624 -0.006497308611869812 0.667146623134613
0.3119347393512726 -0.008696885779500008 0.6681182384490967
0.3134108781814575 -0.010637491010129452 0.6690710186958313
0.31680479645729065 -0.012089937925338745 0.6692823171615601
0.3181435167789459 -0.012432185932993889 0.6692137122154236
0.32011422514915466 -0.012379803694784641 0.6687471270561218
0.32207566499710083 -0.012074688449501991 0.6681169271469116
0.3240220248699188 -0.011370114050805569 0.6672269701957703
0.3252445459365845 -0.009439299814403057 0.6656891107559204
0.3264460861682892 -0.006840432062745094 0.6637166738510132
0.33113908767700195 -0.005773791112005711 0.661986231803894
0.3318299353122711 -0.006006896961480379 0.6619880199432373
0.33531200885772705 -0.008007693104445934 0.6625404953956604
0.33878472447395325 -0.010160618461668491 0.6631948947906494
0.3422391414642334 -0.0121498703956604 0.6637462377548218
0.3443034589290619 -0.013201272115111351 0.6639848351478577
0.3504762351512909 -0.016143890097737312 0.6645668745040894
0.3573278486728668 -0.018090853467583656 0.6643455028533936
0.35801300406455994 -0.018319232389330864 0.6643455028533936
0.3628250062465668 -0.0193733312189579 0.6639838814735413
0.369148850440979 -0.018044564872980118 0.6617236137390137
0.36986109614372253 -0.01782207004725933 0.661421000957489
0.37485039234161377 -0.01692054234445095 0.6597345471382141
0.37626656889915466 -0.01699185185134411 0.6594707369804382
0.3786008954048157 -0.013969117775559425 0.656971275806427
0.3793037235736847 -0.014203391969203949 0.656971275806427
0.29583632946014404 0.010930866003036499 0.6578459739685059
0.29828453063964844 0.007131870370358229 0.6598137617111206
0.29978129267692566 0.0056891595013439655 0.6604362726211548
0.3013758957386017 0.0032820100896060467 0.6616735458374023
0.30442795157432556 -0.0005185747868381441 0.6635095477104187
0.3059861361980438 -0.002873684512451291 0.6647206544876099
0.30744147300720215 -0.004271179903298616 0.665322482585907
0.30820128321647644 -0.005334829445928335 0.6658568382263184
0.3111270070075989 -0.008576328866183758 0.667352020740509
0.31471842527389526 -0.012300754897296429 0.6690191626548767
0.32266443967819214 -0.013022507540881634 0.6677482724189758
0.3245975375175476 -0.012088904157280922 0.6667070984840393
0.3252047002315521 -0.011063873767852783 0.6658972501754761
0.32640403509140015 -0.008512616157531738 0.6639507412910461
0.3283423185348511 -0.006837103050202131 0.6624190211296082
0.3296782374382019 -0.006412337068468332 0.6618450284004211
0.3324327766895294 -0.0072363088838756084 0.6617830991744995
0.33798879384994507 -0.010464933700859547 0.6626912951469421
0.34075501561164856 -0.012137864716351032 0.6631867289543152
0.34419670701026917 -0.01401832140982151 0.6636701226234436
0.34625643491744995 -0.015172845683991909 0.6639787554740906
0.3489948511123657 -0.01626337505877018 0.6640961170196533
0.35446757078170776 -0.018169453367590904 0.6641499996185303
0.3572084605693817 -0.018811140209436417 0.6639708280563354
0.3585790991783142 -0.019182872027158737 0.6639145016670227
0.3606393039226532 -0.019613299518823624 0.6637454032897949
0.3662259876728058 -0.018616817891597748 0.6618597507476807
0.3718649744987488 -0.018035124987363815 0.6602360606193542
0.3725791871547699 -0.01786896400153637 0.6599692702293396
0.3776632249355316 -0.015949144959449768 0.6575849056243896
0.3786178231239319 -0.012285083532333374 0.6549578905105591
0.2974094748497009 0.0075941262766718864 0.6588121056556702
0.3021046221256256 0.0012739470694214106 0.6619585156440735
0.3035791218280792 -0.00014254781126510352 0.662570595741272
0.30514243245124817 -0.0025019063614308834 0.6637868881225586
0.30813831090927124 -0.006189966108649969 0.6655666828155518
0.3096388280391693 -0.008198988623917103 0.6665650606155396
0.31180331110954285 -0.010418551973998547 0.6675562858581543
0.3132764995098114 -0.012350204400718212 0.6685091853141785
0.31669166684150696 -0.014180605299770832 0.6689673662185669
0.31803882122039795 -0.01469479687511921 0.6690104603767395
0.32001322507858276 -0.014806869439780712 0.6686490774154663
0.3226139545440674 -0.014327015727758408 0.6677579879760742
0.3263621926307678 -0.010173371993005276 0.6641829013824463
0.3282807469367981 -0.008233151398599148 0.6624757647514343
0.33233895897865295 -0.008073334582149982 0.6614748239517212
0.3344179391860962 -0.009104899130761623 0.6616988778114319
0.33581098914146423 -0.010064049623906612 0.6620265245437622
0.33927348256111145 -0.012204059399664402 0.6626787185668945
0.342718243598938 -0.01419579703360796 0.6632367968559265
0.34683147072792053 -0.016205523163080215 0.6636592745780945
0.3481992185115814 -0.016700055450201035 0.663685142993927
0.3502499759197235 -0.017650676891207695 0.6638614535331726
0.3516163229942322 -0.01817549765110016 0.6639076471328735
0.35229989886283875 -0.01834297738969326 0.6638678312301636
0.3543507754802704 -0.018905434757471085 0.663787305355072
0.3591446876525879 -0.020045559853315353 0.6634846329689026
0.3612136244773865 -0.02009599097073078 0.6630614399909973
0.3640210032463074 -0.018959369510412216 0.6616901159286499
0.37104207277297974 -0.01845462992787361 0.659807562828064
0.3724464178085327 -0.018564218655228615 0.6595706343650818
0.37530505657196045 -0.01804501749575138 0.6585962772369385
0.37675321102142334 -0.017596468329429626 0.6579800248146057
0.3776758313179016 -0.014280247502028942 0.6555820107460022
0.3786347806453705 -0.01058960985392332 0.6529286503791809
0.2957038879394531 0.009408545680344105 0.6570945978164673
0.29652565717697144 0.008115322329103947 0.657771110534668
0.29815661907196045 0.005555732175707817 0.6591089963912964
0.3012505769729614 0.0016532524023205042 0.6610149145126343
0.3058525323867798 -0.0044727688655257225 0.6640625596046448
0.30882593989372253 -0.008046944625675678 0.665776789188385
0.3124749958515167 -0.012242467142641544 0.6677541732788086
0.3145984411239624 -0.014219358563423157 0.6685965061187744
0.3199639618396759 -0.016030440106987953 0.668611466884613
0.3206344544887543 -0.016253935173153877 0.668611466884613
0.3245013356208801 -0.014933704398572445 0.6668797135353088
0.3257234990596771 -0.013098773546516895 0.6653912663459778
0.32700100541114807 -0.012051149271428585 0.6644134521484375
0.32760459184646606 -0.010768689215183258 0.6634288430213928
0.3288583755493164 -0.008892503567039967 0.6619061231613159
0.330210417509079 -0.00888376496732235 0.6616012454032898
0.33501654863357544 -0.010370873846113682 0.6615249514579773
0.33640673756599426 -0.011327074840664864 0.6618521213531494
0.3377867341041565 -0.012032859958708286 0.6620151996612549
0.3412376642227173 -0.01416719052940607 0.6626684069633484
0.34466978907585144 -0.016055338084697723 0.6631620526313782
0.34945449233055115 -0.018085720017552376 0.6634511947631836
0.3562858998775482 -0.020105235278606415 0.663280189037323
0.3618103861808777 -0.019769107922911644 0.661834716796875
0.3625105023384094 -0.019533278420567513 0.6615234613418579
0.36879730224609375 -0.019290894269943237 0.6599717140197754
0.37589600682258606 -0.018457284197211266 0.6578478813171387
0.37768861651420593 -0.01259708870202303 0.6535620093345642
0.37865209579467773 -0.008870790712535381 0.6508752703666687
0.29645901918411255 0.0073591358959674835 0.6573967933654785
0.2995898127555847 0.0033002805430442095 0.6594040989875793
0.30197805166244507 -0.0003454689576756209 0.6613010764122009
0.30266445875167847 -0.0005742705543525517 0.6613010764122009
0.30501043796539307 -0.004103480838239193 0.6631300449371338
0.3064664602279663 -0.0054967645555734634 0.663734495639801
0.3072371184825897 -0.006657790392637253 0.6643363833427429
0.3101850152015686 -0.010117853991687298 0.6659858226776123
0.3116696774959564 -0.012101165018975735 0.666976809501648
0.3131427764892578 -0.014054659754037857 0.6679505705833435
0.3159103989601135 -0.01603560522198677 0.6686549186706543
0.3165792226791382 -0.016257911920547485 0.6686545014381409
0.32251402735710144 -0.016918618232011795 0.6677774786949158
0.3244532346725464 -0.01633836328983307 0.6669607758522034
0.3256816267967224 -0.014686505310237408 0.66558837890625
0.327559232711792 -0.012418249621987343 0.6636615991592407
0.32816484570503235 -0.011136014014482498 0.6626734137535095
0.32879549264907837 -0.010274706408381462 0.6619601845741272
0.3301333785057068 -0.010026893578469753 0.6614984273910522
0.3328452706336975 -0.010128813795745373 0.6609643697738647
0.3363073766231537 -0.012109644711017609 0.6615149974822998
0.33837807178497314 -0.013290079310536385 0.6618411540985107
0.33975982666015625 -0.014239626005291939 0.6621666550636292
0.34319475293159485 -0.01622536964714527 0.6627265810966492
0.34797757863998413 -0.01820382848381996 0.6629823446273804
0.35343557596206665 -0.020146042108535767 0.663064181804657
0.35411781072616577 -0.020373446866869926 0.663064181804657
0.35892632603645325 -0.020371822640299797 0.6619958877563477
0.361005574464798 -0.020078573375940323 0.6613394618034363
0.36657992005348206 -0.019728276878595352 0.6598690152168274
0.37427181005477905 -0.020413637161254883 0.6586185693740845
0.3777010142803192 -0.01090211421251297 0.6515250205993652
0.3786695599555969 -0.0071391272358596325 0.6488049030303955
0.29557326436042786 0.00788087211549282 0.6563529372215271
0.2972092032432556 0.005322946701198816 0.6576964855194092
0.30032527446746826 0.0012883846648037434 0.6596972346305847
0.30338528752326965 -0.002559768036007881 0.6615857481956482
0.30571937561035156 -0.006065250374376774 0.6634073853492737
0.30639928579330444 -0.0062918891198933125 0.6634073853492737
0.3079361319541931 -0.008603355847299099 0.6646085381507874
0.3094455301761627 -0.010736647993326187 0.6656972765922546
0.31853634119033813 -0.018091414123773575 0.6685851216316223
0.32052117586135864 -0.018495354801416397 0.668412983417511
0.3224663734436035 -0.018238935619592667 0.6678088903427124
0.32563847303390503 -0.016237705945968628 0.6657662391662598
0.3262381851673126 -0.015096453949809074 0.6648707985877991
0.3275141716003418 -0.014058324508368969 0.6638933420181274
0.32811790704727173 -0.01278602797538042 0.6629094481468201
0.3355148732662201 -0.012415117584168911 0.6610151529312134
0.33827707171440125 -0.014069115743041039 0.6615049839019775
0.3403410017490387 -0.015244816429913044 0.6618304252624512
0.3417176902294159 -0.01619001477956772 0.6621553301811218
0.34582021832466125 -0.018094809725880623 0.6625141501426697
0.35127535462379456 -0.020223183557391167 0.6627212166786194
0.3567488491535187 -0.02068357728421688 0.661810040473938
0.36228540539741516 -0.0201572198420763 0.6602262258529663
0.363675057888031 -0.020152874290943146 0.6599142551422119
0.36436328291893005 -0.02038227580487728 0.6599142551422119
0.36786600947380066 -0.02004138194024563 0.6589069366455078
0.3706691563129425 -0.02011142671108246 0.6583296656608582
0.37200188636779785 -0.021566078066825867 0.6590040326118469
0.3748982548713684 -0.02015894651412964 0.6574199795722961
0.3758198618888855 -0.016569262370467186 0.6548177003860474
0.3777143359184265 -0.009179197251796722 0.6494609117507935
0.2955065667629242 0.007131531368941069 0.655974805355072
0.29795563220977783 0.003291146131232381 0.6580002307891846
0.29945307970046997 0.0018029313068836927 0.6586629748344421
0.3010562062263489 -0.0007106367265805602 0.6599887013435364
0.30410173535346985 -0.004532650113105774 0.6618688702583313
0.3071015179157257 -0.008240793831646442 0.6636824607849121
0.3107973039150238 -0.012791475281119347 0.6659057140350342
0.31440725922584534 -0.016923783347010612 0.6678674817085266
0.316470742225647 -0.01836245134472847 0.6683705449104309
0.3217661380767822 -0.019560104236006737 0.667990505695343
0.32435110211372375 -0.01901712268590927 0.6670495271682739
0.3261973559856415 -0.01671803742647171 0.6650972962379456
0.3280711770057678 -0.014425738714635372 0.6631433367729187
0.3293076157569885 -0.012305795215070248 0.6614475250244141
0.33064308762550354 -0.012067307718098164 0.6609894037246704
0.33334892988204956 -0.012170643545687199 0.6604543924331665
0.33748525381088257 -0.014372946694493294 0.6610062122344971
0.3402383029460907 -0.016020335257053375 0.6614949703216553
0.3422985374927521 -0.017346251755952835 0.6619231104850769
0.34911882877349854 -0.020117826759815216 0.66225665807724
0.3545726537704468 -0.02150840312242508 0.6619706153869629
0.3614722192287445 -0.020733898505568504 0.6599115133285522
0.3684328496456146 -0.020842419937253 0.6584298014640808
0.36908015608787537 -0.022033175453543663 0.6590828895568848
0.37046727538108826 -0.022288214415311813 0.6589440703392029
0.3725675046443939 -0.022344842553138733 0.6585128903388977
0.3742002248764038 -0.018297268077731133 0.6554373502731323
0.3758236765861511 -0.014905399642884731 0.6528028249740601
0.3777269423007965 -0.0074563222005963326 0.6473886966705322
0.2970970869064331 0.0036381627433001995 0.6570711135864258
0.298590749502182 0.0022108356934040785 0.6576955914497375
0.30178219079971313 -0.0026965513825416565 0.6602778434753418
0.30325472354888916 -0.0041436124593019485 0.6609201431274414
0.30779963731765747 -0.0101774325594306 0.6639561057090759
0.30931735038757324 -0.012418673373758793 0.6651220917701721
0.311470627784729 -0.0146107766777277 0.6661127209663391
0.3129405975341797 -0.016564812511205673 0.6670963764190674
0.315045565366745 -0.018472295254468918 0.6679063439369202
0.31573113799095154 -0.01893514022231102 0.6680638194084167
0.3184185326099396 -0.02014516107738018 0.6682747006416321
0.320406973361969 -0.020695552229881287 0.6681992411613464
0.32171183824539185 -0.020738190039992332 0.667935848236084
0.3223574459552765 -0.020639881491661072 0.6677252054214478
0.32429739832878113 -0.020297277718782425 0.6670607924461365
0.3261534571647644 -0.018270181491971016 0.6652832627296448
0.32802480459213257 -0.016055362299084663 0.663375973701477
0.33876484632492065 -0.01609499379992485 0.6609973907470703
0.34219276905059814 -0.018050450831651688 0.6615434288978577
0.3442400097846985 -0.018980104476213455 0.6617093086242676
0.34628406167030334 -0.019783178344368935 0.6617915034294128
0.34696486592292786 -0.02001010812819004 0.6617915034294128
0.34832659363746643 -0.020517941564321518 0.6618276834487915
0.3503684103488922 -0.021301988512277603 0.6618967056274414
0.35241106152534485 -0.021817103028297424 0.6617856621742249
0.35790687799453735 -0.020938370376825333 0.659964382648468
0.35859718918800354 -0.020902544260025024 0.6597855687141418
0.3661728501319885 -0.02248983271420002 0.659155547618866
0.37328875064849854 -0.020242178812623024 0.6560522317886353
0.3741966485977173 -0.016646530479192734 0.6534327268600464
0.3758274018764496 -0.013229245319962502 0.6507717370986938
0.2953729033470154 0.005644653458148241 0.6552162170410156
0.2962087094783783 0.00422099232673645 0.6559877395629883
0.29784488677978516 0.0015925002517178655 0.6573914289474487
0.2985345721244812 0.0013626029249280691 0.6573914289474487
0.30091702938079834 -0.0021866022143512964 0.6592481136322021
0.3023957908153534 -0.0036580166779458523 0.6599074602127075
0.3039700984954834 -0.006108577363193035 0.6612053513526917
0.3047480285167694 -0.0072865779511630535 0.6618242263793945
0.30552077293395996 -0.008441508747637272 0.6624292135238647
0.31066635251045227 -0.014463778585195541 0.6653317213058472
0.3163536787033081 -0.020334480330348015 0.6680104732513428
0.3267798125743866 -0.02002623863518238 0.6654605865478516
0.32797864079475403 -0.01767566241323948 0.6636070609092712
0.3291867673397064 -0.015160986222326756 0.6616412997245789
0.3304985761642456 -0.014553606510162354 0.6609372496604919
0.33317095041275024 -0.01409491803497076 0.6600276231765747
0.3338501751422882 -0.014204957522451878 0.659949541091919
0.3345339000225067 -0.014436062425374985 0.6599516868591309
0.33522284030914307 -0.014819756150245667 0.6600555181503296
0.33797478675842285 -0.016397032886743546 0.6604999303817749
0.3414028286933899 -0.018349241465330124 0.6610456705093384
0.3454943001270294 -0.020194480195641518 0.6613702178001404
0.35093602538108826 -0.022257354110479355 0.6615380048751831
0.35504263639450073 -0.021284053102135658 0.6599593758583069
0.36466357111930847 -0.023012639954686165 0.6589630246162415
0.370226114988327 -0.02326527051627636 0.6578840017318726
0.3723844587802887 -0.02217714674770832 0.6566657423973083
0.37328097224235535 -0.01860744133591652 0.6540589928627014
0.3741926848888397 -0.014988255687057972 0.6514151096343994
0.3758315145969391 -0.011530792340636253 0.6487169861793518
0.37678349018096924 -0.007773366756737232 0.6459710597991943
0.2961418330669403 0.00347904278896749 0.6556118130683899
0.299274742603302 -0.0006633318262174726 0.6577062010765076
0.3016430735588074 -0.004172814544290304 0.6595445275306702
0.3023262321949005 -0.004400528501719236 0.6595445275306702
0.3046810030937195 -0.00806122925132513 0.6614885330200195
0.30842477083206177 -0.012882309965789318 0.6639038324356079
0.30918267369270325 -0.014014827087521553 0.6644986271858215
0.31133854389190674 -0.016274187713861465 0.6655399203300476
0.3128055930137634 -0.018217993900179863 0.666523277759552
0.3149229884147644 -0.020320603623986244 0.667467474937439
0.3162916600704193 -0.02126907743513584 0.6678001880645752
0.31830158829689026 -0.022185908630490303 0.6679670214653015
0.31896957755088806 -0.022471856325864792 0.6680098176002502
0.3202935755252838 -0.022880418226122856 0.6679874658584595
0.32223814725875854 -0.022847017273306847 0.6675268411636353
0.3241788148880005 -0.02264469675719738 0.6669528484344482
0.3279326260089874 -0.019286267459392548 0.6638370156288147
0.32853278517723083 -0.01804255321621895 0.6628612279891968
0.3291369676589966 -0.016790097579360008 0.6618784070014954
0.33581438660621643 -0.01602313295006752 0.6598556041717529
0.3364968001842499 -0.016250602900981903 0.6598556041717529
0.33924761414527893 -0.018016628921031952 0.6604294776916504
0.34334444999694824 -0.020066294819116592 0.6608917117118835
0.34878477454185486 -0.02215089648962021 0.6610750555992126
0.35287490487098694 -0.021562740206718445 0.6597558856010437
0.36181554198265076 -0.022112175822257996 0.6581127643585205
0.3624785840511322 -0.023147372528910637 0.658663272857666
0.36730438470840454 -0.024017859250307083 0.658164381980896
0.36800307035446167 -0.02395402453839779 0.6579636335372925
0.3723730444908142 -0.020551688969135284 0.6546794176101685
0.3732728064060211 -0.01696484163403511 0.6520523428916931
0.3741891086101532 -0.013306439854204655 0.6493728756904602
0.37583568692207336 -0.009816085919737816 0.6466427445411682
0.29369351267814636 0.0059112426824867725 0.6536241173744202
0.2943890690803528 0.005679386667907238 0.6536241173744202
0.296904593706131 0.0013375377748161554 0.6559993028640747
0.3030473589897156 -0.006388860289007425 0.659849226474762
0.3053874671459198 -0.010001800954341888 0.6617701649665833
0.3060639202594757 -0.010227284394204617 0.6617701649665833
0.30759575963020325 -0.012526305392384529 0.6629823446273804
0.3120068609714508 -0.018074065446853638 0.6657471060752869
0.31623008847236633 -0.022203559055924416 0.667592465877533
0.32536473870277405 -0.02279854007065296 0.6659314036369324
0.3266562223434448 -0.022477516904473305 0.6654218435287476
0.3303717374801636 -0.017384115606546402 0.6611289978027344
0.331654816865921 -0.016115669161081314 0.659978985786438
0.33299821615219116 -0.01611332781612873 0.6596736907958984
0.338459312915802 -0.01831699162721634 0.6599334478378296
0.34187570214271545 -0.02012394741177559 0.6603865623474121
0.3473151922225952 -0.022271180525422096 0.6606131196022034
0.35071292519569397 -0.022282807156443596 0.6598531603813171
0.3534459173679352 -0.022030005231499672 0.6590641736984253
0.35413089394569397 -0.022027600556612015 0.6589074730873108
0.35618868470191956 -0.022122822701931 0.6585069298744202
0.3582533597946167 -0.02217281050980091 0.6580744981765747
0.35894280672073364 -0.022193357348442078 0.6579325795173645
0.3603149354457855 -0.022591937333345413 0.657892644405365
0.36165520548820496 -0.024171553552150726 0.6586605310440063
0.3623396158218384 -0.02438104711472988 0.6586482524871826
0.3644108772277832 -0.02447442337870598 0.6582434177398682
0.36580193042755127 -0.02434704266488552 0.657842755317688
0.36650052666664124 -0.02424051985144615 0.6576123833656311
0.37147256731987 -0.022483142092823982 0.6552973389625549
0.37236106395721436 -0.01891781948506832 0.6526792049407959
0.37326472997665405 -0.015301460400223732 0.6500231027603149
0.374185711145401 -0.01160511840134859 0.6473090648651123
0.3758396506309509 -0.008090265095233917 0.6445521116256714
0.2951662242412567 0.0034784304443746805 0.6540473103523254
0.29765570163726807 -0.0007352628163062036 0.6563485264778137
0.29915282130241394 -0.002266568597406149 0.6570504307746887
0.30376380681991577 -0.008364520035684109 0.6601521372795105
0.308288037776947 -0.014437743462622166 0.6632567048072815
0.31194058060646057 -0.018898403272032738 0.6654622554779053
0.31333640217781067 -0.020085345953702927 0.6659528017044067
0.3147904574871063 -0.02203189954161644 0.666947066783905
0.31817278265953064 -0.024047445505857468 0.6675507426261902
0.32014837861061096 -0.024583710357546806 0.6674678325653076
0.3220696449279785 -0.024275969713926315 0.6668232083320618
0.3278137743473053 -0.021941736340522766 0.6639336347579956
0.3284297287464142 -0.02108950912952423 0.6632145047187805
0.3303184509277344 -0.019002292305231094 0.661366879940033
0.3369866907596588 -0.018237555399537086 0.6593351364135742
0.34040510654449463 -0.020042791962623596 0.6597881317138672
0.34516847133636475 -0.022168535739183426 0.660153865814209
0.3485599756240845 -0.02259014919400215 0.6596720218658447
0.3560771644115448 -0.022379402071237564 0.6578247547149658
0.35948094725608826 -0.02429814822971821 0.6583578586578369
0.36291491985321045 -0.024802321568131447 0.6579221487045288
0.3692197799682617 -0.02355031482875347 0.6556416749954224
0.3714565932750702 -0.020861409604549408 0.6533058881759644
0.37234845757484436 -0.017278309911489487 0.650667130947113
0.37325698137283325 -0.013620537705719471 0.6479739546775818
0.3748956322669983 -0.010132307186722755 0.6452301740646362
0.29509735107421875 0.002761746756732464 0.6536571979522705
0.29593801498413086 0.0012933796970173717 0.6544676423072815
0.2967706024646759 -0.00013562593085225672 0.655252993106842
0.2982783019542694 -0.001723841531202197 0.6559935212135315
0.2998923659324646 -0.004315629135817289 0.6573944687843323
0.30146703124046326 -0.006663310807198286 0.6586379408836365
0.30292701721191406 -0.008040910586714745 0.6592455506324768
0.30669161677360535 -0.01288112998008728 0.6616910099983215
0.3074594736099243 -0.014070426113903522 0.662327766418457
0.3089759349822998 -0.016337374225258827 0.6635291576385498
0.3139955699443817 -0.021867001429200172 0.6661596298217773
0.316102534532547 -0.024002738296985626 0.6671373844146729
0.32193681597709656 -0.024248279631137848 0.6659782528877258
0.32256898283958435 -0.02397887036204338 0.6656506657600403
0.3232334852218628 -0.02420036494731903 0.6656506657600403
0.327730655670166 -0.0227946974337101 0.6636695861816406
0.32835331559181213 -0.022100282832980156 0.6630541682243347
0.330261766910553 -0.02052583545446396 0.6615464687347412
0.3315064013004303 -0.01856333389878273 0.6599248647689819
0.3321567475795746 -0.018124472349882126 0.6594775915145874
0.3341689109802246 -0.01813167706131935 0.6590250134468079
0.33893823623657227 -0.020100414752960205 0.6592832803726196
0.34234488010406494 -0.021781759336590767 0.6596556901931763
0.34302324056625366 -0.022007925435900688 0.6596556901931763
0.34438177943229675 -0.022577183321118355 0.659735381603241
0.3464173972606659 -0.02334323339164257 0.6597951650619507
0.3539038598537445 -0.022890141233801842 0.6577837467193604
0.3545907735824585 -0.02274051122367382 0.6575254797935486
0.3579937219619751 -0.024639414623379707 0.658047080039978
0.3607250154018402 -0.025455789640545845 0.6579828858375549
0.3663032650947571 -0.024162767454981804 0.6558325886726379
0.36986812949180603 -0.022558845579624176 0.6539280414581299
0.37056002020835876 -0.022789470851421356 0.6539280414581299
0.37144002318382263 -0.01923828013241291 0.651305615901947
0.3723364472389221 -0.015613586641848087 0.6486296057701111
0.3732490539550781 -0.011920100077986717 0.6459027528762817
0.3741779029369354 -0.008168347179889679 0.6431326270103455
0.29348400235176086 0.003797838930040598 0.6524215340614319
0.2975270450115204 -0.0022529668640345335 0.6556391716003418
0.2982134521007538 -0.002481770934537053 0.6556391716003418
0.3006252944469452 -0.006337147206068039 0.6577267646789551
0.30364224314689636 -0.010006967931985855 0.6595495343208313
0.30518317222595215 -0.012278306297957897 0.6607521176338196
0.30738651752471924 -0.014790606684982777 0.6619685292243958
0.31032684445381165 -0.01844787411391735 0.6637998819351196
0.3118082284927368 -0.020541541278362274 0.6648945808410645
0.3139280080795288 -0.022691160440444946 0.6658819317817688
0.315350204706192 -0.024325603619217873 0.6666756868362427
0.32500991225242615 -0.02336113713681698 0.6638129353523254
0.337468683719635 -0.020018167793750763 0.6586847305297852
0.3415578603744507 -0.022064439952373505 0.6591519713401794
0.34901341795921326 -0.02256936766207218 0.6577970385551453
0.3503764271736145 -0.02282116934657097 0.6576586365699768
0.355828195810318 -0.024752892553806305 0.6577369570732117
0.3565097153186798 -0.02498006634414196 0.6577369570732117
0.3585556745529175 -0.025587519630789757 0.6576858162879944
0.36479195952415466 -0.024708852171897888 0.6556625366210938
0.3698447048664093 -0.02094057947397232 0.6519323587417603
0.37053975462913513 -0.021172264590859413 0.6519323587417603
0.37142372131347656 -0.017591066658496857 0.6492806077003479
0.3732406795024872 -0.010211116634309292 0.6438170075416565
0.29255521297454834 0.004639814607799053 0.65115886926651
0.2949570119380951 0.001355298445560038 0.6528633236885071
0.29579952359199524 -0.00013037165626883507 0.653689980506897
0.29895633459091187 -0.004531188867986202 0.6559877395629883
0.30135005712509155 -0.00831454899162054 0.6580365300178528
0.3043530583381653 -0.011960563249886036 0.659851610660553
0.3095056712627411 -0.018089067190885544 0.6628783345222473
0.3178669512271881 -0.02531200274825096 0.6659223437309265
0.31849196553230286 -0.025045130401849747 0.6655963659286499
0.3223034739494324 -0.023923173546791077 0.6639544367790222
0.3229689598083496 -0.024145038798451424 0.6639544367790222
0.327472060918808 -0.022737057879567146 0.6619585156440735
0.328116774559021 -0.0224632378667593 0.6616232395172119
0.3300834596157074 -0.022137876600027084 0.6609500646591187
0.3313547968864441 -0.02088809944689274 0.6598015427589417
0.3326720595359802 -0.02051783725619316 0.6592459678649902
0.34686344861984253 -0.023090383037924767 0.65776526927948
0.358441025018692 -0.026038067415356636 0.6571398377418518
0.3619004487991333 -0.02531578205525875 0.6558529734611511
0.36260008811950684 -0.02502492628991604 0.6554932594299316
0.3675040602684021 -0.02401951141655445 0.6536816954612732
0.3698205053806305 -0.019317608326673508 0.6499249935150146
0.3705187439918518 -0.01955035701394081 0.6499249935150146
0.37140703201293945 -0.015928160399198532 0.6472362875938416
0.37231171131134033 -0.012235297821462154 0.6444952487945557
0.3732324242591858 -0.008485847152769566 0.6417118906974792
0.2924826145172119 0.003964144270867109 0.6507406234741211
0.2940364480018616 0.002173983259126544 0.6516160368919373
0.29969435930252075 -0.006567072123289108 0.656334400177002
0.3012896180152893 -0.009116524830460548 0.6577232480049133
0.3042917251586914 -0.012774228118360043 0.6595516800880432
0.30573228001594543 -0.01412615180015564 0.6601519584655762
0.3072547912597656 -0.016366131603717804 0.6613442301750183
0.30801138281822205 -0.017479391768574715 0.66193687915802
0.31093400716781616 -0.021085970103740692 0.6637486815452576
0.31167659163475037 -0.022177184000611305 0.6643294095993042
0.31379345059394836 -0.0243336521089077 0.6653281450271606
0.3145112991333008 -0.02523484267294407 0.6657836437225342
0.3209053874015808 -0.02443450503051281 0.6637659072875977
0.3253874182701111 -0.023031393066048622 0.6617720127105713
0.33455538749694824 -0.02056090347468853 0.6579679846763611
0.3365846574306488 -0.02108318917453289 0.6578619480133057
0.3386264443397522 -0.022021742537617683 0.6580393314361572
0.344046950340271 -0.023642661049962044 0.6579113006591797
0.3521973192691803 -0.02402222901582718 0.6563025116920471
0.3549119532108307 -0.02607681043446064 0.6570941805839539
0.3562746047973633 -0.026349714025855064 0.6569692492485046
0.3645915389060974 -0.024631235748529434 0.653878390789032
0.3674059808254242 -0.023979606106877327 0.6527842283248901
0.3697968125343323 -0.017668910324573517 0.6478921175003052
0.3704981505870819 -0.017902616411447525 0.6478921175003052
0.37139058113098145 -0.014247222803533077 0.6451712846755981
0.2932736277580261 0.0017100394470617175 0.6512144804000854
0.29649558663368225 -0.0029973017517477274 0.6537227034568787
0.29732489585876465 -0.00443353271111846 0.6545233130455017
0.29882580041885376 -0.006033770740032196 0.6552825570106506
0.3019005358219147 -0.010084502398967743 0.6573712825775146
0.30346086621284485 -0.01245700754225254 0.6586503982543945
0.3049974739551544 -0.014710789546370506 0.6598526835441589
0.3079468905925751 -0.018279513344168663 0.6616377830505371
0.31822076439857483 -0.0249912329018116 0.6639069318771362
0.3198835253715515 -0.011479643173515797 0.654196560382843
0.32062259316444397 -0.012508304789662361 0.6547366380691528
0.322041779756546 -0.013760384172201157 0.6552743911743164
0.32278239727020264 -0.014910012483596802 0.6558977365493774
0.323971152305603 -0.02345106564462185 0.6615204215049744
0.3278581202030182 -0.02240464836359024 0.6599036455154419
0.32850512862205505 -0.02212965488433838 0.659564733505249
0.3331170380115509 -0.021197054535150528 0.6578595638275146
0.3378407061100006 -0.022266700863838196 0.6575113534927368
0.3385221064090729 -0.022629514336586 0.657604992389679
0.3405604958534241 -0.023578902706503868 0.6577911972999573
0.34259021282196045 -0.024173453450202942 0.657734751701355
0.34325915575027466 -0.023890888318419456 0.6573852896690369
0.3493582308292389 -0.024035334587097168 0.6560818552970886
0.3500390946865082 -0.024006200954318047 0.6559047102928162
0.35275721549987793 -0.026078272610902786 0.6567100882530212
0.3575354814529419 -0.02645828388631344 0.6558725833892822
0.35822683572769165 -0.02617030031979084 0.6555145978927612
0.35892006754875183 -0.025881625711917877 0.6551560759544373
0.3623960614204407 -0.024947993457317352 0.6537113189697266
0.3673076927661896 -0.023939508944749832 0.6518853306770325
0.36804014444351196 -0.02317938581109047 0.651191771030426
0.36977267265319824 -0.016006866469979286 0.6458415389060974
0.3704774081707001 -0.016241779550909996 0.6458415389060974
0.3713740408420563 -0.012548557482659817 0.6430858373641968
0.2914648652076721 0.004235147964209318 0.6489856839179993
0.2923375368118286 0.0026164839509874582 0.6499053239822388
0.29474377632141113 -0.0007185706053860486 0.6516588926315308
0.2955876290798187 -0.0022156171035021544 0.6525007486343384
0.2995629906654358 -0.008060933090746403 0.6556308269500732
0.3026224374771118 -0.012084085494279861 0.6577103137969971
0.30863457918167114 -0.020180929452180862 0.661929190158844
0.3107930123806 -0.022594518959522247 0.6631023287773132
0.3143095076084137 -0.026076098904013634 0.6647013425827026
0.31683436036109924 -0.025499461218714714 0.6637194752693176
0.3177308738231659 -0.01135711558163166 0.6537200808525085
0.31841591000556946 -0.011585460044443607 0.6537200808525085
0.31911614537239075 -0.012029904872179031 0.6538660526275635
0.3198164999485016 -0.01248500868678093 0.6540194153785706
0.32127678394317627 -0.01432978268712759 0.6549598574638367
0.3234736919403076 -0.017469223588705063 0.6566265225410461
0.331003338098526 -0.021495945751667023 0.6576769351959229
0.33569949865341187 -0.02203587256371975 0.656966507434845
0.34045422077178955 -0.024159861728549004 0.6573399901390076
0.3451673090457916 -0.023665323853492737 0.6559097170829773
0.34652674198150635 -0.024067509919404984 0.655874490737915
0.34856465458869934 -0.024118388071656227 0.6554391980171204
0.35128501057624817 -0.02635383978486061 0.6563594937324524
0.3553701937198639 -0.026769302785396576 0.6557039022445679
0.3601951003074646 -0.02578224614262581 0.6539068222045898
0.3650977313518524 -0.02425924874842167 0.6517207026481628
0.36649584770202637 -0.024235138669610023 0.6513814330101013
0.36800792813301086 -0.021573001518845558 0.6491890549659729
0.36974865198135376 -0.014322261326014996 0.6437669992446899
0.3704566955566406 -0.01455827709287405 0.6437669992446899
0.37135666608810425 -0.010844488628208637 0.6409875154495239
0.2913871109485626 0.0036047499161213636 0.6485382914543152
0.2922651469707489 0.0019440047908574343 0.6494886875152588
0.2963550090789795 -0.004387956578284502 0.6529393196105957
0.29786911606788635 -0.006067206151783466 0.6537548899650574
0.30029532313346863 -0.010075001046061516 0.6559767127037048
0.30333951115608215 -0.014070498757064342 0.6580467820167542
0.3048744201660156 -0.01632368192076683 0.6592564582824707
0.30630597472190857 -0.017660997807979584 0.6598536372184753
0.30998194217681885 -0.022291816771030426 0.6622190475463867
0.31146690249443054 -0.02446891739964485 0.6633873581886292
0.3122047781944275 -0.025550685822963715 0.6639675498008728
0.31354856491088867 -0.026268096640706062 0.6641546487808228
0.3141710162162781 -0.02605038695037365 0.6638595461845398
0.3147909641265869 -0.025784913450479507 0.6635317802429199
0.3169877827167511 -0.01219649612903595 0.6535855531692505
0.3226071000099182 -0.01636778563261032 0.6551819443702698
0.324154257774353 -0.019928114488720894 0.657296359539032
0.32498693466186523 -0.022840673103928566 0.6591265797615051
0.32824623584747314 -0.022069884464144707 0.6578364372253418
0.333523154258728 -0.020856663584709167 0.6557722687721252
0.3341836631298065 -0.020581625401973724 0.6554285287857056
0.33898940682411194 -0.02404077537357807 0.6567184329032898
0.3416752517223358 -0.023881085216999054 0.6559857726097107
0.34235358238220215 -0.024107204750180244 0.6559857726097107
0.34302496910095215 -0.023909343406558037 0.6556925773620605
0.3450567126274109 -0.024131936952471733 0.6553769707679749
0.3498152494430542 -0.02637498453259468 0.6558332443237305
0.35117214918136597 -0.027012063190340996 0.6559616923332214
0.3525298237800598 -0.02728479914367199 0.6558365821838379
0.35801613330841064 -0.026095740497112274 0.6537407636642456
0.3587101101875305 -0.025806225836277008 0.6533789038658142
0.36219143867492676 -0.02487044967710972 0.6519231796264648
0.3671248257160187 -0.023499494418501854 0.6498289108276367
0.3679758310317993 -0.019942358136177063 0.647161602973938
0.3697238862514496 -0.012630671262741089 0.6416788697242737
0.37043526768684387 -0.012867793440818787 0.6416788697242737
0.37133949995040894 -0.009121018461883068 0.6388675570487976
0.2904227077960968 0.004668476525694132 0.6471176743507385
0.2930576205253601 -0.0003156079037580639 0.64997798204422
0.29460227489471436 -0.00209623365662992 0.6508594155311584
0.30102258920669556 -0.012075644917786121 0.6563201546669006
0.3032712936401367 -0.014802422374486923 0.6576974987983704
0.3062431812286377 -0.018461598083376884 0.6595565676689148
0.30775395035743713 -0.02066991664469242 0.6607440710067749
0.3099157512187958 -0.023081118240952492 0.6619217395782471
0.31210753321647644 -0.026005597785115242 0.6634498834609985
0.3189910352230072 -0.014123768545687199 0.6535747051239014
0.32038605213165283 -0.015018444508314133 0.6538742184638977
0.32179319858551025 -0.016146056354045868 0.6543328762054443
0.3232518434524536 -0.01816818118095398 0.6554027795791626
0.32403919100761414 -0.02020115964114666 0.6566359400749207
0.32617631554603577 -0.022864995524287224 0.6579955220222473
0.3294418752193451 -0.0219892431050539 0.656627357006073
0.3307476341724396 -0.021435055881738663 0.6559380292892456
0.3354562520980835 -0.022122342139482498 0.6553232073783875
0.33752816915512085 -0.024046022444963455 0.6561822891235352
0.34022149443626404 -0.0244098249822855 0.6558102369308472
0.3551549017429352 -0.0266962181776762 0.6539353728294373
0.35652613639831543 -0.02663574181497097 0.6535748839378357
0.36068591475486755 -0.02541567012667656 0.651759147644043
0.3670889437198639 -0.02188463881611824 0.6478129625320435
0.36794328689575195 -0.01829671487212181 0.6451149582862854
0.3696989119052887 -0.010923262685537338 0.6395710706710815
0.3704136312007904 -0.011161502450704575 0.6395710706710815
0.2912318706512451 0.002345851855352521 0.6476455926895142
0.2953740060329437 -0.004269635770469904 0.6513031721115112
0.2985503673553467 -0.008883875794708729 0.6537871360778809
0.29936420917510986 -0.010268567129969597 0.6545650362968445
0.30095624923706055 -0.012812173925340176 0.655971109867096
0.30398330092430115 -0.016771860420703888 0.6580329537391663
0.3054210841655731 -0.018152667209506035 0.6586626172065735
0.3069368600845337 -0.02036404423415661 0.6598550081253052
0.31199660897254944 -0.026309452950954437 0.6628301739692688
0.3145139515399933 -0.025732960551977158 0.6618413925170898
0.31642284989356995 -0.025419272482395172 0.6611776351928711
0.3162502348423004 -0.014858750626444817 0.653839647769928
0.320320725440979 -0.016045480966567993 0.6537206172943115
0.3239240348339081 -0.020474623888731003 0.6559757590293884
0.3246977627277374 -0.022360144183039665 0.6571128964424133
0.3293127715587616 -0.021958868950605392 0.6557576656341553
0.3339318633079529 -0.020514538511633873 0.6536731123924255
0.3360636532306671 -0.02393018640577793 0.6555629372596741
0.33674392104148865 -0.024276692420244217 0.6556466817855835
0.33809608221054077 -0.024713104590773582 0.6556366682052612
0.34618958830833435 -0.02497905306518078 0.653937578201294
0.34755760431289673 -0.026758188381791115 0.654862105846405
0.3536737263202667 -0.02723381295800209 0.6537699699401855
0.3578045070171356 -0.026020903140306473 0.6519604921340942
0.35849952697753906 -0.025731008499860764 0.6515960097312927
0.3640611469745636 -0.025229765102267265 0.6499505043029785
0.3655167818069458 -0.02357964590191841 0.6484588384628296
0.3670525550842285 -0.02025430090725422 0.6457776427268982
0.3679106533527374 -0.016634220257401466 0.6430486440658569
0.36967381834983826 -0.009199562482535839 0.6374433040618896
0.3703917860984802 -0.00943893101066351 0.6374433040618896
0.2841053307056427 0.014101158827543259 0.6401689052581787
0.2848156988620758 0.013864376582205296 0.6401689052581787
0.2854151129722595 0.014424929395318031 0.6396356225013733
0.2860165238380432 0.014987916685640812 0.6391007900238037
0.2886589765548706 0.005476776510477066 0.6451483964920044
0.29115450382232666 0.0017174704698845744 0.6472002863883972
0.29614031314849854 -0.006429389584809542 0.6517446041107178
0.297654926776886 -0.008126075379550457 0.6525799036026001
0.3031350076198578 -0.01626179926097393 0.6570006608963013
0.30762606859207153 -0.022254832088947296 0.6601512432098389
0.30978360772132874 -0.024654407054185867 0.6613287329673767
0.3105256259441376 -0.025736596435308456 0.6619138717651367
0.311856210231781 -0.026283608749508858 0.6619865298271179
0.3125165104866028 -0.02650371752679348 0.6619865298271179
0.3137540817260742 -0.02597297914326191 0.6613253951072693
0.31560298800468445 -0.016800617799162865 0.6544660925865173
0.31620925664901733 -0.01611088588833809 0.6538408994674683
0.31819701194763184 -0.016118139028549194 0.6533819437026978
0.32655999064445496 -0.022532494738698006 0.6559233069419861
0.32785654067993164 -0.021980246528983116 0.6552334427833557
0.3285323679447174 -0.022205514833331108 0.6552334427833557
0.33114704489707947 -0.02109573408961296 0.6538450121879578
0.3345370590686798 -0.022094640880823135 0.6537532210350037
0.3359527587890625 -0.024283137172460556 0.654956042766571
0.34065482020378113 -0.024362916126847267 0.653913676738739
0.34200966358184814 -0.024668727070093155 0.6538112163543701
0.34404078125953674 -0.02491658367216587 0.6535106897354126
0.34880331158638 -0.028035612776875496 0.6545838713645935
0.3501579463481903 -0.02811303548514843 0.6543216705322266
0.350836843252182 -0.027828577905893326 0.6539637446403503
0.35769832134246826 -0.02598349191248417 0.6510679125785828
0.36116793751716614 -0.025493917986750603 0.6499142646789551
0.36255186796188354 -0.025686174631118774 0.6497260928153992
0.365473210811615 -0.021964602172374725 0.6464356184005737
0.3661690652370453 -0.02219659648835659 0.6464356184005737
0.3670157194137573 -0.01861000992357731 0.6437245607376099
0.3678778409957886 -0.014951035380363464 0.6409589052200317
0.28405553102493286 0.013276892714202404 0.6398348212242126
0.28610584139823914 0.013135518878698349 0.639453649520874
0.29018259048461914 0.0028408817015588284 0.6457340121269226
0.2919563353061676 -0.0005776386824436486 0.6477211713790894
0.29284030199050903 -0.002314545214176178 0.6487351059913635
0.29438573122024536 -0.004112911410629749 0.64963698387146
0.298408180475235 -0.010258656926453114 0.6530138254165649
0.30082380771636963 -0.014280718751251698 0.6552748084068298
0.3022845387458801 -0.01575062982738018 0.6559658646583557
0.30384621024131775 -0.01822313480079174 0.6573375463485718
0.3075624108314514 -0.02304462343454361 0.6598559617996216
0.3148585557937622 -0.025412429124116898 0.6598107218742371
0.3155969977378845 -0.01846194639801979 0.6547526717185974
0.32019245624542236 -0.018114252015948296 0.6534314155578613
0.32227495312690735 -0.01952183060348034 0.6539329886436462
0.32444316148757935 -0.022477950900793076 0.6555027961730957
0.3297075629234314 -0.02162168361246586 0.6536673307418823
0.3378519117832184 -0.024647651240229607 0.6538861393928528
0.3385293781757355 -0.02487347647547722 0.6538861393928528
0.34598058462142944 -0.02726353332400322 0.6538205146789551
0.34733787178993225 -0.028066743165254593 0.6540668606758118
0.34936854243278503 -0.028362123295664787 0.6537989974021912
0.35004615783691406 -0.02807806059718132 0.653440535068512
0.35345539450645447 -0.027161533012986183 0.6519976854324341
0.35414204001426697 -0.026874054223299026 0.6516343951225281
