ply
format ascii 1.0
element vertex 817
property float x
property float y
property float z
end_header
0.5362100005149841 -0.10817374289035797 0.6694920063018799
0.5384637713432312 -0.10825477540493011 0.6690267324447632
0.5406238436698914 -0.10851701349020004 0.6687086224555969
0.5452567338943481 -0.10579138994216919 0.6657431125640869
0.5459126234054565 -0.10601000487804413 0.6657431125640869
0.5487411618232727 -0.1024286076426506 0.6626009941101074
0.553338885307312 -0.09719480574131012 0.6579021215438843
0.5541759133338928 -0.09713759273290634 0.6576684713363647
0.5110061168670654 -0.06055028736591339 0.6413298845291138
0.5075243711471558 -0.07087746262550354 0.6493323445320129
0.5082166194915771 -0.07110821455717087 0.6493323445320129
0.5078958868980408 -0.07375290989875793 0.6512488722801208
0.5074583292007446 -0.08031243830919266 0.6559199094772339
0.5081354379653931 -0.08053813129663467 0.6559199094772339
0.5112561583518982 -0.0840287134051323 0.6576265096664429
0.5126023292541504 -0.0844779834151268 0.6576268672943115
0.5134065747261047 -0.08613359183073044 0.6585935950279236
0.51068115234375 -0.09555275738239288 0.6657876372337341
0.5152140259742737 -0.09718085080385208 0.6658689379692078
0.5166518092155457 -0.09734339267015457 0.6656485199928284
0.5244369506835938 -0.10010379552841187 0.665763795375824
0.529725193977356 -0.10615773499011993 0.668752908706665
0.5325073599815369 -0.10808955878019333 0.6694524884223938
0.5428735017776489 -0.10876242816448212 0.6675143837928772
0.5440812706947327 -0.10799679160118103 0.6667006015777588
0.5447335243225098 -0.10821421444416046 0.6667006015777588
0.546413242816925 -0.10663548856973648 0.6652109026908875
0.5583001375198364 -0.09713280946016312 0.6558311581611633
0.5606703758239746 -0.09724347293376923 0.6553582549095154
0.5111414194107056 -0.06224115192890167 0.6415555477142334
0.5074642300605774 -0.07854718714952469 0.6538048982620239
0.5081629753112793 -0.08413475751876831 0.6575459241867065
0.5135233998298645 -0.08937019109725952 0.6599552035331726
0.5111186504364014 -0.09633399546146393 0.6653809547424316
0.5123191475868225 -0.09700305014848709 0.6655686497688293
0.5204841494560242 -0.0973784402012825 0.663929283618927
0.5237398147583008 -0.10007763653993607 0.6650568246841431
0.5255314111709595 -0.10258747637271881 0.6663933992385864
0.5267924070358276 -0.1045944094657898 0.6675017476081848
0.5309958457946777 -0.10819229483604431 0.6690366864204407
0.5344892740249634 -0.11018221825361252 0.6696133613586426
0.5364799499511719 -0.11072074621915817 0.6695258021354675
0.5380239486694336 -0.11068978905677795 0.6691448092460632
0.5402026176452637 -0.11090178787708282 0.6687853336334229
0.5420670509338379 -0.11032076925039291 0.6679456233978271
0.5543400049209595 -0.09713740646839142 0.6558763384819031
0.5566982626914978 -0.09724770486354828 0.6554041504859924
0.508049726486206 -0.07352614402770996 0.649263858795166
0.5077313184738159 -0.07614471763372421 0.6511730551719666
0.507961630821228 -0.0828922912478447 0.6558481454849243
0.5078982710838318 -0.08482269942760468 0.6572154760360718
0.5096876621246338 -0.08600573241710663 0.6576266884803772
0.5103580951690674 -0.08622878789901733 0.6576263308525085
0.5123685598373413 -0.08689983934164047 0.6576269268989563
0.5134990215301514 -0.09119664132595062 0.660373866558075
0.516741931438446 -0.09734358638525009 0.663923978805542
0.5183150172233582 -0.0972328707575798 0.6634788513183594
0.5216714143753052 -0.09818045794963837 0.6633589267730713
0.5221066474914551 -0.09885185956954956 0.6637276411056519
0.5241862535476685 -0.10234513878822327 0.665690004825592
0.5255948901176453 -0.10407380759716034 0.6665720343589783
0.5275247693061829 -0.10623616725206375 0.667636513710022
0.5295563340187073 -0.10816123336553574 0.6685110330581665
0.5316150784492493 -0.11000053584575653 0.6693193316459656
0.5322585105895996 -0.11021503806114197 0.6693193316459656
0.5388026237487793 -0.11216460913419724 0.6691567897796631
0.5404165983200073 -0.11201514303684235 0.6686751246452332
0.54410320520401 -0.11094136536121368 0.6670612692832947
0.545760452747345 -0.10940338671207428 0.665596604347229
0.5535826086997986 -0.09719475358724594 0.6552141904830933
0.5599989891052246 -0.0973011776804924 0.6537900567054749
0.560847818851471 -0.09724360704421997 0.6535513401031494
0.5111897587776184 -0.0641997754573822 0.6410754919052124
0.5072921514511108 -0.08092115074396133 0.6537411212921143
0.5079638361930847 -0.08651755750179291 0.6575172543525696
0.5125868916511536 -0.08821450173854828 0.6576265692710876
0.5131939053535461 -0.09027163684368134 0.6589305996894836
0.5134750008583069 -0.09301009029150009 0.6607893705368042
0.5141366720199585 -0.09323064982891083 0.6607893705368042
0.5129973292350769 -0.09734734892845154 0.6639496088027954
0.514561653137207 -0.09723641723394394 0.6635051965713501
0.522845983505249 -0.10055460035800934 0.6638966202735901
0.5234920382499695 -0.10231963545084 0.6649856567382812
0.5249007940292358 -0.10405430197715759 0.6658746004104614
0.5335413813591003 -0.11217352747917175 0.6695569753646851
0.5341517925262451 -0.11244478821754456 0.6696048974990845
0.5361018180847168 -0.11303960531949997 0.6695658564567566
0.542217493057251 -0.11302710324525833 0.6681241989135742
0.5433117747306824 -0.11245756596326828 0.6674677729606628
0.5462419390678406 -0.11005212366580963 0.6650906205177307
0.5560240149497986 -0.09730517119169235 0.6538393497467041
0.5078844428062439 -0.07592476159334183 0.6491960287094116
0.5075681805610657 -0.07851807028055191 0.6510985493659973
0.507788896560669 -0.08522772789001465 0.6557766199111938
0.508809506893158 -0.08816570788621902 0.657607913017273
0.5101346969604492 -0.08863300085067749 0.6576260328292847
0.5131706595420837 -0.09209351986646652 0.6593520641326904
0.514110267162323 -0.0950305387377739 0.6612018346786499
0.517619788646698 -0.09728855639696121 0.6619686484336853
0.5184088945388794 -0.09723254293203354 0.6617439985275269
0.5203945636749268 -0.09786693006753922 0.6617244482040405
0.5209141969680786 -0.09837114810943604 0.661957859992981
0.5216121673583984 -0.10006850957870483 0.6629905700683594
0.5253435969352722 -0.10627951472997665 0.6664918661117554
0.5272493362426758 -0.10845925658941269 0.6675806045532227
0.5292615294456482 -0.11039309948682785 0.6684713959693909
0.5319560766220093 -0.11242762207984924 0.6692725419998169
0.5355909466743469 -0.11409027129411697 0.669590413570404
0.5363186597824097 -0.11414586752653122 0.6694583892822266
0.5383643507957458 -0.11456509679555893 0.6692730784416199
0.5408417582511902 -0.11423009634017944 0.6684549450874329
0.5451144576072693 -0.11214040219783783 0.6659778952598572
0.5472476482391357 -0.10979581624269485 0.6638236045837402
0.5479010343551636 -0.11001349240541458 0.6638236045837402
0.5601752996444702 -0.09730130434036255 0.6519781947135925
0.5109955668449402 -0.06672444194555283 0.6410617232322693
0.5080101490020752 -0.08120215684175491 0.6520019173622131
0.5077966451644897 -0.08350123465061188 0.6536778807640076
0.5077664256095886 -0.08888104557991028 0.6574886441230774
0.5110228061676025 -0.09016118198633194 0.6576263904571533
0.5123549103736877 -0.09060545265674591 0.6576265692710876
0.5138089060783386 -0.09412312507629395 0.6597709059715271
0.5139470100402832 -0.09547477960586548 0.6606941223144531
0.5140842199325562 -0.0968179702758789 0.6616114974021912
0.5226107239723206 -0.10277624428272247 0.6638148427009583
0.5232458710670471 -0.10454431176185608 0.6649149656295776
0.5246500372886658 -0.10626516491174698 0.6658008694648743
0.5277775526046753 -0.11045919358730316 0.668029248714447
0.5298855900764465 -0.11218266934156418 0.668751060962677
0.53263258934021 -0.11409087479114532 0.6694528460502625
0.5428134202957153 -0.11493122577667236 0.6676473617553711
0.5462421774864197 -0.11300092935562134 0.6654746532440186
0.5570381283760071 -0.09724760800600052 0.6517919301986694
0.5587331652641296 -0.09713223576545715 0.6513108611106873
0.5111295580863953 -0.06838182359933853 0.641286313533783
0.5077202916145325 -0.07830466330051422 0.6491291522979736
0.50740647315979 -0.08087281882762909 0.6510246396064758
0.5080862045288086 -0.08109939843416214 0.6510246396064758
0.5076178312301636 -0.08754517883062363 0.6557061076164246
0.5085901021957397 -0.09056033194065094 0.6576147675514221
0.5139213800430298 -0.09725990146398544 0.6611053347587585
0.5208448767662048 -0.10028519481420517 0.6616141200065613
0.5239607691764832 -0.1062416359782219 0.6651017069816589
0.5250943899154663 -0.10846807807683945 0.6664125323295593
0.5265356302261353 -0.11006225645542145 0.6672025918960571
0.5280587673187256 -0.11147655546665192 0.6678454875946045
0.5311444401741028 -0.11417413502931595 0.6690287590026855
0.5345953106880188 -0.11614283174276352 0.6696093678474426
0.5365965962409973 -0.11662150174379349 0.6694758534431458
0.5380065441131592 -0.11680806428194046 0.669274628162384
0.540224015712738 -0.11691626906394958 0.6688271760940552
0.5420288443565369 -0.11642803996801376 0.6680541634559631
0.5444759726524353 -0.11484753340482712 0.6663550138473511
0.5112627744674683 -0.07003013044595718 0.6415097117424011
0.5078473091125488 -0.08353443443775177 0.6519245505332947
0.5076246857643127 -0.08583679795265198 0.6536151766777039
0.5094717144966125 -0.09209148585796356 0.6576258540153503
0.5101346969604492 -0.092312753200531 0.6576259136199951
0.5121246576309204 -0.09297679364681244 0.6576266288757324
0.5136206746101379 -0.09636232256889343 0.659679651260376
0.5155215859413147 -0.09718085080385208 0.6598111987113953
0.5161799788475037 -0.09740031510591507 0.6598111987113953
0.5184419751167297 -0.09745846688747406 0.6593162417411804
0.5196470618247986 -0.09813430160284042 0.6595113277435303
0.5200871825218201 -0.09880644083023071 0.6598852276802063
0.5215041041374207 -0.10214994847774506 0.6619272828102112
0.5217646360397339 -0.10316164046525955 0.6625850200653076
0.5220715999603271 -0.10407303273677826 0.663160502910614
0.5244012475013733 -0.10845877975225449 0.6657277345657349
0.5258046388626099 -0.11013136804103851 0.6665846109390259
0.5270599722862244 -0.11206018924713135 0.6676587462425232
0.5281444191932678 -0.11285924166440964 0.6679699420928955
0.52959144115448 -0.11438225954771042 0.6687101125717163
0.5323136448860168 -0.1163037121295929 0.6694313883781433
0.5381273031234741 -0.11806411296129227 0.669305145740509
0.5404356718063354 -0.11800755560398102 0.6687178611755371
0.5423200726509094 -0.11738115549087524 0.6678255200386047
0.5440282821655273 -0.11707377433776855 0.6672015190124512
0.5455974340438843 -0.115702323615551 0.6658541560173035
0.5479397177696228 -0.11302721500396729 0.6633961200714111
0.5580574870109558 -0.09718988090753555 0.649733304977417
0.5604411959648132 -0.0973011702299118 0.6492470502853394
0.5075573921203613 -0.08066583424806595 0.6490625143051147
0.5082387328147888 -0.08089283853769302 0.6490625143051147
0.507448136806488 -0.08984418958425522 0.6556360125541687
0.5081145167350769 -0.0900663509964943 0.6556360125541687
0.5116792321205139 -0.09404444694519043 0.6576262712478638
0.5123410820960999 -0.09426529705524445 0.6576264500617981
0.5218027234077454 -0.10471948981285095 0.6628344058990479
0.5224133133888245 -0.10652659088373184 0.663978099822998
0.5237143039703369 -0.10843610763549805 0.6650309562683105
0.5251078605651855 -0.11013345420360565 0.665910542011261
0.5308462381362915 -0.11635926365852356 0.6689874529838562
0.5374780893325806 -0.11800260096788406 0.6685823202133179
0.5426063537597656 -0.11833889037370682 0.6676031947135925
0.5460737943649292 -0.11634191125631332 0.6653540730476379
0.5110703110694885 -0.07250657677650452 0.641494631767273
0.5079987049102783 -0.08333474397659302 0.6499748229980469
0.5076858401298523 -0.08584863692522049 0.6518480777740479
0.5074540972709656 -0.08815392851829529 0.653552770614624
0.5073937177658081 -0.09004713594913483 0.6549217700958252
0.5079976916313171 -0.09214385598897934 0.6562779545783997
0.5085933208465576 -0.09422717243432999 0.6576263308525085
0.5170604586601257 -0.09734397381544113 0.6578367352485657
0.5184003114700317 -0.09774332493543625 0.6578031778335571
0.5199602842330933 -0.10084372758865356 0.6596493721008301
0.5212908387184143 -0.1043291836977005 0.6618260145187378
0.5218406915664673 -0.1062680333852768 0.6630818843841553
0.5255549550056458 -0.11229071021080017 0.666504979133606
0.5274271368980408 -0.1144498735666275 0.6676037907600403
0.5287899374961853 -0.11611773073673248 0.6684718728065491
0.5314595103263855 -0.1181119903922081 0.6692620515823364
0.5320937037467957 -0.1183234304189682 0.6692620515823364
0.5344861149787903 -0.1180768609046936 0.6685149073600769
0.537786602973938 -0.12025435268878937 0.6692861318588257
0.5384208559989929 -0.12046577781438828 0.6692861318588257
0.5400223135948181 -0.12031084299087524 0.6687930822372437
0.5424683094024658 -0.12002020329236984 0.6680017113685608
0.5449599623680115 -0.11837439984083176 0.666229784488678
0.5080746412277222 -0.08323448896408081 0.6489962339401245
0.5079435110092163 -0.09234670549631119 0.6555664539337158
0.5078814029693604 -0.09420393407344818 0.6569141149520874
0.5107941627502441 -0.09616681188344955 0.6576260924339294
0.5121123194694519 -0.09660663455724716 0.6576260924339294
0.5140775442123413 -0.09729262441396713 0.6576482653617859
0.5187816023826599 -0.09864409267902374 0.6574932336807251
0.5199686288833618 -0.10249006748199463 0.65996915102005
0.5225247740745544 -0.10802298784255981 0.663328230381012
0.5234700441360474 -0.1106133982539177 0.6649606823921204
0.5248609185218811 -0.11229343712329865 0.6658336520195007
0.5259985327720642 -0.11443014442920685 0.6670949459075928
0.5279566049575806 -0.11639320850372314 0.6680351495742798
0.5362585186958313 -0.1190822571516037 0.6679791212081909
0.5427531003952026 -0.1209699958562851 0.6677801609039307
0.5454337000846863 -0.1190095990896225 0.6657320857048035
0.5479265451431274 -0.11609939485788345 0.6630474328994751
0.5485734939575195 -0.11631506681442261 0.6630474328994751
0.5104225873947144 -0.07417478412389755 0.6410220265388489
0.5078360438346863 -0.08565516024827957 0.6499055027961731
0.5075256824493408 -0.08814463019371033 0.6517718434333801
0.5072847604751587 -0.09045299887657166 0.6534910202026367
0.5084513425827026 -0.09640555083751678 0.6574950218200684
0.5194975137710571 -0.10042954981327057 0.6577413082122803
0.5199770331382751 -0.10412583500146866 0.6602867245674133
0.5210793018341064 -0.10649103671312332 0.6617243885993958
0.5216115117073059 -0.10844623297452927 0.6630041599273682
0.5235357284545898 -0.11206299811601639 0.6651452779769897
0.5267202258110046 -0.11601931601762772 0.6672289371490479
0.5291357040405273 -0.1184968575835228 0.6684322953224182
0.5312886238098145 -0.12003590166568756 0.669023871421814
0.5332773923873901 -0.11914946138858795 0.6679084300994873
0.5346686244010925 -0.11935484409332275 0.6677226424217224
0.5377869606018066 -0.12051406502723694 0.6678088903427124
0.5384219288825989 -0.12072572857141495 0.6678088903427124
0.5382633209228516 -0.12231884151697159 0.6689934730529785
0.5404424071311951 -0.1224653571844101 0.668576180934906
0.5443292856216431 -0.12101764231920242 0.6666017174720764
0.5465483069419861 -0.11985793709754944 0.6652349233627319
0.5112498998641968 -0.07602237910032272 0.6412439346313477
0.5077738165855408 -0.09460942447185516 0.6554977893829346
0.5141638517379761 -0.09729258716106415 0.6558969020843506
0.5164058804512024 -0.09740018844604492 0.6554352045059204
0.518337607383728 -0.09817146509885788 0.6555271148681641
0.5197593569755554 -0.10467241704463959 0.6598777174949646
0.5204108357429504 -0.10488946735858917 0.6598777174949646
0.5222936868667603 -0.11018811166286469 0.6632494926452637
0.5246160626411438 -0.11443684250116348 0.665757417678833
0.5276856422424316 -0.11853434890508652 0.6679766774177551
0.5283189415931702 -0.11874544620513916 0.6679766774177551
0.5297513008117676 -0.120236337184906 0.668708324432373
0.5350464582443237 -0.12015268951654434 0.6673738360404968
0.5417364835739136 -0.12297587841749191 0.6678021550178528
0.5425852537155151 -0.12282157689332962 0.6674864292144775
0.5471778512001038 -0.12023020535707474 0.6645107269287109
0.5076749324798584 -0.08795742690563202 0.6498365998268127
0.5073665976524353 -0.09042318910360336 0.6516960263252258
0.5080350637435913 -0.09064601361751556 0.6516960263252258
0.5077813863754272 -0.09295596182346344 0.6534299254417419
0.5084601044654846 -0.09655318409204483 0.655870258808136
0.5103989839553833 -0.09729659557342529 0.6559404134750366
0.5126298069953918 -0.097404845058918 0.6554805040359497
0.5192995667457581 -0.10260970145463943 0.6576392650604248
0.5208695530891418 -0.10863679647445679 0.6616240739822388
0.5239322185516357 -0.11442501097917557 0.665075421333313
0.525061845779419 -0.11655985563993454 0.6663482189178467
0.5309926867485046 -0.12217531353235245 0.6689823269844055
0.5334299802780151 -0.12047924101352692 0.6671662330627441
0.5382640957832336 -0.12258004397153854 0.6675207614898682
0.5441932082176208 -0.12281034141778946 0.6662565469741821
0.5459091663360596 -0.12249142676591873 0.6656115055084229
0.5110592246055603 -0.07845127582550049 0.641230046749115
0.5079662203788757 -0.09604581445455551 0.6547543406486511
0.5150415897369385 -0.09723608195781708 0.6539064049720764
0.5164965987205505 -0.0974004939198494 0.6536735892295837
0.518303632736206 -0.09844096750020981 0.6539915800094604
0.5202004909515381 -0.10705460608005524 0.659787118434906
0.520880937576294 -0.11022218316793442 0.6619224548339844
0.5217618346214294 -0.11145490407943726 0.6626043319702148
0.5220641493797302 -0.1123366728425026 0.6631712317466736
0.5243729948997498 -0.1165638267993927 0.6656820178031921
0.5257619619369507 -0.11817832291126251 0.666517972946167
0.5269762873649597 -0.1200939193367958 0.6676149368286133
0.5280476808547974 -0.12086914479732513 0.6679188013076782
0.5294620394706726 -0.12237291038036346 0.6686683893203735
0.5378026962280273 -0.12220040708780289 0.6665242314338684
0.5382006764411926 -0.12412956357002258 0.6678287982940674
0.540501594543457 -0.12406269460916519 0.6672232747077942
0.5439927577972412 -0.12328585982322693 0.6658141613006592
0.5465976595878601 -0.12275899946689606 0.6648010611534119
0.5111905336380005 -0.08004498481750488 0.6414499282836914
0.5075151324272156 -0.09024210274219513 0.6497683525085449
0.5081851482391357 -0.09046545624732971 0.6497683525085449
0.5078747272491455 -0.09290627390146255 0.6516213417053223
0.5076120495796204 -0.09521850943565369 0.653369128704071
0.5079708099365234 -0.09611818939447403 0.653937041759491
0.5112645030021667 -0.09724092483520508 0.6539549827575684
0.5120524764060974 -0.0971844270825386 0.6537228226661682
0.5190363526344299 -0.10020757466554642 0.6542290449142456
0.5191031098365784 -0.10477370768785477 0.6575381755828857
0.5192191004753113 -0.10608205944299698 0.6584625840187073
0.5215343832969666 -0.1120118647813797 0.6622189879417419
0.5224080085754395 -0.11470234394073486 0.6639664173126221
0.5236896276473999 -0.11655668169260025 0.6650057435035706
0.525075376033783 -0.11818281561136246 0.6658536791801453
0.5341382026672363 -0.12215273082256317 0.6665446162223816
0.5428171753883362 -0.12412433326244354 0.665873646736145
0.5475091934204102 -0.12265913188457489 0.6636676788330078
0.5120078921318054 -0.0818590521812439 0.6416686773300171
0.5084744095802307 -0.096772700548172 0.6534218788146973
0.5159238576889038 -0.0971791222691536 0.6519050598144531
0.5165876746177673 -0.09740042686462402 0.6519050598144531
0.5183097720146179 -0.10022582113742828 0.6535493731498718
0.5189257264137268 -0.10211670398712158 0.6547804474830627
0.5190636515617371 -0.1065017506480217 0.6579499244689941
0.5198322534561157 -0.10800740867853165 0.6588625311851501
0.5213149785995483 -0.11255303770303726 0.6618214249610901
0.5218365788459778 -0.11446885019540787 0.6630937457084656
0.5255162715911865 -0.12027662992477417 0.6664400100708008
0.5273400545120239 -0.12241610884666443 0.6675586104393005
0.5285197496414185 -0.12297897785902023 0.6676825284957886
0.5303889513015747 -0.12363865226507187 0.667709231376648
0.5316290855407715 -0.12408863753080368 0.6677359342575073
0.5332034826278687 -0.12260811030864716 0.6662712097167969
0.5365563631057739 -0.12332291156053543 0.6659773588180542
0.5398485660552979 -0.12415483593940735 0.6657832860946655
0.5404815673828125 -0.12436583638191223 0.6657832860946655
0.544281005859375 -0.12435708194971085 0.6648515462875366
0.5110015273094177 -0.08244113624095917 0.6414355635643005
0.5080236196517944 -0.09273164719343185 0.6497005820274353
0.5077157020568848 -0.09514905512332916 0.651546835899353
0.5121350884437561 -0.09718426316976547 0.6519584655761719
0.5180068612098694 -0.09775064885616302 0.6509397029876709
0.5184109807014465 -0.09851594269275665 0.6514015793800354
0.5188161134719849 -0.10401104390621185 0.6553278565406799
0.5225109457969666 -0.11617512255907059 0.663336455821991
0.5234488844871521 -0.11867218464612961 0.664936900138855
0.5248318910598755 -0.12028177082538605 0.665777862071991
0.5259538292884827 -0.12235350906848907 0.6670217514038086
0.5329022407531738 -0.12327291816473007 0.6659985780715942
0.5342122912406921 -0.12360940873622894 0.6659253835678101
0.5368828773498535 -0.12419837713241577 0.665704607963562
0.5437251925468445 -0.12415020912885666 0.6639984250068665
0.544360876083374 -0.12436210364103317 0.6639984250068665
0.5483459830284119 -0.12283040583133698 0.6619033217430115
0.5118159651756287 -0.08424147963523865 0.6416534781455994
0.5080702900886536 -0.09614476561546326 0.6513159871101379
0.5105978846549988 -0.09729698300361633 0.6515436172485352
0.5174313187599182 -0.09743954241275787 0.6499748826026917
0.5183978080749512 -0.10024386644363403 0.6517983078956604
0.5187938213348389 -0.10259269177913666 0.6534271240234375
0.5195174813270569 -0.1088518276810646 0.6578483581542969
0.5196372270584106 -0.1101260781288147 0.6587550640106201
0.5211066007614136 -0.11465362459421158 0.6617218255996704
0.5216108560562134 -0.11658471822738647 0.6630167961120605
0.5235152840614319 -0.12007617205381393 0.6651154160499573
0.5288254022598267 -0.12402178347110748 0.666714072227478
0.5332318544387817 -0.1241464838385582 0.665726363658905
0.5346633791923523 -0.1242661327123642 0.6654637455940247
0.5414295792579651 -0.1243119165301323 0.6638403534889221
0.5460363626480103 -0.12425483018159866 0.6626703143119812
0.5078637003898621 -0.09498021006584167 0.6496332883834839
0.5136740207672119 -0.09734902530908585 0.6499514579772949
0.5144679546356201 -0.09729249775409698 0.6497153043746948
0.5181785821914673 -0.09758920967578888 0.6490225195884705
0.5186324119567871 -0.0982542410492897 0.649401068687439
0.5186848044395447 -0.1044861301779747 0.6539800763130188
0.518642008304596 -0.10612775385379791 0.655200183391571
0.5197936296463013 -0.1129196509718895 0.6599218249320984
0.5204356908798218 -0.11313369870185852 0.6599218249320984
0.5222844481468201 -0.11827638000249863 0.6632570624351501
0.5245905518531799 -0.12236475199460983 0.6657031774520874
0.5262988805770874 -0.12332675606012344 0.6659921407699585
0.5288123488426208 -0.1241673156619072 0.6659942865371704
0.530215322971344 -0.12432345002889633 0.6657647490501404
0.537720263004303 -0.12431574612855911 0.6639156341552734
0.5385069251060486 -0.12426204234361649 0.6636831164360046
0.5461212396621704 -0.1242542713880539 0.6618070006370544
0.5499903559684753 -0.12295077741146088 0.6598963141441345
0.5116257071495056 -0.08660473674535751 0.6416381597518921
0.5081696510314941 -0.09608866274356842 0.649497926235199
0.5106778740882874 -0.09729690849781036 0.6497730612754822
0.5192767977714539 -0.10021865367889404 0.6498141884803772
0.5189076066017151 -0.1025630459189415 0.6516373753547668
0.5191917419433594 -0.10819413512945175 0.655728816986084
0.5193223357200623 -0.11096939444541931 0.6577475666999817
0.5208995342254639 -0.1167387068271637 0.6616224050521851
0.5239083766937256 -0.12237038463354111 0.6650431752204895
0.5267359614372253 -0.12400992214679718 0.6655582785606384
0.5340279340744019 -0.12431973218917847 0.6639909744262695
0.5423827767372131 -0.12425798177719116 0.6618871092796326
0.5446102023124695 -0.12436229735612869 0.661415696144104
0.5479751825332642 -0.1238696351647377 0.6602225303649902
0.5486153960227966 -0.1240830272436142 0.6602225303649902
0.5117533802986145 -0.08815538138151169 0.6418542265892029
0.5128824710845947 -0.09592068195343018 0.6473305821418762
0.5135497450828552 -0.09614311158657074 0.6473305821418762
0.5145555138587952 -0.09729241579771042 0.647934079170227
0.5161497592926025 -0.09717921167612076 0.6474561095237732
0.518336832523346 -0.0974569171667099 0.6471217274665833
0.5185106992721558 -0.10660211741924286 0.6538566946983337
0.5200517773628235 -0.1141088679432869 0.6590397357940674
0.5209107398986816 -0.11827709525823593 0.6619168519973755
0.5217718482017517 -0.11948809772729874 0.6626017093658447
0.5220596790313721 -0.1203613132238388 0.6631775498390198
0.5311294794082642 -0.12427007406949997 0.6638340353965759
0.532687246799469 -0.12416280061006546 0.6633697748184204
0.5386611223220825 -0.12426210939884186 0.6619674563407898
0.5402413606643677 -0.12415400892496109 0.6614969372749329
0.5470923185348511 -0.12419962137937546 0.659838080406189
0.5485345125198364 -0.12435908615589142 0.6595998406410217
0.5118806958198547 -0.08969735354185104 0.6420689821243286
0.5125582218170166 -0.089923195540905 0.6420689821243286
0.5130003094673157 -0.09066808223724365 0.6425131559371948
0.5138806104660034 -0.0921514704823494 0.6433978080749512
0.5135438442230225 -0.09457412362098694 0.6452817916870117
0.514214277267456 -0.09479761123657227 0.6452817916870117
0.5193589925765991 -0.09865342080593109 0.6468730568885803
0.5200259685516357 -0.0988757386803627 0.6468730568885803
0.5191992521286011 -0.1021689772605896 0.6495262384414673
0.5187569856643677 -0.10464712232351303 0.6514776945114136
0.5190195441246033 -0.11027608066797256 0.655596911907196
0.5191287398338318 -0.11307104676961899 0.6576473712921143
0.5192520022392273 -0.11431688070297241 0.6585429310798645
0.5215550065040588 -0.12001723796129227 0.6622092723846436
0.5224235653877258 -0.12260820716619492 0.663919985294342
0.5253207683563232 -0.12412172555923462 0.6643272042274475
0.5274659991264343 -0.12427397817373276 0.6639088988304138
0.5282396078109741 -0.12422040104866028 0.6636775732040405
0.5357412695884705 -0.12421201169490814 0.6618126034736633
0.5365270972251892 -0.12415821105241776 0.6615777611732483
0.5433411598205566 -0.1242036297917366 0.6599233150482178
0.5441383719444275 -0.12414935976266861 0.6596851944923401
0.5115646123886108 -0.09048742800951004 0.6418381929397583
0.5122411847114563 -0.09071286767721176 0.6418381929397583
0.5140014290809631 -0.093671515583992 0.6436063647270203
0.5154415369033813 -0.09723558276891708 0.6459054946899414
0.5162411332130432 -0.09717877954244614 0.645664632320404
0.5185079574584961 -0.09729821979999542 0.6451901793479919
0.5204125642776489 -0.09818041324615479 0.6453743577003479
0.5197301506996155 -0.1011810302734375 0.6477811932563782
0.5183382630348206 -0.10870269685983658 0.6537343859672546
0.519858181476593 -0.11618264019489288 0.6589328050613403
0.5200227499008179 -0.11732455343008041 0.6597433686256409
0.521338701248169 -0.12054584920406342 0.6618176698684692
0.5218366980552673 -0.12243049591779709 0.6630986928939819
0.5240939855575562 -0.12376296520233154 0.6635313630104065
0.5246502161026001 -0.12410824745893478 0.663650631904602
0.532048761844635 -0.1242162361741066 0.6618925929069519
0.5403993129730225 -0.12415359169244766 0.6597705483436584
0.5480687618255615 -0.12414466589689255 0.6578581929206848
0.5136848092079163 -0.09445115923881531 0.6433756351470947
0.5143567323684692 -0.09467513859272003 0.6433756351470947
0.5206449031829834 -0.09780432283878326 0.6441478133201599
0.5191224217414856 -0.10410667955875397 0.6492393016815186
0.5186073184013367 -0.10671678185462952 0.651319146156311
0.5188484191894531 -0.11234292387962341 0.6554654836654663
0.5189364552497864 -0.11515753716230392 0.6575480699539185
0.5239791870117188 -0.12409476190805435 0.6629733443260193
0.5283731818199158 -0.12422027438879013 0.6619721055030823
0.5305593609809875 -0.12432361394166946 0.6615046262741089
0.5366776585578918 -0.12415780127048492 0.6598554849624634
0.5381028652191162 -0.12431587278842926 0.6596187353134155
0.5443046689033508 -0.12414909899234772 0.6579483151435852
0.5465477108955383 -0.1242537572979927 0.6574674248695374
0.5513959527015686 -0.12265165895223618 0.6550616025924683
0.5109347701072693 -0.09206118434667587 0.6413782238960266
0.5120512843132019 -0.0930255725979805 0.641822338104248
0.5144757032394409 -0.09618262946605682 0.6435838341712952
0.5163324475288391 -0.09717848151922226 0.6438663005828857
0.518608570098877 -0.09728821367025375 0.6433796882629395
0.520128607749939 -0.0973643884062767 0.6430566906929016
0.5213783979415894 -0.09800247102975845 0.643222987651825
0.5196512341499329 -0.103129081428051 0.647498607635498
0.5188149213790894 -0.11100446432828903 0.6536127328872681
0.5187508463859558 -0.11414429545402527 0.6559833288192749
0.5195423364639282 -0.11702149361371994 0.6579429507255554
0.5196660757064819 -0.11824134737253189 0.6588267087936401
0.5211330652236938 -0.12258747220039368 0.6617187857627869
0.5254858136177063 -0.12417076528072357 0.6618182063102722
0.5261160731315613 -0.12438084930181503 0.6618182063102722
0.5329727530479431 -0.12416215986013412 0.659940242767334
0.5343918204307556 -0.12431970238685608 0.6597039103507996
0.5419926047325134 -0.1243119090795517 0.657798171043396
0.5427899360656738 -0.12425781786441803 0.6575585007667542
0.549693763256073 -0.12430428713560104 0.6558676362037659
0.5130537748336792 -0.09600485116243362 0.6429156064987183
0.5216505527496338 -0.09754835814237595 0.6419212818145752
0.5222001075744629 -0.0980234146118164 0.6421406269073486
0.5190461874008179 -0.10603229701519012 0.6489543318748474
0.5184587836265564 -0.10877177864313126 0.6511613130569458
0.519830584526062 -0.12092621624469757 0.6599579453468323
0.5204636454582214 -0.12113723903894424 0.6599579453468323
0.5220746994018555 -0.12372802197933197 0.6615026593208313
0.5232365131378174 -0.12433106452226639 0.6616649031639099
0.530697762966156 -0.12432368844747543 0.6597888469696045
0.538256824016571 -0.12431593239307404 0.6578882932662964
0.5459154844284058 -0.12430807948112488 0.6559624671936035
0.546719491481781 -0.12425358593463898 0.6557198762893677
0.5515525341033936 -0.12269089370965958 0.6533334851264954
0.5114224553108215 -0.09458700567483902 0.641364336013794
0.5178991556167603 -0.09734500199556351 0.6418160796165466
0.5187049508094788 -0.09728798270225525 0.6415706872940063
0.5225040316581726 -0.09750872850418091 0.6407821178436279
0.5195730924606323 -0.1050652340054512 0.6472179889678955
0.5188711285591125 -0.1111040934920311 0.6519490480422974
0.5186425447463989 -0.11307436972856522 0.6534925103187561
0.5185819268226624 -0.11618252843618393 0.6558516621589661
0.5193515419960022 -0.11907587945461273 0.6578407287597656
0.5270206332206726 -0.12432748079299927 0.6598732471466064
0.5285743474960327 -0.12422000616788864 0.659401535987854
0.5345382690429688 -0.12431976944208145 0.6579774022102356
0.536114513874054 -0.12421157956123352 0.6574997305870056
0.5429537892341614 -0.12425776571035385 0.6558153033256531
0.5115493535995483 -0.0960957258939743 0.6415781378746033
0.5119880437850952 -0.09682460874319077 0.6420188546180725
0.5140642523765564 -0.0973488911986351 0.6418920755386353
0.5218544006347656 -0.09734050929546356 0.6399217844009399
0.522649347782135 -0.09731820225715637 0.6397044658660889
0.5196253061294556 -0.10816479474306107 0.6486709117889404
0.5200745463371277 -0.12211146205663681 0.6591070890426636
0.5219607353210449 -0.1241733580827713 0.6601907014846802
0.5233603715896606 -0.12433115392923355 0.6599572896957397
0.5241318941116333 -0.12427780777215958 0.6597225666046143
0.5316195487976074 -0.12426978349685669 0.6578285098075867
0.5324033498764038 -0.12421582639217377 0.6575900316238403
0.5392054915428162 -0.12426165491342545 0.6559098362922668
0.5400006175041199 -0.12420744448900223 0.6556680202484131
0.5468918085098267 -0.1242535263299942 0.6539655923843384
0.5485067963600159 -0.12414440512657166 0.6534759998321533
0.5500402450561523 -0.12417645007371902 0.6531134843826294
0.5126378536224365 -0.0971822664141655 0.6412332653999329
0.5188014507293701 -0.09728788584470749 0.6397549510002136
0.5194952487945557 -0.1069893166422844 0.646938681602478
0.520152747631073 -0.10720838606357574 0.646938681602478
0.5187241435050964 -0.11312507838010788 0.6517884731292725
0.5184711217880249 -0.11512942612171173 0.6533726453781128
0.5190529227256775 -0.11841924488544464 0.6557214260101318
0.5191618204116821 -0.1211152970790863 0.657738983631134
0.5192859172821045 -0.1223139688372612 0.6586167812347412
0.5279302000999451 -0.12427370995283127 0.6579176783561707
0.5287092328071594 -0.1242198795080185 0.6576797962188721
0.536264955997467 -0.12421160191297531 0.6557630896568298
0.5439203977584839 -0.12420304864645004 0.6538209915161133
0.5447235107421875 -0.1241484060883522 0.6535764336585999
0.5116257071495056 -0.09610792994499207 0.6397791504859924
0.5149542689323425 -0.09729191660881042 0.639835774898529
0.5165625810623169 -0.09717793762683868 0.6393411755561829
0.522770881652832 -0.09728329628705978 0.6378468871116638
0.5244021415710449 -0.09716837853193283 0.6373457312583923
0.5195479989051819 -0.11006668210029602 0.648389458656311
0.5183659791946411 -0.11693397909402847 0.6539138555526733
0.521348237991333 -0.12415807694196701 0.6586531400680542
0.5250322222709656 -0.1242239773273468 0.6577694416046143
0.5325460433959961 -0.12421569228172302 0.655857503414154
0.534758985042572 -0.12431995570659637 0.6553755402565002
0.5401594638824463 -0.12420734763145447 0.653920590877533
0.5478731393814087 -0.12419884651899338 0.6519578099250793
0.548683226108551 -0.1241443008184433 0.651711106300354
0.5503565073013306 -0.12395372241735458 0.6511415839195251
0.5123379230499268 -0.09633424133062363 0.6388733386993408
0.5188984274864197 -0.09728779643774033 0.6379323601722717
0.5205200910568237 -0.09717289358377457 0.6374326348304749
0.5206425189971924 -0.10797999799251556 0.645646870136261
0.5189960598945618 -0.1127968281507492 0.6497406363487244
0.5185781717300415 -0.11513222008943558 0.6516287922859192
0.5188841223716736 -0.12042780965566635 0.6555914282798767
0.5191383361816406 -0.1228216141462326 0.6573532223701477
0.5202587246894836 -0.12352009117603302 0.6576011776924133
0.5213719606399536 -0.12422756105661392 0.6578578352928162
0.5221425294876099 -0.1241743341088295 0.6576213240623474
0.5288447141647339 -0.12421981245279312 0.6559516787528992
0.5302625298500061 -0.12437789142131805 0.6557113528251648
0.537209153175354 -0.12415707856416702 0.6537763476371765
0.5386446118354797 -0.12431605160236359 0.6535325646400452
0.5448921322822571 -0.12414797395467758 0.6518152952194214
0.5125947594642639 -0.09586610645055771 0.6375510096549988
0.5130518078804016 -0.09656070917844772 0.6379660367965698
0.515848696231842 -0.09723478555679321 0.6377683281898499
0.5166551470756531 -0.09717763960361481 0.6375190019607544
0.5236921310424805 -0.09722645580768585 0.6357614994049072
0.5245097279548645 -0.09716908633708954 0.6355088353157043
0.5260077714920044 -0.09733794629573822 0.6352561116218567
0.5188376307487488 -0.11916932463645935 0.6537898778915405
0.5259371995925903 -0.1241699680685997 0.6558054685592651
0.5265716910362244 -0.12438147515058517 0.6558054685592651
0.5334780216217041 -0.12416130304336548 0.6538755297660828
0.5341166853904724 -0.12437419593334198 0.6538755297660828
0.5411183834075928 -0.12415240705013275 0.6519198417663574
0.5425631999969482 -0.12431206554174423 0.6516734957695007
0.5488599538803101 -0.1241443008184433 0.6499391198158264
0.5227931141853333 -0.0910276249051094 0.6303277015686035
0.5206201672554016 -0.09717322140932083 0.6355994939804077
0.5189207792282104 -0.11466788500547409 0.6494594812393188
0.5184332132339478 -0.11712565273046494 0.651470422744751
0.51871657371521 -0.12242260575294495 0.6554628014564514
0.5222647786140442 -0.12417411804199219 0.6558991074562073
0.5297641158103943 -0.12416566908359528 0.6539744138717651
0.5304012894630432 -0.12437807023525238 0.6539744138717651
0.5388006567955017 -0.12431611865758896 0.6517784595489502
0.5465154647827148 -0.12430848926305771 0.6497989892959595
0.5490914583206177 -0.12391036748886108 0.6488344669342041
0.5148932337760925 -0.09613558650016785 0.6353638172149658
0.5167481899261475 -0.09717715531587601 0.6356897950172424
0.5182331800460815 -0.09734506905078888 0.6354379057884216
0.5226229429244995 -0.09148595482110977 0.6298028826713562
0.5227746367454529 -0.09282343089580536 0.6307930946350098
0.5236089825630188 -0.09438064694404602 0.6317774653434753
0.5237985849380493 -0.097227081656456 0.6339195966720581
0.5246180295944214 -0.09716964513063431 0.6336650848388672
0.5261190533638 -0.09733832627534866 0.6334097981452942
0.5193946957588196 -0.11383580416440964 0.6478313207626343
0.5186694860458374 -0.12117671221494675 0.6536667943000793
0.5202566981315613 -0.12386295199394226 0.6553270220756531
0.5207810997962952 -0.12428104132413864 0.6555142402648926
0.5274837017059326 -0.12432791292667389 0.6538311839103699
0.5350555181503296 -0.12431998550891876 0.651882529258728
0.5366433262825012 -0.12421116232872009 0.651391327381134
0.5427277088165283 -0.12431211769580841 0.6499082446098328
0.5443387627601624 -0.12420256435871124 0.6494104862213135
0.5278234481811523 -0.09722283482551575 0.6319704651832581
0.518845796585083 -0.11652770638465881 0.6491800546646118
0.5189295411109924 -0.1193188726902008 0.6513131260871887
0.5237975716590881 -0.12433171272277832 0.6539296507835388
0.5245747566223145 -0.12427772581577301 0.6536880731582642
0.5313276648521423 -0.12432399392127991 0.651986300945282
0.532116174697876 -0.12426964938640594 0.6517415046691895
0.5397573709487915 -0.12426146864891052 0.6497694849967957
0.5405584573745728 -0.12420672178268433 0.649520754814148
0.5474997758865356 -0.1242540180683136 0.6477715373039246
0.5483125448226929 -0.1241992935538292 0.6475203633308411
0.5224354863166809 -0.09373512864112854 0.6297463774681091
0.523419201374054 -0.09660527110099792 0.6317142248153687
0.5247270464897156 -0.09716913849115372 0.6318131685256958
0.5193187594413757 -0.11570335179567337 0.6475549936294556
0.5186920762062073 -0.12280283123254776 0.6532120704650879
0.5203196406364441 -0.12396945804357529 0.6536949872970581
0.5209007263183594 -0.12428164482116699 0.6537867188453674
0.5284006595611572 -0.12427377700805664 0.6518456935882568
0.535999596118927 -0.1242656335234642 0.6498786807060242
0.5367957353591919 -0.12421102076768875 0.649630606174469
0.5436995029449463 -0.12425722181797028 0.6478853821754456
0.5445071458816528 -0.12420257180929184 0.6476345658302307
0.522266149520874 -0.09419070929288864 0.6292238235473633
0.5287670493125916 -0.09716437011957169 0.6298499703407288
0.5194145441055298 -0.11859080195426941 0.6489025354385376
0.5187844038009644 -0.1212845891714096 0.6511566638946533
0.5247023701667786 -0.12427771836519241 0.6519489884376526
0.5262635350227356 -0.12416937947273254 0.6514608860015869
0.5322592854499817 -0.12426961958408356 0.6499872207641602
0.5399163961410522 -0.1242615282535553 0.6479994654655457
0.5407194495201111 -0.12420662492513657 0.6477493047714233
0.5476749539375305 -0.12425429373979568 0.6459864974021912
0.5229323506355286 -0.09619525820016861 0.6296905279159546
0.5248366594314575 -0.09716886281967163 0.6299546360969543
0.5263434648513794 -0.09733819216489792 0.6296953558921814
0.5198883414268494 -0.11777466535568237 0.6472798585891724
0.5187938809394836 -0.1228276938199997 0.6514976024627686
0.521795928478241 -0.12422769516706467 0.6518084406852722
0.52257239818573 -0.12417372316122055 0.6515651941299438
0.5293225049972534 -0.12421928346157074 0.6498488783836365
0.5301103591918945 -0.12416506558656693 0.6496021747589111
0.5369489789009094 -0.12421093136072159 0.647863507270813
0.5446762442588806 -0.12420257925987244 0.6458516120910645
0.5289516448974609 -0.09703201800584793 0.6278590559959412
0.5305331349372864 -0.09707657247781754 0.6274822354316711
0.5193385481834412 -0.12042798846960068 0.6486268043518066
0.5256118178367615 -0.12422353029251099 0.6499572396278381
0.526394784450531 -0.12416915595531464 0.6497110724449158
0.5331960320472717 -0.12421493977308273 0.6479769945144653
0.5346331596374512 -0.12437477707862854 0.6477276682853699
0.5408806800842285 -0.12420646846294403 0.645970344543457
0.5423340797424316 -0.1243671327829361 0.6457177996635437
0.5198114514350891 -0.11961937695741653 0.6470068693161011
0.5189783573150635 -0.1226932629942894 0.6496310234069824
0.5200515985488892 -0.12350697815418243 0.6499881744384766
0.522696316242218 -0.12417350709438324 0.6498197913169861
0.5302497744560242 -0.12416466325521469 0.6478413343429565
0.5379033088684082 -0.12415575236082077 0.6458367705345154
0.5385491251945496 -0.12437102198600769 0.6458367705345154
0.5456585884094238 -0.12414763122797012 0.6438063979148865
0.546308696269989 -0.12436433881521225 0.6438063979148865
0.5212020874023438 -0.12428171187639236 0.6494367718696594
0.5265266299247742 -0.12416904419660568 0.6479546427726746
0.5287404656410217 -0.1242736354470253 0.6474572420120239
0.5341379046440125 -0.12416007369756699 0.6459556221961975
0.5418505072593689 -0.12415126711130142 0.6439302563667297
0.5424990057945251 -0.12436746060848236 0.6439302563667297
0.5200105309486389 -0.1209195926785469 0.6462429761886597
0.5197219252586365 -0.12292765080928802 0.6478999257087708
0.5203607678413391 -0.12314063310623169 0.6478999257087708
0.5242407321929932 -0.1243320032954216 0.6478197574615479
0.5318253636360168 -0.12432406842708588 0.6458225846290588
0.5326196551322937 -0.1242695152759552 0.6455714106559753
0.5395109057426453 -0.12431619316339493 0.6437990069389343
0.5214284062385559 -0.12408245354890823 0.6474999785423279
0.5221027135848999 -0.12422738969326019 0.6474370360374451
0.5280882716178894 -0.12432809174060822 0.645940899848938
0.5357310175895691 -0.12432026863098145 0.6439228057861328
0.5365319848060608 -0.12426530569791794 0.6436688303947449
0.5434756278991699 -0.12431295216083527 0.6418787240982056
0.5442885756492615 -0.12425745278596878 0.641620934009552
0.5208955407142639 -0.12089410424232483 0.6442528963088989
0.5251529216766357 -0.12427763640880585 0.6458086967468262
0.5267254710197449 -0.12416856735944748 0.6453071236610413
0.532764732837677 -0.12426948547363281 0.6437927484512329
0.540477991104126 -0.12426134198904037 0.6417499780654907
0.5213453769683838 -0.12303950637578964 0.6449664831161499
0.522226095199585 -0.1242271140217781 0.6456761956214905
0.529015064239502 -0.12427348643541336 0.6439159512519836
0.5306007862091064 -0.12416404485702515 0.6434091329574585
0.5366852879524231 -0.12426526844501495 0.6418787837028503
0.5382943749427795 -0.12415508925914764 0.6413654088973999
0.5220966935157776 -0.12316060066223145 0.6439948081970215
0.5225050449371338 -0.12381698936223984 0.6444092988967896
0.5260698199272156 -0.12422308325767517 0.6437862515449524
0.5337092876434326 -0.12421443313360214 0.6417514085769653
0.5345093011856079 -0.12415937334299088 0.6414949893951416
0.5406398773193359 -0.1242612972855568 0.6399485468864441
0.5240501761436462 -0.12387211620807648 0.6431730389595032
0.5245612263679504 -0.12433192878961563 0.6434042453765869
0.5299469232559204 -0.12421873956918716 0.6418799161911011
0.5307419896125793 -0.12416380643844604 0.6416241526603699
0.5376450419425964 -0.12421007454395294 0.6398231983184814
0.5384520888328552 -0.1241547167301178 0.6395643949508667
0.5232571363449097 -0.12263088673353195 0.6415185332298279
0.5244243741035461 -0.12329059839248657 0.6417356729507446
0.52699214220047 -0.12416838854551315 0.6417528986930847
0.5338571667671204 -0.1242142990231514 0.6399570107460022
0.5346589684486389 -0.12415912747383118 0.639698326587677
0.5308837294578552 -0.12416373938322067 0.6398323774337769
0.5271832942962646 -0.1226549968123436 0.6387311816215515
0.528465986251831 -0.12311229109764099 0.6387549638748169
0.5303455591201782 -0.12387815117835999 0.6388673186302185
0.5334831476211548 -0.12377190589904785 0.6379391551017761
0.5279737114906311 -0.12231288850307465 0.6681137681007385
0.5277968049049377 -0.12006339430809021 0.6682210564613342
0.531934380531311 -0.12181130796670914 0.6676084399223328
0.5305720567703247 -0.0948610007762909 0.6798580288887024
0.5318780541419983 -0.1235252171754837 0.6658806204795837
0.531547486782074 -0.11991307884454727 0.6674566268920898
0.5307261347770691 -0.09352633357048035 0.6797335147857666
0.52962327003479 -0.09147903323173523 0.6801868677139282
0.5276911854743958 -0.11288952827453613 0.6681049466133118
0.5310549139976501 -0.0957130715250969 0.6779994368553162
0.52330082654953 -0.08761528134346008 0.6781646609306335
0.531032919883728 -0.09086935222148895 0.6794854998588562
0.5320366024971008 -0.09706195443868637 0.6761321425437927
0.5313628911972046 -0.09303602576255798 0.6777569055557251
0.5306971669197083 -0.08905758708715439 0.6793625354766846
0.5306410789489746 -0.08790229260921478 0.679895281791687
0.5321896076202393 -0.09571538865566254 0.676013171672821
0.5315160751342773 -0.09170392155647278 0.6776363253593445
0.5318517684936523 -0.09387631714344025 0.6758979558944702
0.531178891658783 -0.08988557755947113 0.6775162816047668
0.5309460163116455 -0.085280641913414 0.679648220539093
0.5418688654899597 -0.11872337013483047 0.6677960157394409
0.5312730669975281 -0.08740918338298798 0.6779317259788513
0.5306122899055481 -0.083490289747715 0.67952561378479
0.5295960903167725 -0.08137200772762299 0.6800647974014282
0.5167108774185181 -0.08573170751333237 0.6716284155845642
0.5417252779006958 -0.11641378700733185 0.6679878234863281
0.53271484375 -0.09159316122531891 0.6757460832595825
0.5320960283279419 -0.09004302322864532 0.676203191280365
0.5307089686393738 -0.08105751872062683 0.6799319982528687
0.5419185161590576 -0.11491487175226212 0.6679511070251465
0.5324667096138 -0.08963125199079514 0.6757438778877258
0.5319764018058777 -0.08914097398519516 0.6757438778877258
0.5316368341445923 -0.08592922240495682 0.6771577596664429
0.5308603644371033 -0.07976611703634262 0.6798090934753418
0.5161121487617493 -0.08079762011766434 0.6720419526100159
0.5455193519592285 -0.12140650302171707 0.6656547784805298
0.5416074991226196 -0.11291809380054474 0.6679143309593201
0.5319308638572693 -0.0868777334690094 0.6759940385818481
0.5312431454658508 -0.08299223333597183 0.6775729060173035
0.5305287837982178 -0.07799631357192993 0.6796867251396179
0.5418003797531128 -0.11143116652965546 0.6678780317306519
0.532092809677124 -0.08554678410291672 0.6758896708488464
0.5320116281509399 -0.08443418890237808 0.6764007806777954
0.5313947796821594 -0.08169085532426834 0.6774539947509766
0.5453718900680542 -0.11790414899587631 0.6655688285827637
0.5419923663139343 -0.10994979739189148 0.6678416132926941
0.5461336970329285 -0.09354573488235474 0.6780486106872559
0.5317667126655579 -0.08373294770717621 0.6757860779762268
0.5314874649047852 -0.07926717400550842 0.677865743637085
0.5308318734169006 -0.0754333883523941 0.6794447898864746
0.5302959680557251 -0.07384414225816727 0.6799680590629578
0.5294322371482849 -0.07274353504180908 0.6800855994224548
0.5472859740257263 -0.1218126118183136 0.6637008786201477
0.5442222952842712 -0.11317931115627289 0.6664763689041138
0.5334535837173462 -0.08377032727003098 0.6757654547691345
0.5311551094055176 -0.07749536633491516 0.6777469515800476
0.5239692330360413 -0.06900635361671448 0.6783963441848755
0.5162010192871094 -0.07402538508176804 0.6720240712165833
0.5460065007209778 -0.11584056913852692 0.6651678681373596
0.541874885559082 -0.10650388151407242 0.6677695512771606
0.5466941595077515 -0.0956132560968399 0.6756224036216736
0.5332110524177551 -0.08183601498603821 0.6757690906524658
