ply
format ascii 1.0
element vertex 801
property float x
property float y
property float z
end_header
0.6367132663726807 0.00016769111971370876 0.6409789323806763
0.6327153444290161 0.0029416284523904324 0.6399374604225159
0.6309363842010498 0.004193635657429695 0.6394889950752258
0.6879338622093201 -0.02795342542231083 0.6598273515701294
0.6861894130706787 -0.02550308220088482 0.6604296565055847
0.6820099353790283 -0.019750438630580902 0.6617722511291504
0.6816686987876892 -0.01925271563231945 0.6619057655334473
0.6761153936386108 -0.011831741780042648 0.663499653339386
0.6757805943489075 -0.011335229501128197 0.663637638092041
0.6703370213508606 -0.0038613437209278345 0.6653703451156616
0.6686189770698547 -0.0016384907066822052 0.6658012270927429
0.6498243808746338 -0.0037763232830911875 0.6479373574256897
0.6421722173690796 -0.0007757716812193394 0.6439676880836487
0.6402238607406616 -0.0013284366577863693 0.6418333053588867
0.6347657442092896 0.0020074057392776012 0.6400222778320312
0.6343091130256653 0.002289446536451578 0.6398731470108032
0.6881694197654724 -0.02769169583916664 0.659440815448761
0.6867676973342896 -0.02575426734983921 0.6598992943763733
0.6808589100837708 -0.017589785158634186 0.6618295907974243
0.6780800819396973 -0.013878299854695797 0.662627637386322
0.6750153303146362 -0.009578200988471508 0.6636850833892822
0.6739755272865295 -0.008230791427195072 0.6639481782913208
0.6722750663757324 -0.005897622089833021 0.6644896864891052
0.6664291024208069 -0.0013039609184488654 0.663418173789978
0.6622081398963928 -0.007870832458138466 0.6541858315467834
0.6603066921234131 -0.005932935979217291 0.6542171239852905
0.6588793992996216 -0.005573885515332222 0.6533028483390808
0.6545103192329407 -0.00743491668254137 0.6479713320732117
0.650428295135498 -0.003991270903497934 0.6474248766899109
0.6460725665092468 0.0001760250306688249 0.6472637057304382
0.6438950300216675 0.0002979083510581404 0.6455045938491821
0.6381598711013794 0.0002095947420457378 0.6405207514762878
0.6359528303146362 0.0017568764742463827 0.6399562358856201
0.6323534250259399 0.004136547911912203 0.6389123797416687
0.6901394724845886 -0.029971113428473473 0.6583623886108398
0.6859795451164246 -0.023936783894896507 0.6599709391593933
0.6842401027679443 -0.021523289382457733 0.6605492234230042
0.6800509691238403 -0.0159308984875679 0.6617535948753357
0.6797117590904236 -0.015436258167028427 0.6618868708610535
0.67421954870224 -0.007939335890114307 0.6636074185371399
0.6738850474357605 -0.007451633922755718 0.6637388467788696
0.6606016755104065 -0.005520284175872803 0.6539967060089111
0.6579129099845886 -0.0057754828594625 0.6514703035354614
0.6564792990684509 -0.006827150005847216 0.6493374705314636
0.6525871753692627 -0.005795110482722521 0.6468830704689026
0.645192563533783 0.000397281430196017 0.6458511352539062
0.6379750370979309 0.0007907436229288578 0.6399950385093689
0.6362199187278748 0.0020520298276096582 0.6395711898803711
0.6914269924163818 -0.031206173822283745 0.6575914025306702
0.6903688907623291 -0.029737932607531548 0.6579443216323853
0.6862143874168396 -0.02367624267935753 0.65958571434021
0.6820283532142639 -0.017990022897720337 0.6608767509460449
0.6789393424987793 -0.013660944998264313 0.6619439721107483
0.6761747598648071 -0.009972486644983292 0.662739098072052
0.6730919480323792 -0.005817955359816551 0.6636613011360168
0.6700286269187927 -0.0016900121700018644 0.6645776629447937
0.6683624386787415 -0.0008195742266252637 0.6638927459716797
0.6666913032531738 -0.0014199112774804235 0.6619378924369812
0.6639953255653381 -0.008023959584534168 0.6539344191551208
0.6636051535606384 -0.007668358273804188 0.6539047360420227
0.6591330766677856 -0.0057039945386350155 0.6517465710639954
0.6487215757369995 -0.002125865314155817 0.6458660364151001
0.6483446359634399 -0.0016973200254142284 0.6459104418754578
0.6481474041938782 -0.0008265742217190564 0.6464899182319641
0.6441023349761963 0.0001378620509058237 0.6438387632369995
0.6424789428710938 -0.001021615811623633 0.6414438486099243
0.6399651765823364 -0.00023097290250007063 0.6399611234664917
0.6395218968391418 6.941251922398806e-05 0.6398380994796753
0.6899183392524719 -0.02841629460453987 0.6578791737556458
0.6881849765777588 -0.025888223201036453 0.6585648655891418
0.6850550174713135 -0.021492045372724533 0.6596577763557434
0.6719678044319153 -0.003703502006828785 0.6637149453163147
0.6643855571746826 -0.007314897142350674 0.6540549993515015
0.6623850464820862 -0.005694456864148378 0.6537268161773682
0.6581656336784363 -0.005906680133193731 0.6499024033546448
0.6567303538322449 -0.006961770821362734 0.6477532982826233
0.6550013422966003 -0.007318604737520218 0.6459531784057617
0.6467492580413818 0.0008023303817026317 0.6458399891853333
0.6411252617835999 -0.0005138193373568356 0.6398506760597229
0.6402239799499512 4.8888152377912775e-05 0.639558732509613
0.6345405578613281 0.004193562548607588 0.6382306218147278
0.6336317658424377 0.004770878702402115 0.6379445195198059
0.6898080706596375 -0.027640335261821747 0.6576381325721741
0.6842381358146667 -0.01982918381690979 0.6595776677131653
0.6838998198509216 -0.019315138459205627 0.6597297787666321
0.6783800721168518 -0.011718870140612125 0.6615267992019653
0.6777054071426392 -0.010737517848610878 0.6617922186851501
0.6769986748695374 -0.00987739022821188 0.6619249582290649
0.6725797653198242 -0.003782556625083089 0.6633753776550293
0.6712151169776917 -0.0019636584911495447 0.6637684106826782
0.6643399000167847 -0.006392081268131733 0.6539861559867859
0.6600918769836426 -0.0053148590959608555 0.651242196559906
0.6561304330825806 -0.007563518825918436 0.6458679437637329
0.6541683077812195 -0.005633621942251921 0.6458401083946228
0.6537776589393616 -0.005242875311523676 0.6458401083946228
0.6522439122200012 -0.0036041962448507547 0.645930826663971
0.6518533825874329 -0.003213657299056649 0.645930826663971
0.6483179926872253 0.000252515688771382 0.6458709836006165
0.6443103551864624 -2.3973461793502793e-05 0.6421634554862976
0.6422433257102966 -0.0008883781847544014 0.6396265625953674
0.6356624364852905 0.003799413563683629 0.6379883885383606
0.6352617144584656 0.004200200084596872 0.6379883885383606
0.6921126842498779 -0.030521227046847343 0.6563202738761902
0.6903765201568604 -0.02795066498219967 0.6570444703102112
0.6889837980270386 -0.025948455557227135 0.6575732827186584
0.6879326701164246 -0.024495098739862442 0.6579224467277527
0.6831205487251282 -0.017517859116196632 0.6598012447357178
0.6803474426269531 -0.013763916678726673 0.6606525778770447
0.6758646965026855 -0.007749619428068399 0.6619817018508911
0.6745254993438721 -0.005801898427307606 0.6625097990036011
0.6687607765197754 -0.0009911832166835666 0.6616817712783813
0.6670862436294556 -0.0015962187899276614 0.6597036123275757
0.6651620268821716 -0.005904627498239279 0.6542947292327881
0.6584194898605347 -0.006038863677531481 0.6483268141746521
0.646409809589386 0.0006500210729427636 0.6437093019485474
0.644414484500885 -0.00010598849621601403 0.64132159948349
0.6385688185691833 0.0022121674846857786 0.6382603645324707
0.6368348002433777 0.003518450539559126 0.6378891468048096
0.6923401355743408 -0.03029818646609783 0.6558910012245178
0.6878244280815125 -0.023721521720290184 0.6576844453811646
0.6864364147186279 -0.021754799410700798 0.6581882238388062
0.6823086738586426 -0.015865318477153778 0.6597213745117188
0.6819722652435303 -0.015355079434812069 0.6598725914955139
0.6764773726463318 -0.00782778114080429 0.6616413593292236
0.672033965587616 -0.0018696654587984085 0.6629593968391418
0.6669673323631287 -0.0024187008384615183 0.6580725312232971
0.6624265313148499 -0.003919866867363453 0.6528142690658569
0.6603484749794006 -0.005445060785859823 0.649678647518158
0.6585466265678406 -0.006105327513068914 0.6475359797477722
0.6505441665649414 -0.0017363266088068485 0.6443739533424377
0.6453245878219604 0.00039135527913458645 0.6416832208633423
0.6423349976539612 9.388948456034996e-06 0.6387491226196289
0.6392719745635986 0.0021905035246163607 0.6379817128181458
0.6366492509841919 0.004100903403013945 0.6373617053031921
0.6922270655632019 -0.029523765668272972 0.6556456685066223
0.6918504238128662 -0.029147334396839142 0.6556456685066223
0.6880526542663574 -0.023489678278565407 0.6572685241699219
0.6870409250259399 -0.021884489804506302 0.65778648853302
0.6811630725860596 -0.013707835227251053 0.6597927808761597
0.6784355640411377 -0.00985997635871172 0.6607702970504761
0.6753465533256531 -0.005707393866032362 0.6616984605789185
0.6708559989929199 4.3597818148555234e-05 0.6627983450889587
0.668006420135498 -0.0012230854481458664 0.659206211566925
0.6661818027496338 -0.0037508313544094563 0.6554081439971924
0.665191650390625 -0.0037049371749162674 0.6545839309692383
0.6641594171524048 -0.003767300397157669 0.6536286473274231
0.6593857407569885 -0.005646936595439911 0.647822380065918
0.6560940146446228 -0.005979504901915789 0.6446595191955566
0.6542223691940308 -0.0038120632525533438 0.6449177265167236
0.652239203453064 -0.0019439305178821087 0.6448173522949219
0.6511682868003845 -0.0019028257811442018 0.6439186334609985
0.6446247696876526 -0.0002675041323527694 0.6396353244781494
0.6412587761878967 0.0011676800204440951 0.6379503011703491
0.691398024559021 -0.027824334800243378 0.6555843353271484
0.6900063157081604 -0.0258039440959692 0.6561344861984253
0.6858862638473511 -0.019685786217451096 0.6578831672668457
0.684498131275177 -0.017766911536455154 0.6583475470542908
0.6803920269012451 -0.01192801259458065 0.6598639488220215
0.6742193102836609 -0.0035939281806349754 0.6617554426193237
0.6738860011100769 -0.0031099903862923384 0.6618872284889221
0.6704474687576294 -0.00019697280367836356 0.6614273190498352
0.667483925819397 -0.0017735526198521256 0.6574540734291077
0.6630741953849792 -0.004409236367791891 0.651288628578186
0.658802330493927 -0.0062379841692745686 0.64594966173172
0.6505205631256104 0.00023537743254564703 0.6443670988082886
0.6483079195022583 0.0015496757114306092 0.643580973148346
0.6467303037643433 0.00041111576138064265 0.6412039399147034
0.6455353498458862 0.00022890945547260344 0.6399988532066345
0.6432309150695801 0.00012575906293932348 0.637891948223114
0.6406757235527039 0.002147107617929578 0.6374247670173645
0.6380589604377747 0.00405556196346879 0.6368048191070557
0.6349707841873169 0.006245050113648176 0.6360182166099548
0.6902329325675964 -0.025581739842891693 0.6557066440582275
0.6898950338363647 -0.025034990161657333 0.6558898687362671
0.6864532828330994 -0.019970841705799103 0.6573137044906616
0.6847321391105652 -0.01750829815864563 0.6579645276069641
0.6799207329750061 -0.010794986970722675 0.6596332788467407
0.6792536377906799 -0.00978437252342701 0.6599348783493042
0.676167368888855 -0.005612900014966726 0.6608872413635254
0.6734282374382019 -0.0019700671546161175 0.6616802215576172
0.6712189316749573 0.00022649324091617018 0.6616690754890442
0.6682727932929993 -0.001340684830211103 0.6577082872390747
0.66389000415802 -0.003961433656513691 0.6515622735023499
0.6621325016021729 -0.004603488836437464 0.6494563221931458
0.6607360243797302 -0.005640816874802113 0.647320568561554
0.6600301861763 -0.006165170110762119 0.6462411880493164
0.6526113152503967 -0.0017325764056295156 0.6436204314231873
0.6460382342338562 -0.00024810776812955737 0.6391546130180359
0.644380509853363 -0.00016806073836050928 0.6377702355384827
0.6361380219459534 0.005947736091911793 0.6359037756919861
0.6356914639472961 0.006250317674130201 0.6357776522636414
0.6921911835670471 -0.02793332375586033 0.6545377969741821
0.689446747303009 -0.023721706122159958 0.6558287739753723
0.6880630254745483 -0.021718962118029594 0.6563736200332642
0.6839178800582886 -0.015854842960834503 0.6578865051269531
0.6825708150863647 -0.013815954327583313 0.6584951281547546
0.6781189441680908 -0.0076479120180010796 0.6600055694580078
0.6722801327705383 4.392880873638205e-05 0.6616361737251282
0.6707172989845276 -0.00030990317463874817 0.6599494218826294
0.6677507758140564 -0.0018919790163636208 0.6559466123580933
0.6664254069328308 -0.0028868219815194607 0.6539047360420227
0.6647020578384399 -0.0035155510995537043 0.6518347859382629
0.6640217304229736 -0.004023767542093992 0.6507889032363892
0.6601595282554626 -0.006231766659766436 0.6454469561576843
0.659771740436554 -0.005843874998390675 0.6454469561576843
0.6566150188446045 -0.004331604111939669 0.6439999341964722
0.6562196612358093 -0.003957192413508892 0.6439815163612366
0.6558287739753723 -0.003571120323613286 0.6439772248268127
0.6513643860816956 0.00026697127032093704 0.6434260010719299
0.6485252976417542 0.0013934738235548139 0.6419188976287842
0.6469448208808899 0.0002493965730536729 0.6395211815834045
0.6446062326431274 3.6124558391747996e-05 0.6372756361961365
0.638577938079834 0.004614879842847586 0.6359999775886536
0.6363983154296875 0.00622748676687479 0.6355007886886597
0.6934694051742554 -0.029223617166280746 0.6537010669708252
0.6882895827293396 -0.021494552493095398 0.6559506058692932
0.6845237016677856 -0.015968890860676765 0.6575037240982056
0.6800530552864075 -0.009777428582310677 0.6590223908424377
0.6786841154098511 -0.007895618677139282 0.6594749689102173
0.6776880621910095 -0.006388577166944742 0.6599259376525879
0.6742814779281616 -0.001760975574143231 0.6610035300254822
0.6623940467834473 -0.004730680957436562 0.6478921175003052
0.6609957814216614 -0.005772090051323175 0.6457393169403076
0.658148467540741 -0.004909973591566086 0.6439871788024902
0.6544222235679626 -0.0019971923902630806 0.6432693004608154
0.6520662307739258 0.00030347457504831254 0.6432205438613892
0.646299421787262 -0.0002977321273647249 0.6376008987426758
0.6422613859176636 0.0022141949739307165 0.636254072189331
0.6405598521232605 0.0035725601483136415 0.6359512805938721
0.6926400661468506 -0.027514440938830376 0.6536515355110168
0.6902364492416382 -0.02382301539182663 0.6547911167144775
0.6878058910369873 -0.020357336848974228 0.6557070016860962
0.6874709129333496 -0.019816169515252113 0.6558895707130432
0.686093270778656 -0.017834950238466263 0.656423807144165
0.6833739280700684 -0.0138101102784276 0.6575790047645569
0.6775517463684082 -0.005765041336417198 0.6595463156700134
0.6762263774871826 -0.0037735626101493835 0.6601356267929077
0.6716257929801941 5.824403342558071e-05 0.6594552993774414
0.6703465580940247 -0.0009089162340387702 0.6574673652648926
0.6686753630638123 -0.0015164650976657867 0.6554506421089172
0.6680188179016113 -0.002010328695178032 0.6544328331947327
0.6642861366271973 -0.004148868378251791 0.6492369174957275
0.6604548692703247 -0.006263494025915861 0.643975019454956
0.6600663065910339 -0.005874840542674065 0.643975019454956
0.6528334021568298 -0.0008851359016261995 0.6419901251792908
0.647160530090332 8.725943916942924e-05 0.6378304362297058
0.6429381370544434 0.002139430493116379 0.6359097957611084
0.6403687000274658 0.004137538839131594 0.6354041695594788
0.6942571997642517 -0.029375653713941574 0.6526064276695251
0.6918513178825378 -0.025626754388213158 0.6537982821464539
0.682228147983551 -0.011658767238259315 0.6576539278030396
0.6818929314613342 -0.011152291670441628 0.6578059792518616
0.6781531572341919 -0.005879325792193413 0.6591666340827942
0.676461398601532 -0.003510629292577505 0.6597672700881958
0.6757636666297913 -0.002643963787704706 0.6599172353744507
0.6727635264396667 0.0001134765479946509 0.6597018241882324
0.6681535243988037 -0.002069661859422922 0.6536733508110046
0.6668264865875244 -0.0030689018312841654 0.651608943939209
0.6650999188423157 -0.003700998844578862 0.6495159864425659
0.6583892703056335 -0.003611859166994691 0.6436398029327393
0.656352698802948 -0.001923000207170844 0.6433312296867371
0.6543201804161072 -0.0016213246854022145 0.6417952179908752
0.6508036255836487 0.0018981224857270718 0.641797661781311
0.648853600025177 0.0011577429249882698 0.6394101977348328
0.6453100442886353 0.0007099149515852332 0.6358681321144104
0.6384680867195129 0.0060591609217226505 0.6345434188842773
0.692412793636322 -0.02597610279917717 0.6531590223312378
0.6910266280174255 -0.02392752096056938 0.6537485718727112
0.6882569789886475 -0.0199147779494524 0.6548547744750977
0.6869185566902161 -0.01775505207479 0.655585765838623
0.6858790516853333 -0.016309261322021484 0.6559473872184753
0.6841734647750854 -0.013821625150740147 0.6566433310508728
0.6810861229896545 -0.0095146419480443 0.6577284932136536
0.675666332244873 -0.001892758533358574 0.6596881747245789
0.6706180572509766 -0.0010253135114908218 0.655967652797699
0.6689451932907104 -0.0016338209388777614 0.6539376378059387
0.6645514369010925 -0.004275005776435137 0.6476770639419556
0.6627880334854126 -0.004924049600958824 0.6455302834510803
0.6531843543052673 0.0006690052687190473 0.6419610977172852
0.6515582799911499 0.0020635132677853107 0.6417549848556519
0.6501396298408508 0.0012547716032713652 0.6397727727890015
0.6481732726097107 0.0005028314189985394 0.637353777885437
0.646874725818634 6.660833605565131e-05 0.6358099579811096
0.6374383568763733 0.00734592042863369 0.6338904500007629
0.6946998834609985 -0.02899450622498989 0.6516767740249634
0.6940234303474426 -0.02785276062786579 0.6520920991897583
0.68986576795578 -0.021693969145417213 0.653877854347229
0.6857718229293823 -0.015549756586551666 0.6557074785232544
0.6803173422813416 -0.007747124880552292 0.6578030586242676
0.6799479126930237 -0.007377615198493004 0.6578030586242676
0.6745446920394897 0.00021727793500758708 0.659758985042572
0.6720353960990906 -0.00011057936353608966 0.657227098941803
0.6660438776016235 -0.00331685203127563 0.6490188837051392
0.6653666496276855 -0.0038259802386164665 0.6479603052139282
0.6622229218482971 -0.00550882937386632 0.6436530351638794
0.6602092385292053 -0.0037885711062699556 0.6433911919593811
0.6562085747718811 -0.0016712439246475697 0.6417105793952942
0.6522349119186401 0.0020350466948002577 0.6414719223976135
0.6445327401161194 0.0022340991999953985 0.6347761750221252
0.6406644582748413 0.005192545708268881 0.6339643001556396
0.6398298144340515 0.005913297645747662 0.6338625550270081
0.6393944621086121 0.006234508939087391 0.6337606310844421
0.694244384765625 -0.027662266045808792 0.6516277194023132
0.6938675045967102 -0.027285482734441757 0.6516277194023132
0.6900917291641235 -0.021472008898854256 0.653451144695282
0.6863290667533875 -0.0158657506108284 0.6551010012626648
0.6849601864814758 -0.013886657543480396 0.6556469798088074
0.682256817817688 -0.009877854958176613 0.6568151116371155
0.6791824102401733 -0.005616717506200075 0.6578772068023682
0.6764599084854126 -0.0018837639363482594 0.6587814688682556
0.6728066802024841 0.00031401548767462373 0.6574790477752686
0.6702438592910767 -0.001632687752135098 0.6534433960914612
0.6685591340065002 -0.0022482979111373425 0.6513847708702087
0.6641307473182678 -0.004919460508972406 0.6450316905975342
0.6589122414588928 -0.0019516597967594862 0.6430173516273499
0.6573004722595215 -0.0020092022605240345 0.6415237188339233
0.648412823677063 0.0003915528650395572 0.6357186436653137
0.6430438756942749 0.003756449557840824 0.6339252591133118
0.6426448822021484 0.004155541304498911 0.6339252591133118
0.6400734186172485 0.006158108357340097 0.6334161162376404
0.6934137344360352 -0.025956956669688225 0.6515789031982422
0.6920347213745117 -0.02385677583515644 0.652225911617279
0.6893075108528137 -0.01962428353726864 0.6535767316818237
0.6838188767433167 -0.011701203882694244 0.6557614207267761
0.678382396697998 -0.003992817364633083 0.6578001976013184
0.6723100543022156 -0.00022459938190877438 0.6557323932647705
0.6693525910377502 -0.0018105498747900128 0.6516553163528442
0.6680326461791992 -0.0028092721477150917 0.6495743989944458
0.6663122177124023 -0.0034412445966154337 0.6474635004997253
0.6620200872421265 -0.00396988308057189 0.6431374549865723
0.6580081582069397 -0.0019380878657102585 0.6413604617118835
0.6556137204170227 -0.001186387613415718 0.6398861408233643
0.6544508337974548 1.3583825420937501e-05 0.6399194002151489
0.6542510390281677 0.0009019337012432516 0.6405376195907593
0.6520228981971741 0.0021519206929951906 0.6396596431732178
0.650473952293396 0.0010175294009968638 0.6372517943382263
0.6458463072776794 0.0019982841331511736 0.633979082107544
0.6454156637191772 0.002320478204637766 0.6338815689086914
0.6964148879051208 -0.029980115592479706 0.6498251557350159
0.6922544836997986 -0.02366683818399906 0.6517624258995056
0.6919216513633728 -0.023091189563274384 0.6519809365272522
0.6884881258010864 -0.017949208617210388 0.6535184383392334
0.6878186464309692 -0.016871832311153412 0.6538856029510498
0.6844151616096497 -0.011846245266497135 0.6553452610969543
0.6830517053604126 -0.009894536808133125 0.6558745503425598
0.677952229976654 -0.002740702359005809 0.6577232480049133
0.6772539019584656 -0.0018746786518022418 0.6578741669654846
0.674706220626831 0.0007902642246335745 0.6579797863960266
0.6730825304985046 0.00020198804850224406 0.6559891700744629
0.6705178022384644 -0.0017501730471849442 0.6519244313240051
0.6644963622093201 -0.00475560175254941 0.6438010931015015
0.6603402495384216 -0.0017448405269533396 0.6427704095840454
0.6563259959220886 -0.0011147256009280682 0.6397250890731812
0.6482084393501282 0.0005614188266918063 0.6339285373687744
0.6477537155151367 0.0008208703366108239 0.6337527632713318
0.6460806131362915 0.0022221801336854696 0.6335082054138184
0.638854444026947 0.008013180457055569 0.6322165727615356
0.695918619632721 -0.028839237987995148 0.6495679616928101
0.6914724111557007 -0.02177160419523716 0.6519336104393005
0.6900922060012817 -0.019737225025892258 0.6525238752365112
0.6873366832733154 -0.015740739181637764 0.653643786907196
0.6819152235984802 -0.007733806502074003 0.6559768915176392
0.6805447340011597 -0.00585538474842906 0.6564353108406067
0.6761614084243774 0.00034653639886528254 0.6580764651298523
0.6665818691253662 -0.0035662155132740736 0.6459008455276489
0.6644520163536072 -0.0038181282579898834 0.6437514424324036
0.652249813079834 0.001997315790504217 0.6379879117012024
0.6506978869438171 0.00085683714132756 0.6355583071708679
0.6441919803619385 0.0041359164752066135 0.6326463222503662
0.6403641104698181 0.007202985230833292 0.6319597959518433
0.6399303674697876 0.007527932059019804 0.6318616271018982
0.6390959620475769 0.008253196254372597 0.6317631006240845
0.6954630613327026 -0.027494322508573532 0.6495333313941956
0.6944133639335632 -0.02595463953912258 0.6499768495559692
0.6940758228302002 -0.025385266169905663 0.6501864790916443
0.6865615844726562 -0.01391215343028307 0.6537691354751587
0.685857355594635 -0.013005811721086502 0.6539520025253296
0.6821430325508118 -0.007496016565710306 0.6555766463279724
0.6780852675437927 -0.0017357502365484834 0.6571173667907715
0.6767278909683228 0.00012199878983665258 0.6575700640678406
0.6743598580360413 0.00020054704509675503 0.6554982662200928
0.6727242469787598 -0.0003956845903303474 0.653478741645813
0.6697624921798706 -0.001989380456507206 0.6493562459945679
0.6684405207633972 -0.0029934414196759462 0.647251307964325
0.666076123714447 -0.004027259070426226 0.6441761255264282
0.6585708260536194 -0.0016311679501086473 0.6395527124404907
0.6545863151550293 0.0020413377787917852 0.6392703056335449
0.6431636214256287 0.005406631156802177 0.6319788694381714
0.6422985196113586 0.006054611876606941 0.6317824721336365
0.6960195302963257 -0.02789882756769657 0.6488316655158997
0.6939591765403748 -0.02462700754404068 0.6499309539794922
0.6922415494918823 -0.021976584568619728 0.6507775187492371
0.6908718347549438 -0.019878219813108444 0.6514386534690857
0.6898297071456909 -0.018394524231553078 0.6518394351005554
0.6881210207939148 -0.015836145728826523 0.6526103615760803
0.685417890548706 -0.01171896792948246 0.6538937091827393
0.6840548515319824 -0.009753508493304253 0.6544404029846191
0.6813405156135559 -0.005856440868228674 0.6555136442184448
0.6800110936164856 -0.0038445936515927315 0.6561329960823059
0.6734982132911682 3.221968290745281e-05 0.6537408232688904
0.6722234487533569 -0.0009409789345227182 0.6517009139060974
0.6709306240081787 -0.0019284692825749516 0.6496315002441406
0.6627979874610901 -0.0019921516068279743 0.642193615436554
0.662325382232666 -0.0018553155241534114 0.6418889164924622
0.6618953347206116 -0.001593983150087297 0.6417357921600342
0.6569083333015442 -0.0007511149742640555 0.6379751563072205
0.6562404632568359 0.00033655946026556194 0.6383562088012695
0.6532452702522278 0.0024062981829047203 0.6375163197517395
0.650923490524292 0.0006971130496822298 0.6338583827018738
0.6463385820388794 0.003181793261319399 0.6319526433944702
0.6459398865699768 0.0035805460065603256 0.6319526433944702
0.6450892090797424 0.004253794439136982 0.6317914724349976
0.6976265907287598 -0.029888249933719635 0.6476421356201172
0.6938427686691284 -0.023869598284363747 0.6496759057044983
0.6897184252738953 -0.0176354069262743 0.6515957713127136
0.680243194103241 -0.003590461565181613 0.6557541489601135
0.6798746585845947 -0.003222112078219652 0.6557541489601135
0.6740096211433411 -0.0003960035101044923 0.6529885530471802
0.6700372099876404 -0.002109701279550791 0.6478143334388733
0.6687141060829163 -0.0031170211732387543 0.6456936597824097
0.6663023829460144 -0.0027421070262789726 0.6438401937484741
0.6638593673706055 -0.002367408014833927 0.6419579982757568
0.6600232720375061 -0.0013798915315419436 0.6393656730651855
0.6545130610466003 0.0024987917859107256 0.6378810405731201
0.6525919437408447 0.0017633805982768536 0.6354636549949646
0.6490865349769592 0.0013103642268106341 0.6318614482879639
0.6482641100883484 0.002044335473328829 0.6317810416221619
0.6406346559524536 0.008203603327274323 0.6304431557655334
0.700249433517456 -0.03377301245927811 0.6456458568572998
0.6964547634124756 -0.02756078913807869 0.647851824760437
0.6940624713897705 -0.02368216961622238 0.6492083668708801
0.6926784515380859 -0.021608414128422737 0.6498377323150635
0.6889408826828003 -0.015780173242092133 0.6517456769943237
0.6861979365348816 -0.01181174349039793 0.6528638601303101
0.6848323941230774 -0.009844734333455563 0.6534126996994019
0.6838423013687134 -0.008255229331552982 0.6539596319198608
0.683472216129303 -0.007885067723691463 0.6539596319198608
0.6821585297584534 -0.005775555968284607 0.654685914516449
0.6794430017471313 -0.001970989629626274 0.6556795835494995
0.6747797131538391 3.149008989566937e-05 0.6532517075538635
0.67120760679245 -0.0020483701955527067 0.6480938196182251
0.664535641670227 -0.0023522747214883566 0.6417282819747925
0.6591753363609314 -0.0012125791981816292 0.6378766894340515
0.6570282578468323 0.0002124624006683007 0.6372178196907043
0.6534755825996399 0.0022521966602653265 0.635837197303772
0.6502310633659363 0.0010203826241195202 0.6317524909973145
0.6408697366714478 0.00842895358800888 0.6299704313278198
0.7029076814651489 -0.037650059908628464 0.6436801552772522
0.6994492411613464 -0.03178571164608002 0.6458816528320312
0.6980587244033813 -0.029576877132058144 0.6466306447982788
0.6959999799728394 -0.026210356503725052 0.6478272676467896
0.6956226229667664 -0.02583305723965168 0.6478272676467896
0.6918537020683289 -0.01991456188261509 0.6497942209243774
0.6904861927032471 -0.017822716385126114 0.6504570841789246
0.6877930760383606 -0.013565090484917164 0.6518887877464294
0.6783139705657959 0.00014116843522060663 0.6557570099830627
0.6779837608337402 0.0006370283663272858 0.6559086441993713
0.6760264039039612 0.002066059270873666 0.6554251909255981
0.6742897629737854 -0.000510573445353657 0.6514781713485718
0.6726407408714294 -0.001116149127483368 0.6494148969650269
0.6709685921669006 -0.0017301534535363317 0.6473230719566345
0.6684737205505371 -0.0017101641278713942 0.6450582146644592
0.6679798364639282 -0.001676343148574233 0.6446371078491211
0.666880190372467 -0.0019357758574187756 0.6433934569358826
0.6620860695838928 -0.0008645192719995975 0.6399866938591003
0.6603429913520813 -0.0013343640603125095 0.637961745262146
0.6563071012496948 0.0021905943285673857 0.6374940872192383
0.6528212428092957 0.0016052811406552792 0.6337684988975525
0.6466217637062073 0.00420132651925087 0.6304711699485779
0.6440939903259277 0.006286504678428173 0.6300662159919739
0.6436676383018494 0.006624277215451002 0.6299851536750793
0.7020552754402161 -0.03589591011404991 0.6436517834663391
0.7017189860343933 -0.035244449973106384 0.6439409255981445
0.6920727491378784 -0.019726675003767014 0.6493287682533264
0.6907025575637817 -0.0176435224711895 0.6499831676483154
0.6883478164672852 -0.01389729417860508 0.6512599587440491
0.6869790554046631 -0.011904371902346611 0.6518326997756958
0.6842890381813049 -0.007816338911652565 0.6531156897544861
0.6829320192337036 -0.0058638472110033035 0.6536620855331421
0.6802332997322083 -0.0019804341718554497 0.6547492146492004
0.6757498979568481 0.002216899301856756 0.654486894607544
0.672135591506958 -0.0016691589262336493 0.6476039290428162
0.6663796901702881 -0.0023768479004502296 0.6416727304458618
0.6659953594207764 -0.001992493635043502 0.6416727304458618
0.6548629403114319 0.0022690428886562586 0.6353678107261658
0.6521608233451843 0.0009540360188111663 0.631681501865387
0.6472480893135071 0.004009390249848366 0.6299768686294556
0.6459984183311462 0.005082424264401197 0.6298149824142456
0.6447473764419556 0.006156407296657562 0.6296526193618774
0.6422066688537598 0.00822889618575573 0.6292226910591125
0.7039968967437744 -0.038829583674669266 0.6418828368186951
0.7008776068687439 -0.033454056829214096 0.643959105014801
0.6988232731819153 -0.02989981509745121 0.64533931016922
0.6977701783180237 -0.028310542926192284 0.6458325982093811
0.6964340209960938 -0.025875288993120193 0.646844208240509
0.6950517296791077 -0.023730767890810966 0.647545576095581
0.685835063457489 -0.009716168977320194 0.6519606709480286
0.6818026304244995 -0.0036999296862632036 0.6537861227989197
0.6759364604949951 0.0023166388273239136 0.6539247035980225
0.6740773320198059 0.00095113564748317 0.6509571671485901
0.6684992909431458 -0.0010386680951341987 0.6439931988716125
0.6661582589149475 -0.0019706636667251587 0.6409814357757568
0.6651114225387573 -0.0020247367210686207 0.6399683952331543
0.6646277904510498 -0.0019269459880888462 0.6396132707595825
0.6592711806297302 -0.0007315762923099101 0.6357840895652771
0.6580901145935059 0.0004211477062199265 0.6357578039169312
0.653822660446167 0.0020183571614325047 0.6333007216453552
0.6504071354866028 0.001767651061527431 0.6299271583557129
0.649989664554596 0.0021192405838519335 0.6298664212226868
0.6479005217552185 0.0038796907756477594 0.6295638680458069
0.703527569770813 -0.037426214665174484 0.6418840885162354
0.7000800371170044 -0.03143509849905968 0.6442312598228455
0.6976478695869446 -0.027560587972402573 0.6455622315406799
0.6938891410827637 -0.02143840305507183 0.6477431058883667
0.6901452541351318 -0.015575869008898735 0.6496979594230652
0.6898161172866821 -0.015007848851382732 0.6499184370040894
0.686430037021637 -0.009867350570857525 0.6515375971794128
0.682025134563446 -0.003481147810816765 0.6533657312393188
0.6806771755218506 -0.0015437762485817075 0.6539098024368286
0.6765793561935425 0.002341932849958539 0.6537139415740967
0.6745938658714294 0.0021322297398000956 0.6516883373260498
0.6739600300788879 0.0016445412766188383 0.6506534218788147
0.6732372641563416 0.000878591847140342 0.6492795348167419
0.6724764108657837 4.8189044719038066e-06 0.6477711796760559
0.6716181039810181 0.0004164385609328747 0.6473591327667236
0.6703457832336426 -0.0004655821539927274 0.6453710794448853
0.6624730229377747 -0.0010713853407651186 0.6375471353530884
0.6604593992233276 -0.0008055013604462147 0.6359343528747559
0.6569570302963257 0.002740465570241213 0.635974645614624
0.6550975441932678 0.0021139460150152445 0.633680522441864
0.6502004265785217 0.002283709589391947 0.6293181777000427
0.6481280326843262 0.004086696542799473 0.6290697455406189
0.702674925327301 -0.03565806895494461 0.6418702006340027
0.7006246447563171 -0.03196406364440918 0.6433913111686707
0.6999117136001587 -0.030931048095226288 0.6436874866485596
0.6968607306480408 -0.02558019384741783 0.6458156704902649
0.6944400668144226 -0.021845784038305283 0.6470313668251038
0.693063497543335 -0.019734647125005722 0.6477111577987671
0.689329981803894 -0.013888517394661903 0.6496660709381104
0.685289204120636 -0.007686632685363293 0.651665985584259
0.6780393123626709 0.0019129266729578376 0.6538401246070862
0.6740990281105042 0.001586174126714468 0.64989173412323
0.6680988669395447 -0.001676875981502235 0.6413195729255676
0.6668715476989746 -0.0023090424947440624 0.6395990252494812
0.6664862036705017 -0.0019236330408602953 0.6395990252494812
0.6580171585083008 0.0023106210865080357 0.6356803774833679
0.6535320281982422 0.0005074174841865897 0.6298614144325256
0.6462553143501282 0.00604198919609189 0.6282493472099304
0.6441506147384644 0.007793719414621592 0.6279227137565613
0.6437238454818726 0.008132238872349262 0.627841055393219
0.7042825222015381 -0.03793152794241905 0.6403913497924805
0.7018300890922546 -0.033862318843603134 0.641891598701477
0.6994465589523315 -0.029581846669316292 0.6436520218849182
0.6984001398086548 -0.027941320091485977 0.6442033648490906
0.6960316896438599 -0.023839104920625687 0.6458122730255127
0.6922813057899475 -0.01784229278564453 0.6478968262672424
0.6881898641586304 -0.011641418561339378 0.649854302406311
0.6841526627540588 -0.005513861775398254 0.6517940163612366
0.6838237047195435 -0.0049875951372087 0.651977002620697
0.6801449060440063 0.00045510614290833473 0.653613805770874
0.6782273054122925 0.002014824654906988 0.6532818675041199
0.6764304637908936 0.002391461981460452 0.6519638895988464
0.6719323992729187 0.0004170692409388721 0.6459577083587646
0.6706209778785706 -0.0005887342267669737 0.6438074111938477
0.665244460105896 -0.0014813533052802086 0.6379899978637695
0.662748396396637 -0.0011645844206213951 0.6359678506851196
0.6560918688774109 0.0025241924449801445 0.6332138776779175
0.6544603109359741 -0.0003290113527327776 0.6290522217750549
0.6540625095367432 6.884557660669088e-05 0.6290522217750549
0.7044898867607117 -0.037860047072172165 0.639785885810852
0.7020370364189148 -0.033777669072151184 0.6413024663925171
0.6986033916473389 -0.027856817469000816 0.6436166167259216
0.6959109306335449 -0.023094218224287033 0.645543098449707
0.6917919516563416 -0.016717636957764626 0.6476438641548157
0.6877515316009521 -0.010336285457015038 0.6498222947120667
0.6860674023628235 -0.007776280399411917 0.650637149810791
0.6833484172821045 -0.0038737936411052942 0.6517386436462402
0.6820380687713623 -0.001778963254764676 0.6524685025215149
0.6720708012580872 0.00035670187207870185 0.6451809406280518
0.6700960397720337 -0.0011596407275646925 0.6419322490692139
0.6683719158172607 -0.0018039916176348925 0.6397283673286438
0.6663676500320435 -0.0016750606009736657 0.6379831433296204
0.6605114936828613 -0.00045505660818889737 0.6336691379547119
0.6596819162368774 0.00019991483713965863 0.6335065960884094
0.7039734125137329 -0.03674252703785896 0.6394801139831543
0.7012420892715454 -0.031707700341939926 0.6416294574737549
0.697830855846405 -0.02577310800552368 0.6439841985702515
0.6954135298728943 -0.021973302587866783 0.64527428150177
0.6940885186195374 -0.01958910934627056 0.6462625861167908
0.6916773319244385 -0.01596839912235737 0.6473913192749023
0.6903061866760254 -0.013917029835283756 0.6480260491371155
0.6876401305198669 -0.009595328010618687 0.6495709419250488
0.6761544942855835 0.002016973216086626 0.6496890783309937
0.6757832169532776 0.0023882566019892693 0.6496890783309937
0.6745181083679199 0.00141026615165174 0.6475960612297058
0.6674292683601379 -0.0020465333946049213 0.6377555727958679
0.7055898904800415 -0.039036110043525696 0.6379789710044861
0.703844428062439 -0.03598976507782936 0.6391962766647339
0.700402021408081 -0.02992398664355278 0.6416510939598083
0.6980303525924683 -0.025703804567456245 0.6433807015419006
0.6943040490150452 -0.019421003758907318 0.6457729935646057
0.6939283013343811 -0.019045358523726463 0.6457729935646057
0.6905229687690735 -0.01373376790434122 0.6475567817687988
0.6898637413978577 -0.01260475441813469 0.6479963064193726
0.6881807446479797 -0.009977420791983604 0.6488800048828125
0.6868323087692261 -0.007924393750727177 0.6495392322540283
0.6841633319854736 -0.003805062733590603 0.650896430015564
0.6828097105026245 -0.0018644420197233558 0.6514456272125244
0.6817874312400818 -0.00045197695726528764 0.651810884475708
0.6814612746238708 6.897767161717638e-05 0.6519930958747864
0.6792393326759338 0.0022265238221734762 0.6519327163696289
0.6762956976890564 0.001959254965186119 0.6489282250404358
0.6740190982818604 0.0008563707233406603 0.6457658410072327
0.6723487973213196 0.00023554620565846562 0.6436219811439514
0.6681025624275208 -0.0020354967564344406 0.6375234723091125
0.6645388007164001 -0.00034720072289928794 0.6357685327529907
0.6632340550422668 -0.0011017820797860622 0.633841335773468
0.6604969501495361 0.0001375904685119167 0.6324400305747986
0.6596303582191467 0.0021629980765283108 0.6335244178771973
0.6572033762931824 0.002856288803741336 0.6319020986557007
0.7051159143447876 -0.03763054311275482 0.6379812955856323
0.7040534019470215 -0.03590594232082367 0.6386025547981262
0.7030420899391174 -0.03390603885054588 0.6395302414894104
0.6999446153640747 -0.02852565422654152 0.6416725516319275
0.6996141672134399 -0.027871577069163322 0.6419761776924133
0.6972073912620544 -0.023907843977212906 0.6434370279312134
0.6934795379638672 -0.017713619396090508 0.645751416683197
0.6921110153198242 -0.015608216635882854 0.6464428901672363
0.6897507309913635 -0.011860013008117676 0.6477451324462891
0.6857020854949951 -0.005704579874873161 0.649722158908844
0.67051100730896 -0.0013487471733242273 0.6395549774169922
0.6688477993011475 -0.0017981966957449913 0.6375724673271179
0.6664804816246033 -0.0011993258958682418 0.6359128952026367
0.661087155342102 -0.00012859725393354893 0.6318567991256714
0.701861560344696 -0.0314505472779274 0.6398624181747437
0.6964188814163208 -0.021955158561468124 0.6436760425567627
0.6957108974456787 -0.02097010426223278 0.6439367532730103
0.6923269629478455 -0.0154325682669878 0.645963191986084
0.688610315322876 -0.009618391282856464 0.647936999797821
0.6862865686416626 -0.005891480483114719 0.649257481098175
0.684938371181488 -0.0038919930811971426 0.6498700380325317
0.6804539561271667 0.0020509164314717054 0.6512425541877747
0.6765791177749634 0.0018431628122925758 0.6474009156227112
0.6762064099311829 0.0022157656494528055 0.6474009156227112
0.6641353368759155 -0.0009097941219806671 0.6331011652946472
0.6612992286682129 3.641300281742588e-05 0.6313227415084839
0.660133421421051 0.0027161266189068556 0.6327471733093262
0.6581937670707703 0.003264868864789605 0.6314384341239929
0.7044720649719238 -0.03573783487081528 0.6374136209487915
0.7020685076713562 -0.03136477991938591 0.6392720937728882
0.7010193467140198 -0.02966453693807125 0.6398864984512329
0.7000235319137573 -0.027696894481778145 0.6408036351203918
0.6986464262008667 -0.025406278669834137 0.6416656374931335
0.6979314088821411 -0.024421028792858124 0.6419205665588379
0.6952614188194275 -0.019615599885582924 0.6439356207847595
0.6918809413909912 -0.01411366555839777 0.6459373235702515
0.6901821494102478 -0.011499068699777126 0.6468014717102051
0.6878001689910889 -0.0079452283680439 0.6479074954986572
0.6824535727500916 0.00020316586596891284 0.6505512595176697
0.6793557405471802 0.0026143938302993774 0.6499031782150269
0.6744413375854492 0.0006769743049517274 0.6434376835823059
0.6727682948112488 5.284146391204558e-05 0.6412700414657593
0.6721133589744568 -0.00045301095815375447 0.6401746273040771
0.670789361000061 -0.001475740922614932 0.6379603743553162
0.6686400175094604 -0.0018436650279909372 0.6355849504470825
0.6637780070304871 -0.0008762026554904878 0.6319102644920349
0.6606500744819641 0.002255050465464592 0.6319133639335632
0.7036666870117188 -0.03365127369761467 0.6377526521682739
0.6978058218955994 -0.02368977479636669 0.6416328549385071
0.694437563419342 -0.01788889802992344 0.6439346075057983
0.6941102147102356 -0.017280634492635727 0.6442004442214966
0.6920956969261169 -0.013941511511802673 0.645453929901123
0.691766083240509 -0.013367575593292713 0.645685076713562
0.6880147457122803 -0.007765506394207478 0.6474363207817078
0.6840274930000305 -0.0015125774079933763 0.649580180644989
0.6836993098258972 -0.000989888096228242 0.6497642397880554
0.6781110763549805 0.002701114397495985 0.6479689478874207
0.6768636703491211 0.0017267108196392655 0.6458667516708374
0.676490306854248 0.0021001254208385944 0.6458667516708374
0.6722536087036133 -0.0005149923381395638 0.6393830180168152
0.6661580204963684 -0.0004760388401336968 0.6336520910263062
0.6644466519355774 -0.0009123443742282689 0.6316198110580444
0.65843665599823 0.003112468868494034 0.6297413110733032
0.7062996029853821 -0.03797031566500664 0.635280191898346
0.70595782995224 -0.03729701787233353 0.6355947852134705
0.7028183937072754 -0.03185456618666649 0.6377801299095154
0.7004339694976807 -0.027521958574652672 0.6396287679672241
0.699722409248352 -0.02648794651031494 0.6399347186088562
0.6980159878730774 -0.023563534021377563 0.6410902738571167
0.6960127949714661 -0.019943686202168465 0.6426244974136353
0.6939910650253296 -0.016542352735996246 0.6439334750175476
0.6909477114677429 -0.011683952063322067 0.6456558108329773
0.6872520446777344 -0.005909712985157967 0.647628128528595
0.6832252144813538 0.00011898091906914487 0.6495277285575867
0.6818251609802246 0.00186057947576046 0.6498516798019409
0.6814572215080261 0.0022285934537649155 0.6498516798019409
0.6747244596481323 0.0005567116313613951 0.641876757144928
0.6700695157051086 -0.001558774383738637 0.6354522109031677
0.6685183644294739 -0.001619128161109984 0.6339230537414551
0.6627891063690186 -6.1030419601593167e-05 0.6299651265144348
0.705101490020752 -0.035485025495290756 0.6356255412101746
0.7040843367576599 -0.033480968326330185 0.6365645527839661
0.7019727230072021 -0.030063414946198463 0.6378073692321777
0.6995967626571655 -0.02574760653078556 0.6396529674530029
0.6972372531890869 -0.021539732813835144 0.6414118409156799
0.6938719153404236 -0.015804816037416458 0.6436666250228882
0.6898008584976196 -0.009450365789234638 0.6458393931388855
0.6861225962638855 -0.0036913324147462845 0.6478193998336792
0.6820291876792908 0.002013386692851782 0.6493526697158813
0.6761435866355896 0.0014912585029378533 0.6432552337646484
0.6742212772369385 -6.195591595314909e-06 0.6400012373924255
0.6725348234176636 -0.0006397488759830594 0.6377937197685242
0.6620607376098633 0.001948941731825471 0.6302903890609741
0.7067055106163025 -0.03791731595993042 0.6339566707611084
0.7042933106422424 -0.03339582309126854 0.635969340801239
0.7039093971252441 -0.03301180154085159 0.635969340801239
0.702180027961731 -0.02997664362192154 0.6372154951095581
0.7018454074859619 -0.02931714802980423 0.6375253796577454
0.6987617611885071 -0.023978397250175476 0.6396772861480713
0.6964171528816223 -0.019753960892558098 0.6414708495140076
0.6940793991088867 -0.0156734436750412 0.6431336998939514
0.6927276849746704 -0.01348614040762186 0.6439311504364014
0.6903467774391174 -0.009825216606259346 0.6451526880264282
0.6856894493103027 -0.0024039484560489655 0.6477899551391602
0.6840337514877319 0.00017037188808899373 0.648666501045227
0.680560290813446 0.0029272199608385563 0.6479827165603638
0.6785416007041931 0.0025294770020991564 0.6456769704818726
0.6743634939193726 -6.74335824442096e-05 0.6392122507095337
0.6739835143089294 0.000312578136799857 0.6392122507095337
0.6720151901245117 -0.0012155500007793307 0.635875940322876
0.6703890562057495 -0.0015599763719365 0.6339957118034363
0.6665611267089844 -0.000682764919474721 0.6311798691749573
0.7034429907798767 -0.03159668296575546 0.6359994411468506
0.7013841867446899 -0.02791452780365944 0.6375527381896973
0.7000063061714172 -0.025570625439286232 0.6384772658348083
0.6979749202728271 -0.021975859999656677 0.6399732232093811
0.6959761381149292 -0.01835029385983944 0.6415297985076904
0.6955995559692383 -0.017973678186535835 0.6415297985076904
0.6919115781784058 -0.011777377687394619 0.6439300179481506
0.6895748376846313 -0.00796838104724884 0.6453388333320618
0.6882200837135315 -0.005927992053329945 0.6459949016571045
0.6855329871177673 -0.0018545358907431364 0.647321343421936
0.6780636310577393 0.001983826281502843 0.6438471078872681
0.6764295697212219 0.0013730005593970418 0.6416990756988525
0.6751518249511719 0.0003752229386009276 0.6395214796066284
0.6682803630828857 -0.0006551651167683303 0.6319605708122253
0.7057195901870728 -0.035318732261657715 0.6337350606918335
0.7002115249633789 -0.02548205479979515 0.6378885507583618
0.6981835961341858 -0.021857142448425293 0.6394209861755371
0.6921176910400391 -0.011644933372735977 0.6433994770050049
0.6877828240394592 -0.004633529577404261 0.6459679007530212
0.6844578981399536 0.0005298599717207253 0.6477317214012146
0.6837688088417053 0.0014473202172666788 0.6479509472846985
0.6830269694328308 0.002165175275877118 0.6479280591011047
0.6746488809585571 -0.0001905172975966707 0.6376282572746277
0.6742678284645081 0.00019042848725803196 0.6376282572746277
0.6720871925354004 -0.003667157841846347 0.6318343877792358
0.7052552103996277 -0.03385104238986969 0.6338164806365967
0.7028027772903442 -0.029715968295931816 0.6354356408119202
0.6997545957565308 -0.024090483784675598 0.6379155516624451
0.6993746161460876 -0.023710496723651886 0.6379155516624451
0.6970120072364807 -0.019535256549715996 0.6396597027778625
0.6950345635414124 -0.0158646572381258 0.6412889957427979
0.6939997673034668 -0.014297490939497948 0.6418011784553528
0.6913537979125977 -0.009716019965708256 0.6436636447906494
0.6900061964988708 -0.007603841368108988 0.6443992853164673
0.6873010396957397 -0.0035269472282379866 0.6457191705703735
0.6863285899162292 -0.0018644151277840137 0.6463832259178162
0.6805528998374939 0.002864116569980979 0.6453756093978882
0.6789754033088684 0.002357044955715537 0.6433698534965515
0.6760799288749695 0.00075577013194561 0.6390429139137268
0.6728916168212891 -0.0032256224658340216 0.632144033908844
0.7040693759918213 -0.03133789449930191 0.6342135667800903
0.7020041942596436 -0.027651477605104446 0.6357779502868652
0.6961919069290161 -0.01775231771171093 0.6397214531898499
0.6938807368278503 -0.013561034575104713 0.6415355801582336
0.6902188658714294 -0.0074346172623336315 0.6439138054847717
0.6865418553352356 -0.0016844437923282385 0.6459141373634338
0.6784977912902832 0.0018087048083543777 0.6415228247642517
0.6747217774391174 -0.0026945453137159348 0.6335341334342957
0.703940212726593 -0.030587676912546158 0.6339318752288818
0.701876699924469 -0.026906631886959076 0.6354970335960388
0.7011613249778748 -0.025869566947221756 0.6358081698417664
0.7001645565032959 -0.02391187474131584 0.6367380023002625
0.6987941861152649 -0.021586479619145393 0.6376622915267944
0.6957513093948364 -0.01635163277387619 0.6397830247879028
0.6940886378288269 -0.013426439836621284 0.6410048007965088
0.6930612325668335 -0.011848305352032185 0.6415376663208008
0.689732551574707 -0.006326768547296524 0.6436594724655151
0.6894071698188782 -0.005758223589509726 0.6438947319984436
0.6880542635917664 -0.003722441615536809 0.6445555686950684
0.6857389807701111 -3.082982948399149e-05 0.6458873748779297
0.6840050220489502 0.002238278277218342 0.6464051008224487
0.6823799014091492 0.00316403666511178 0.645728349685669
0.680871307849884 0.002842642366886139 0.6439576148986816
0.6792663931846619 0.0022415160201489925 0.6418231129646301
0.6780158877372742 0.001255243201740086 0.6396587491035461
0.6742305755615234 -0.0032122968696057796 0.6316733360290527
0.7030907273292542 -0.028793448582291603 0.6339649558067322
0.6979621648788452 -0.01982644945383072 0.6376894116401672
0.6956299543380737 -0.015615621581673622 0.6395124197006226
