ply
format ascii 1.0
element vertex 819
property float x
property float y
property float z
end_header
0.39875277876853943 0.05552586540579796 0.6474976539611816
0.4004156291484833 0.05571599304676056 0.647066593170166
0.4035276770591736 0.053956639021635056 0.6474846601486206
0.40432316064834595 0.053691618144512177 0.6474846601486206
0.40950247645378113 0.0555545948445797 0.6454037427902222
0.41229602694511414 0.06486888229846954 0.6394640207290649
0.4148126542568207 0.0645853653550148 0.6391420364379883
0.34929513931274414 0.07925515621900558 0.6423020958900452
0.3501017689704895 0.07608284801244736 0.643990695476532
0.3509047031402588 0.07596331089735031 0.6439045071601868
0.35251128673553467 0.07557569444179535 0.6438187956809998
0.3532674014568329 0.067866250872612 0.6481557488441467
0.354831725358963 0.06528264284133911 0.649355411529541
0.3563990890979767 0.06395366042852402 0.6498247385025024
0.3619133234024048 0.06221786141395569 0.6497651934623718
0.3650757372379303 0.06158210709691048 0.6495218873023987
0.36662736535072327 0.06029404699802399 0.6499704122543335
0.36957061290740967 0.05396926403045654 0.6530783176422119
0.37422338128089905 0.051988329738378525 0.6533283591270447
0.37655898928642273 0.05122635141015053 0.6533187031745911
0.3830992579460144 0.05393724888563156 0.6504740118980408
0.3860660791397095 0.05044642835855484 0.6519291996955872
0.38998281955718994 0.049234140664339066 0.6518750190734863
0.3907909691333771 0.049294061958789825 0.6516834497451782
0.39238643646240234 0.0491301529109478 0.6514691114425659
0.3995341360569 0.05606190860271454 0.6460520029067993
0.4067714512348175 0.05421765148639679 0.6457210779190063
0.4094773232936859 0.05606810003519058 0.6441203951835632
0.4104664921760559 0.057367272675037384 0.6431730389595032
0.3491661548614502 0.0762256607413292 0.6430962085723877
0.34996917843818665 0.07579661905765533 0.6431907415390015
0.3531334698200226 0.06691976636648178 0.647754967212677
0.35391655564308167 0.0656280368566513 0.648356556892395
0.35547786951065063 0.06345736980438232 0.6493194103240967
0.35781699419021606 0.06127367541193962 0.6501385569572449
0.3586084544658661 0.061412304639816284 0.6499037742614746
0.360191285610199 0.06150200963020325 0.6495436429977417
0.36337515711784363 0.061937179416418076 0.6486703157424927
0.37331879138946533 0.05190294608473778 0.6525918245315552
0.37734946608543396 0.05317150056362152 0.6510669589042664
0.3805924654006958 0.05400382727384567 0.6499504446983337
0.38138675689697266 0.05388665571808815 0.6498646140098572
0.3821813464164734 0.05376894772052765 0.649779200553894
0.38454103469848633 0.053023554384708405 0.64975506067276
0.3852030336856842 0.05099993944168091 0.6508069634437561
0.38588204979896545 0.04929417744278908 0.6516702771186829
0.3866702914237976 0.049135684967041016 0.651609480381012
0.39475294947624207 0.049592189490795135 0.6497709155082703
0.3977086544036865 0.055146317929029465 0.6459550857543945
0.3985748887062073 0.055617380887269974 0.6455115079879761
0.4001920521259308 0.055322546511888504 0.645369291305542
0.40487247705459595 0.052788153290748596 0.6459371447563171
0.4076664447784424 0.05555820092558861 0.6437774896621704
0.40846768021583557 0.0552910752594471 0.6437774896621704
0.40945231914520264 0.05658490210771561 0.6428312659263611
0.4112188220024109 0.06440693140029907 0.6379233002662659
0.4120534360408783 0.06428200751543045 0.6378341913223267
0.3474200367927551 0.0778856873512268 0.641471266746521
0.34822550415992737 0.0776173323392868 0.641471266746521
0.351422518491745 0.06753222644329071 0.6467516422271729
0.35299986600875854 0.06597486138343811 0.6473552584648132
0.3569073975086212 0.061477310955524445 0.6492257118225098
0.36167222261428833 0.06225459650158882 0.6478410363197327
0.3624618649482727 0.062029555439949036 0.6478182077407837
0.3655811846256256 0.05978884547948837 0.6485216021537781
0.3662090003490448 0.05457380414009094 0.6514520645141602
0.3677624464035034 0.05390235781669617 0.6515418887138367
0.36853599548339844 0.053491100668907166 0.6516316533088684
0.37008190155029297 0.0526692271232605 0.6518113017082214
0.3724139630794525 0.05181695520877838 0.6518549919128418
0.37474945187568665 0.05104956403374672 0.651848554611206
0.37637701630592346 0.05187643691897392 0.6510469317436218
0.37730684876441956 0.054374124854803085 0.6494033336639404
0.3780989944934845 0.054247934371232986 0.6493223309516907
0.3796757459640503 0.05383901670575142 0.6492546796798706
0.38434499502182007 0.05166202783584595 0.6496179103851318
0.39057108759880066 0.04898925498127937 0.6499670147895813
0.3921756446361542 0.04891710728406906 0.6496962904930115
0.40156251192092896 0.053493477404117584 0.6451855897903442
0.4023207128047943 0.05286718159914017 0.6454042792320251
0.4076380431652069 0.05607201159000397 0.6424909830093384
0.40942713618278503 0.05710340663790703 0.6415376663208008
0.3472960591316223 0.07574790716171265 0.6417528390884399
0.34809887409210205 0.07548029720783234 0.6417528390884399
0.35050082206726074 0.06788115948438644 0.6457459926605225
0.3536492884159088 0.06386833637952805 0.6474865078926086
0.35443115234375 0.06290417909622192 0.6478996276855469
0.35521090030670166 0.06194264814257622 0.6483115553855896
0.359159380197525 0.061743102967739105 0.6476560235023499
0.3607475459575653 0.06185496225953102 0.6472795605659485
0.36232638359069824 0.06141575798392296 0.6472282409667969
0.3646693527698517 0.059837035834789276 0.6476969122886658
0.3653039336204529 0.05454061180353165 0.6506829857826233
0.3707304000854492 0.0519905611872673 0.6511180400848389
0.37633123993873596 0.05307307466864586 0.6493865847587585
0.3864430785179138 0.04877764359116554 0.649929404258728
0.3880305886268616 0.048576414585113525 0.6497367024421692
0.3950083553791046 0.054585050791502 0.6448417901992798
0.39753037691116333 0.055252596735954285 0.6439559459686279
0.398335337638855 0.0550694614648819 0.6439060568809509
0.4047529399394989 0.05331205204129219 0.6436817646026611
0.40567371249198914 0.05416005849838257 0.6430033445358276
0.40760961174964905 0.05658905580639839 0.6411978602409363
0.4101414382457733 0.06394471973180771 0.6363820433616638
0.35115885734558105 0.06564149260520935 0.6459535360336304
0.3550775647163391 0.06118714064359665 0.6478089094161987
0.35664811730384827 0.060677625238895416 0.6478003859519958
0.3637571930885315 0.0598970428109169 0.6468640565872192
0.36594828963279724 0.05368392914533615 0.6500949263572693
0.3698253929615021 0.05190472677350044 0.650381863117218
0.3745787441730499 0.05203825235366821 0.6493691802024841
0.3753598928451538 0.051777876913547516 0.6493691802024841
0.37626829743385315 0.053959887474775314 0.6479049921035767
0.3786437213420868 0.05353522300720215 0.6476893424987793
0.38022327423095703 0.05315564200282097 0.6476026773452759
0.38250604271888733 0.05122872814536095 0.6482888460159302
0.383970707654953 0.0491863414645195 0.6492052674293518
0.38472113013267517 0.04847895726561546 0.6494749188423157
0.39196455478668213 0.04870360717177391 0.6479198336601257
0.3927880525588989 0.0488927848637104 0.6476462483406067
0.3949153423309326 0.054618678987026215 0.6438548564910889
0.39894840121269226 0.05386784300208092 0.6435055136680603
0.40050479769706726 0.05297556519508362 0.6437255144119263
0.40206578373908997 0.05215088278055191 0.6439048051834106
0.40562495589256287 0.05451924353837967 0.6418099999427795
0.40659987926483154 0.05580814555287361 0.6408594250679016
0.40836915373802185 0.06404830515384674 0.6356568932533264
0.40918591618537903 0.06377605348825455 0.6356568932533264
0.4100196361541748 0.06365090608596802 0.635566234588623
0.3494470417499542 0.06728273630142212 0.6443402767181396
0.35891327261924744 0.061743080615997314 0.6457504034042358
0.3604983687400818 0.061599861830472946 0.6455225944519043
0.3642682135105133 0.054061781615018845 0.6492350697517395
0.3650432527065277 0.053650252521038055 0.6493256092071533
0.3665919601917267 0.052827827632427216 0.6495067477226257
0.36814427375793457 0.052157480269670486 0.6495971083641052
0.36892005801200867 0.05181884765625 0.6496447324752808
0.3704744279384613 0.05123725160956383 0.6496819853782654
0.37203001976013184 0.0506872832775116 0.649700939655304
0.37452709674835205 0.053235460072755814 0.6477023959159851
0.38164278864860535 0.051892612129449844 0.6470943689346313
0.3886125683784485 0.0482918843626976 0.6478489637374878
0.39396393299102783 0.05420555919408798 0.6432992219924927
0.4011250436306 0.051883094012737274 0.6432609558105469
0.40463244915008545 0.05383835732936859 0.6414144039154053
0.40656954050064087 0.05632498860359192 0.639562726020813
0.3452852964401245 0.07601618766784668 0.6390002369880676
0.34609490633010864 0.07499194890260696 0.6394475698471069
0.34850335121154785 0.0744839608669281 0.6392730474472046
0.34931719303131104 0.06633598357439041 0.6439434885978699
0.3508966267108917 0.06378263235092163 0.6451455950737
0.3524698317050934 0.06255561858415604 0.6455627083778381
0.35325273871421814 0.061594318598508835 0.6459778547286987
0.35639867186546326 0.06065459921956062 0.6459135413169861
0.3619222342967987 0.05964219942688942 0.6454213261604309
0.3625842034816742 0.05435018986463547 0.6484290361404419
0.3735595643520355 0.05193901062011719 0.6476890444755554
0.38077598810195923 0.05254485830664635 0.6459035873413086
0.38214245438575745 0.048817574977874756 0.6478439569473267
0.38449206948280334 0.04812035337090492 0.6477928161621094
0.38610130548477173 0.04823891818523407 0.6474042534828186
0.38688382506370544 0.04797821864485741 0.6474042534828186
0.3926027715206146 0.04898085817694664 0.6456796526908875
0.39473095536231995 0.05470957234501839 0.6418615579605103
0.396363765001297 0.05460553616285324 0.6416003108024597
0.39712733030319214 0.053977079689502716 0.6418220400810242
0.3978896737098694 0.05334952846169472 0.64204341173172
0.4019387662410736 0.05267282575368881 0.6416443586349487
0.40285277366638184 0.053519297391176224 0.6409615278244019
0.4055606424808502 0.05554414913058281 0.6392256617546082
0.40729114413261414 0.06358600407838821 0.634114682674408
0.40980130434036255 0.06328098475933075 0.6337994933128357
0.3443205654621124 0.07846362143754959 0.636735737323761
0.34515994787216187 0.07482520490884781 0.6387343406677246
0.34918761253356934 0.06539112329483032 0.6435475945472717
0.34997835755348206 0.06410381197929382 0.6441566944122314
0.3546941578388214 0.06055450439453125 0.6453331708908081
0.36245283484458923 0.053843241184949875 0.6477871537208557
0.36400774121284485 0.053171806037425995 0.647878110408783
0.3663313388824463 0.05193908140063286 0.6481509208679199
0.3735048472881317 0.0531369224190712 0.6460158824920654
0.37431758642196655 0.053467314690351486 0.6456583142280579
0.3766856789588928 0.05292234569787979 0.6455129981040955
0.3782736659049988 0.05270273610949516 0.6453281044960022
0.3805879056453705 0.05119680240750313 0.6457657217979431
0.38127273321151733 0.049339041113853455 0.6467346549034119
0.3827720582485199 0.04782257229089737 0.6473398208618164
0.38437768816947937 0.04794078692793846 0.6469510197639465
0.3892171084880829 0.04826631769537926 0.6457977294921875
0.39003801345825195 0.048455219715833664 0.6455222368240356
0.3929188549518585 0.05382582172751427 0.641755998134613
0.3937758207321167 0.05427222326397896 0.6413201689720154
0.3985026776790619 0.052151039242744446 0.6416453123092651
0.39929819107055664 0.05188586562871933 0.6416453123092651
0.4000758230686188 0.05144122242927551 0.641755223274231
0.4027901589870453 0.05378299579024315 0.6398242115974426
0.40552839636802673 0.05606064200401306 0.6379258632659912
0.4071688652038574 0.06329209357500076 0.6332988739013672
0.3442186415195465 0.07522276788949966 0.6376848220825195
0.346630722284317 0.07429863512516022 0.6377562880516052
0.3498483896255493 0.06322872638702393 0.6437236666679382
0.35694417357444763 0.06098375841975212 0.6436511874198914
0.35852566361427307 0.06072763726115227 0.6434898972511292
0.36009469628334045 0.059761881828308105 0.6437538862228394
0.36154666543006897 0.053809575736522675 0.6470175385475159
0.3654269576072693 0.051905106753110886 0.6473823189735413
0.3662020266056061 0.051530372351408005 0.6474518775939941
0.3685357868671417 0.0506892055273056 0.6474893093109131
0.37009188532829285 0.050145454704761505 0.6475041508674622
0.370870441198349 0.049885936081409454 0.6475041508674622
0.37340202927589417 0.05332312732934952 0.6449491381645203
0.3797203004360199 0.05186111852526665 0.6445650458335876
0.3804008960723877 0.0498623251914978 0.6456226110458374
0.3818756341934204 0.04790309816598892 0.646498441696167
0.38506758213043213 0.04782002419233322 0.6459128856658936
0.3866562843322754 0.047618329524993896 0.6457171440124512
0.3882898986339569 0.04797084629535675 0.6451816558837891
0.39196881651878357 0.05341370776295662 0.6412014961242676
0.4018109142780304 0.05319749936461449 0.6393725872039795
0.4027492105960846 0.05425787344574928 0.6385531425476074
0.40452030301094055 0.05527973547577858 0.637590765953064
0.34245380759239197 0.07709299027919769 0.6359167098999023
0.34654873609542847 0.06635001301765442 0.6415313482284546
0.3505055606365204 0.061507806181907654 0.64364093542099
0.35286039113998413 0.05983130633831024 0.644175112247467
0.3536500334739685 0.060180872678756714 0.6438083648681641
0.3544415235519409 0.060531582683324814 0.6434399485588074
0.3591804504394531 0.05985157564282417 0.6429012417793274
0.3699672520160675 0.04985492303967476 0.6467335820198059
0.3715769350528717 0.05054774507880211 0.6459977030754089
0.3764377534389496 0.05235620215535164 0.6439453363418579
0.3780291676521301 0.05218697339296341 0.6437286138534546
0.37881559133529663 0.05192483216524124 0.6437286138534546
0.38095858693122864 0.04766479879617691 0.6458513140678406
0.3825414478778839 0.04746314138174057 0.645656168460846
0.38982388377189636 0.04824075847864151 0.6437373161315918
0.3906102776527405 0.04797862470149994 0.6437373161315918
0.3927297294139862 0.053901493549346924 0.6397679448127747
0.39359310269355774 0.05440736934542656 0.6392931938171387
0.39435896277427673 0.05377882346510887 0.6395166516304016
0.39668330550193787 0.0522589385509491 0.6399626135826111
0.39744529128074646 0.05163329094648361 0.6401851177215576
0.3999243378639221 0.05176874250173569 0.6396093368530273
0.4027118980884552 0.05476913973689079 0.6372561454772949
0.40609031915664673 0.06282951682806015 0.6317563652992249
0.34234991669654846 0.07469817996025085 0.6363709568977356
0.3447592556476593 0.07396545261144638 0.6363286972045898
0.3456222116947174 0.06669836491346359 0.6405211091041565
0.346422016620636 0.06540441513061523 0.6411377787590027
0.3480083644390106 0.0638522207736969 0.6417527198791504
0.3495890200138092 0.06171175092458725 0.6427220702171326
0.3519451320171356 0.059532370418310165 0.6435590982437134
0.3527328073978424 0.059818923473358154 0.643229067325592
0.3566936254501343 0.06091122701764107 0.6417803764343262
0.36051037907600403 0.05333087593317032 0.6455691456794739
0.3620626926422119 0.05250824615359306 0.6457523107528687
0.36361753940582275 0.05183761194348335 0.6458442211151123
0.36439231038093567 0.051426857709884644 0.6459356546401978
0.3698446750640869 0.04961610957980156 0.64593106508255
0.3706236183643341 0.04935646802186966 0.64593106508255
0.3723609745502472 0.052874039858579636 0.6434707641601562
0.37472742795944214 0.0523090660572052 0.643336296081543
0.377878874540329 0.051426857709884644 0.6432355046272278
0.37935206294059753 0.049230992794036865 0.6442592740058899
0.3856535255908966 0.047641560435295105 0.6439523100852966
0.38643738627433777 0.0473802275955677 0.6439523100852966
0.3880741000175476 0.04775610566139221 0.6433985233306885
0.3901286721229553 0.053298886865377426 0.639658510684967
0.39653557538986206 0.05168718472123146 0.6393434405326843
0.3998580873012543 0.05202943831682205 0.6384727954864502
0.40076836943626404 0.05287530645728111 0.6377823948860168
0.40267443656921387 0.05528290197253227 0.6359549164772034
0.4051344394683838 0.0626608207821846 0.6310303211212158
0.3413936495780945 0.07580624520778656 0.6348928213119507
0.34221935272216797 0.07415799051523209 0.6357201337814331
0.34302255511283875 0.07389025390148163 0.6357201337814331
0.3446257710456848 0.0736783891916275 0.6355261206626892
0.3454962968826294 0.0657518282532692 0.6401274800300598
0.34788045287132263 0.0629129409790039 0.6413590908050537
0.34867116808891296 0.06191582232713699 0.6418014764785767
0.3533957302570343 0.060157354921102524 0.6419119834899902
0.35418805480003357 0.060508694499731064 0.6415407657623291
0.3573433756828308 0.059593066573143005 0.6414595246315002
0.3581254780292511 0.058929719030857086 0.6417015790939331
0.3665963411331177 0.05014064162969589 0.6452961564064026
0.3673739433288574 0.04984964802861214 0.6453151702880859
0.36977463960647583 0.050708189606666565 0.6443157196044922
0.3714456260204315 0.05272988975048065 0.6427619457244873
0.375396192073822 0.05190780386328697 0.6424639225006104
0.3784799575805664 0.049807097762823105 0.6431107521057129
0.3799259066581726 0.04724662005901337 0.6443631649017334
0.38152849674224854 0.0473640039563179 0.6439703702926636
0.3823105990886688 0.04710329696536064 0.6439703702926636
0.3925325870513916 0.05388845130801201 0.6378285884857178
0.3956250548362732 0.05174078792333603 0.6385015845298767
0.3997914493083954 0.052290789783000946 0.6373328566551208
0.401670902967453 0.054504524916410446 0.6356214284896851
0.34128543734550476 0.07393501698970795 0.6350408792495728
0.34456878900527954 0.06609953194856644 0.6391157507896423
0.34537065029144287 0.06480679661035538 0.6397358179092407
0.3516884744167328 0.05944528803229332 0.6417039036750793
0.35247746109962463 0.05979505181312561 0.6413331031799316
0.3594740629196167 0.05285225063562393 0.6441205143928528
0.3618029057979584 0.05161859467625618 0.6443967819213867
0.36970803141593933 0.051901403814554214 0.6426330804824829
0.3704915940761566 0.05164016783237457 0.6426330804824829
0.37131959199905396 0.052424393594264984 0.6419917345046997
0.3721092641353607 0.052263468503952026 0.6419301629066467
0.3744785189628601 0.05174249783158302 0.6417675614356995
0.37606871128082275 0.051566898822784424 0.6415534615516663
0.3775210976600647 0.04886143282055855 0.6428962349891663
0.3790120482444763 0.047055408358573914 0.6436871886253357
0.3870379626750946 0.04735245555639267 0.6418904066085815
0.3890823721885681 0.052918899804353714 0.6381136775016785
0.38993391394615173 0.053364016115665436 0.6376733183860779
0.39073026180267334 0.053098566830158234 0.6376733183860779
0.3947139084339142 0.051794763654470444 0.6376586556434631
0.397115558385849 0.05113093554973602 0.6375760436058044
0.3980182707309723 0.0519736185669899 0.6368851065635681
0.4006699323654175 0.0537286251783371 0.6352895498275757
0.4032386541366577 0.06247056648135185 0.6294876933097839
0.40405574440956116 0.06219815835356712 0.6294876933097839
0.34032779932022095 0.07501208782196045 0.6335778832435608
0.345245361328125 0.06386400759220123 0.6393440961837769
0.34604331851005554 0.06258857995271683 0.6399565935134888
0.3476239740848541 0.06136266142129898 0.6403803825378418
0.3492012321949005 0.05944446474313736 0.64122474193573
0.3539341986179352 0.060505110770463943 0.6396252512931824
0.35472372174263 0.0602419376373291 0.6396252512931824
0.3555108606815338 0.05977587774395943 0.6397479176521301
0.3578604757785797 0.05782840773463249 0.6404543519020081
0.3586479127407074 0.05756593495607376 0.6404543519020081
0.3593444526195526 0.05240703374147415 0.6434420943260193
0.3601210415363312 0.0519958958029747 0.6435343623161316
0.3624521791934967 0.050914518535137177 0.6437187194824219
0.36400580406188965 0.050228051841259 0.6438212990760803
0.3647836148738861 0.04993744194507599 0.6438402533531189
0.36634013056755066 0.04938698187470436 0.6438593864440918
0.36961883306503296 0.05254201218485832 0.641283392906189
0.3719833195209503 0.05195778235793114 0.6411594748497009
0.37277573347091675 0.05183966085314751 0.6410713195800781
0.3766435980796814 0.04938409477472305 0.6417784690856934
0.37734997272491455 0.04770999401807785 0.6426506042480469
0.3836938142776489 0.04694358631968498 0.6418330669403076
0.38450878858566284 0.04713094234466553 0.6415548324584961
0.3937707245349884 0.05148819088935852 0.6370400786399841
0.39794906973838806 0.05223499983549118 0.6357426643371582
0.3987484574317932 0.0519685298204422 0.6357426643371582
0.39967164397239685 0.05295487865805626 0.6349582672119141
0.40062880516052246 0.054239775985479355 0.6339850425720215
0.40393248200416565 0.06190378591418266 0.6286696195602417
0.40478676557540894 0.06197591871023178 0.6284535527229309
0.34021759033203125 0.07340651005506516 0.6335704922676086
0.34262141585350037 0.07297277450561523 0.6333467364311218
0.34351566433906555 0.0655008852481842 0.6377107501029968
0.3459163308143616 0.0618293322622776 0.6394577622413635
0.34670430421829224 0.06156662479043007 0.6394577622413635
0.3514311611652374 0.059420689940452576 0.6398048400878906
0.35222119092941284 0.05977097526192665 0.6394314765930176
0.3561622202396393 0.05847170576453209 0.6394230723381042
0.356945663690567 0.05786499008536339 0.6396331787109375
0.3576575517654419 0.05263308435678482 0.642671525478363
0.35921451449394226 0.05196189507842064 0.6427640914916992
0.3638775050640106 0.049851372838020325 0.6431022882461548
0.36868101358413696 0.05180139094591141 0.6409416794776917
0.37957635521888733 0.046706728637218475 0.6418319940567017
0.38037800788879395 0.04676489159464836 0.641633927822113
0.3897455036640167 0.053514864295721054 0.6356282234191895
0.3905433416366577 0.053248919546604156 0.6356282234191895
0.3920929431915283 0.05216817930340767 0.6359712481498718
0.3960748016834259 0.05080877244472504 0.6359910368919373
0.3996286690235138 0.05346367135643959 0.6336550712585449
0.40215930342674255 0.06200776994228363 0.62794429063797
0.4029916226863861 0.06188216805458069 0.6278519034385681
0.3392634093761444 0.07419738918542862 0.6322770714759827
0.3441953659057617 0.0632675364613533 0.6379439234733582
0.3473680317401886 0.059849537909030914 0.6393845081329346
0.34815695881843567 0.05889303237199783 0.6398077011108398
0.3567502796649933 0.052599646151065826 0.6419003009796143
0.358307808637619 0.05192820727825165 0.6419931054115295
0.3677261471748352 0.05050702393054962 0.6409446001052856
0.3685770630836487 0.052092716097831726 0.6398037075996399
0.369366317987442 0.05193140730261803 0.6397418975830078
0.3701518774032593 0.05166954919695854 0.6397418975830078
0.3725266754627228 0.051286399364471436 0.6394928693771362
0.37410756945610046 0.05094674229621887 0.6393777132034302
0.3755948543548584 0.048752784729003906 0.6404142379760742
0.3763042986392975 0.047080591320991516 0.641291081905365
0.38428887724876404 0.04691525548696518 0.6397672295570374
0.3870880603790283 0.05212718993425369 0.636016845703125
0.3879365921020508 0.05257061868906021 0.6355738043785095
0.39194655418395996 0.051595691591501236 0.6353533267974854
0.3927125036716461 0.05097005516290665 0.6355793476104736
0.39427289366722107 0.050080135464668274 0.6358049511909485
0.39782941341400146 0.052956826984882355 0.6333259344100952
0.4012035131454468 0.06183910369873047 0.6272189021110535
0.33747515082359314 0.07629865407943726 0.6303481459617615
0.3382824957370758 0.07602949440479279 0.6303481459617615
0.33914974331855774 0.07287787646055222 0.6321001648902893
0.33994922041893005 0.07279469817876816 0.6319881677627563
0.3407493233680725 0.07271163910627365 0.6318759322166443
0.34167060256004333 0.06516660004854202 0.6363071203231812
0.34326887130737305 0.06361250579357147 0.6369320750236511
0.35117343068122864 0.05939618498086929 0.6379004120826721
0.35275405645370483 0.05960855633020401 0.6374477744102478
0.3543294668197632 0.05864126235246658 0.6377184391021729
0.3551139533519745 0.05795394629240036 0.6379793286323547
0.355898380279541 0.057360559701919556 0.6381826996803284
0.35739853978157043 0.051743049174547195 0.6413155198097229
0.36050817370414734 0.05025137960910797 0.641593873500824
0.3612859845161438 0.04993918538093567 0.6416266560554504
0.36206498742103577 0.04967952147126198 0.6416266560554504
0.3643992245197296 0.048807039856910706 0.6416839957237244
0.3667755722999573 0.04921866953372955 0.6409469842910767
0.36765292286872864 0.05170157179236412 0.6392484903335571
0.374717116355896 0.04934033006429672 0.6392521262168884
0.37542662024497986 0.04760042577981949 0.6401726603507996
0.38014501333236694 0.04640408605337143 0.6399424076080322
0.38254785537719727 0.04643263667821884 0.6394345164299011
0.39414697885513306 0.049747150391340256 0.6350379586219788
0.39593178033828735 0.05132855847477913 0.6337056756019592
0.3995424211025238 0.054487742483615875 0.6310343146324158
0.3373977541923523 0.07357349246740341 0.6310251355171204
0.34073859453201294 0.06553610414266586 0.6352772116661072
0.3423405587673187 0.06395776569843292 0.6359187960624695
0.34394675493240356 0.06147988513112068 0.6371118426322937
0.34474238753318787 0.060518261045217514 0.6375391483306885
0.3455359935760498 0.059559162706136703 0.6379661560058594
0.3463224172592163 0.059297021478414536 0.6379661560058594
0.34868037700653076 0.05894665792584419 0.6376984119415283
0.3557131588459015 0.052120357751846313 0.6404508352279663
0.3722788989543915 0.05076974257826805 0.6378890872001648
0.3752588629722595 0.04645175486803055 0.6399311423301697
0.37604349851608276 0.04625178873538971 0.6398935914039612
0.37842458486557007 0.04610724002122879 0.6394948959350586
0.3840683400630951 0.04669875651597977 0.6379759907722473
0.38524603843688965 0.05201197415590286 0.6344719529151917
0.3860412538051605 0.05174689739942551 0.6344719529151917
0.3877434730529785 0.05270600691437721 0.6335344314575195
0.3885529041290283 0.05259633809328079 0.6334356069564819
0.3893224000930786 0.051969073712825775 0.6336632966995239
0.39011964201927185 0.0517033189535141 0.6336632966995239
0.3924200236797333 0.049827396869659424 0.6343446969985962
0.39326804876327515 0.05017181858420372 0.6339595913887024
0.3940645456314087 0.04990631341934204 0.6339595913887024
0.3967874348163605 0.05269181728363037 0.6316916942596436
0.3985413908958435 0.05370886251330376 0.6307073831558228
0.33642640709877014 0.07480065524578094 0.6294600963592529
0.3414277136325836 0.06327887624502182 0.6355314254760742
0.3509146571159363 0.05937113240361214 0.6359902620315552
0.35327765345573425 0.05769926309585571 0.6365351676940918
0.35558387637138367 0.05167539045214653 0.6397730112075806
0.35636216402053833 0.05126437172293663 0.6398662328720093
0.3594726026058197 0.04977286979556084 0.6401460766792297
0.3649689257144928 0.0493774451315403 0.63926100730896
0.36661919951438904 0.05149881914258003 0.6376151442527771
0.36819756031036377 0.05117586627602577 0.6374900341033936
0.3705660402774811 0.05066642910242081 0.6373177766799927
0.37288016080856323 0.04890746250748634 0.6379258632659912
0.37750673294067383 0.045868486166000366 0.6388483643531799
0.37830737233161926 0.04592626541852951 0.6386483907699585
0.38072681427001953 0.04629085212945938 0.6379266381263733
0.38232555985450745 0.04621616005897522 0.6376444101333618
0.3851446807384491 0.05204344540834427 0.6334757208824158
0.3859405815601349 0.051778145134449005 0.6334757208824158
0.3915081024169922 0.04988061264157295 0.6335010528564453
0.3923019468784332 0.04959183931350708 0.6335160732269287
0.39579418301582336 0.05191924795508385 0.6313649415969849
0.39769020676612854 0.05449081212282181 0.6293908357620239
0.39849624037742615 0.054222092032432556 0.6293908357620239
0.3363427519798279 0.07251252233982086 0.6298790574073792
0.3379492461681366 0.07196401059627533 0.6298872232437134
0.3387477397918701 0.07190414518117905 0.6297594308853149
0.3396852910518646 0.06494074314832687 0.6338700652122498
0.3428986072540283 0.06092577800154686 0.635689914226532
0.3436957895755768 0.05996488034725189 0.6361194252967834
0.346068412065506 0.057830117642879486 0.6369502544403076
0.34841859340667725 0.058921318501234055 0.6357912421226501
0.3523605167865753 0.05777046084403992 0.6356903314590454
0.3585667312145233 0.04973851144313812 0.6393759846687317
0.3601227402687073 0.049099117517471313 0.639450192451477
0.3624584376811981 0.04825783520936966 0.6394891738891602
0.36488693952560425 0.05056646466255188 0.6375617980957031
0.37271589040756226 0.04775168001651764 0.6376892328262329
0.37421509623527527 0.04584462568163872 0.6385588049888611
0.37818998098373413 0.04574543982744217 0.637800931930542
0.38139989972114563 0.0459207184612751 0.6370313167572021
0.3866942822933197 0.05234024301171303 0.6319730877876282
0.3931178152561188 0.050689369440078735 0.6316702365875244
0.3957443833351135 0.05242639034986496 0.6300557851791382
0.39669111371040344 0.053711555898189545 0.6290662288665771
0.3353743255138397 0.07356177270412445 0.6284193992614746
0.33956629037857056 0.06396996974945068 0.6335000991821289
0.3411857485771179 0.061400946229696274 0.6347578763961792
0.3435705900192261 0.05920916423201561 0.6356239318847656
0.3459363579750061 0.05775400623679161 0.636037290096283
0.34671786427497864 0.05816539004445076 0.6356207132339478
0.3514425456523895 0.05786104127764702 0.6348327398300171
0.3568810820579529 0.04996407777070999 0.638604998588562
0.36233144998550415 0.04793067276477814 0.6387397050857544
0.3639415204524994 0.04927598312497139 0.6375725865364075
0.36794519424438477 0.05059115216135979 0.6359297633171082
0.36873742938041687 0.05048944428563118 0.6358293294906616
0.37031757831573486 0.05014945566654205 0.6357136964797974
0.3718314468860626 0.0482734814286232 0.6365634799003601
0.37409281730651855 0.04559456929564476 0.6377567648887634
0.3764883875846863 0.04576757922768593 0.6371542811393738
0.38210275769233704 0.0459991954267025 0.6358507871627808
0.3829309046268463 0.04636732116341591 0.6354512572288513
0.3840959370136261 0.05166267231106758 0.6319274306297302
0.3849453330039978 0.05216357111930847 0.6314414143562317
0.387347549200058 0.05150413513183594 0.6313539147377014
0.38811764121055603 0.050877876579761505 0.631583034992218
0.38968291878700256 0.049986906349658966 0.631811797618866
0.39126041531562805 0.04926968738436699 0.6319302916526794
0.39475217461586 0.05165378749370575 0.629730761051178
0.39569440484046936 0.052935026586055756 0.6287416815757751
0.33528488874435425 0.07163194566965103 0.6286258101463318
0.3402576148509979 0.06174293905496597 0.6337451338768005
0.3442380428314209 0.057634387165308 0.6354751586914062
0.34815606474876404 0.058854155242443085 0.6339046955108643
0.350523978471756 0.057951729744672775 0.6339747309684753
0.3528587818145752 0.051422473043203354 0.6375516653060913
0.3544177711009979 0.05075139179825783 0.6376457810401917
0.35597410798072815 0.04993000999093056 0.6378337740898132
0.35675176978111267 0.04951978474855423 0.6379280090332031
0.3583091199398041 0.048927098512649536 0.6379736065864563
0.3614236116409302 0.04779483377933502 0.6380322575569153
0.3622054159641266 0.04763966426253319 0.6379664540290833
0.36385613679885864 0.05046549811959267 0.6358668208122253
0.36466413736343384 0.05100546404719353 0.6353635787963867
0.36939898133277893 0.04996894299983978 0.635026216506958
0.3701929450035095 0.04989095777273178 0.6349102854728699
0.37166887521743774 0.04712076485157013 0.6363270878791809
0.3723960220813751 0.045616719871759415 0.6371123790740967
0.378766268491745 0.04559256508946419 0.6358065605163574
0.3803902268409729 0.04596564173698425 0.6352375745773315
0.3831498622894287 0.05125100910663605 0.6313785910606384
0.39296695590019226 0.05120997130870819 0.6293685436248779
0.39564424753189087 0.05344583839178085 0.6274230480194092
0.3351513147354126 0.07127702981233597 0.6278643012046814
0.3369026482105255 0.06499874591827393 0.6314172744750977
0.3409387171268463 0.05987725779414177 0.6337727904319763
0.34331968426704407 0.05777157470583916 0.634591817855835
0.3464535176753998 0.0580768883228302 0.6337496638298035
0.3496044874191284 0.057929255068302155 0.633186399936676
0.3519502282142639 0.051393941044807434 0.6367759704589844
0.3597378432750702 0.04796827584505081 0.6372935771942139
0.3605178892612457 0.04775364696979523 0.6372650861740112
0.36291220784187317 0.049174051731824875 0.6358810663223267
0.3707834780216217 0.04764178395271301 0.6352002024650574
0.37150657176971436 0.04597201198339462 0.6360917687416077
0.37465301156044006 0.0452904999256134 0.6358625292778015
0.37625202536582947 0.045405738055706024 0.6354580521583557
0.38389554619789124 0.051797445863485336 0.6298807263374329
0.3847172260284424 0.05187788978219032 0.6296600103378296
0.3862873613834381 0.05098491162061691 0.6298904418945312
0.38782799243927 0.04973402991890907 0.6303504109382629
0.39110487699508667 0.049784623086452484 0.6296368837356567
0.3919960856437683 0.050626013427972794 0.6289269328117371
0.3375795781612396 0.06375031173229218 0.6310572624206543
0.33839643001556396 0.062429286539554596 0.6317135691642761
0.3392091989517212 0.06114732101559639 0.6323464512825012
0.34240028262138367 0.05790920555591583 0.6337072849273682
0.3447513282299042 0.057865943759679794 0.6332435607910156
0.3619726598262787 0.047888606786727905 0.6358951926231384
0.3636211156845093 0.05055529624223709 0.6338825225830078
0.3644099235534668 0.0503937304019928 0.6338195204734802
0.36598506569862366 0.04997718334197998 0.6337512135505676
0.36677655577659607 0.049869343638420105 0.6336539387702942
0.36836281418800354 0.04971371218562126 0.6334202289581299
0.37136098742485046 0.045197922736406326 0.6356209516525269
0.37215670943260193 0.04525550454854965 0.6354188919067383
0.37935149669647217 0.04556143283843994 0.6337262392044067
0.3801649212837219 0.04574822261929512 0.633439838886261
0.3869137465953827 0.04978729411959648 0.6295042634010315
0.3884686827659607 0.04875953495502472 0.6298230290412903
0.39191895723342896 0.05088615417480469 0.6277717351913452
0.3928516209125519 0.052162230014801025 0.6267790198326111
0.39365509152412415 0.05189454182982445 0.6267790198326111
0.3945963382720947 0.05317939817905426 0.625778317451477
0.33584871888160706 0.06441536545753479 0.6300017833709717
0.3382786512374878 0.06148933991789818 0.6313307285308838
0.33989188075065613 0.059323638677597046 0.6323526501655579
0.34618857502937317 0.05798814073204994 0.631873607635498
0.3469751477241516 0.058108314871788025 0.6316332817077637
0.3509124517440796 0.05090925097465515 0.6353288292884827
0.3524717688560486 0.050087325274944305 0.6355183720588684
0.35325172543525696 0.04982732981443405 0.6355183720588684
0.35403063893318176 0.049416910856962204 0.6356133818626404
0.3563661277294159 0.04834647476673126 0.6357970833778381
0.35792407393455505 0.04779607057571411 0.6358159780502319
0.35870271921157837 0.047505032271146774 0.635835587978363
0.3618812561035156 0.049072254449129105 0.6341865062713623
0.3697356581687927 0.04701022431254387 0.6338376998901367
0.3752148151397705 0.04498567059636116 0.6339621543884277
0.37602129578590393 0.04515578970313072 0.6336866021156311
0.3803606331348419 0.05072372779250145 0.6292828917503357
0.38599854707717896 0.04984026774764061 0.6286572813987732
0.3349081575870514 0.06483922153711319 0.6289308667182922
0.3357347846031189 0.06341961771249771 0.6296511292457581
0.3373461961746216 0.06183243542909622 0.6303123235702515
0.33896684646606445 0.05952678620815277 0.6314243078231812
0.34056738018989563 0.057713259011507034 0.6322301626205444
0.3437047600746155 0.057308778166770935 0.6318267583847046
0.34448444843292236 0.05776539817452431 0.631375789642334
0.34842732548713684 0.0562075637280941 0.6315291523933411
0.34921541810035706 0.05594486743211746 0.6315291523933411
0.3500034213066101 0.05543035641312599 0.6316874027252197
0.361789345741272 0.050263095647096634 0.6324672102928162
0.36336642503738403 0.04994363337755203 0.6323375701904297
0.36731892824172974 0.0492740236222744 0.6319293975830078
0.36957651376724243 0.04586044326424599 0.6336057782173157
0.3711208403110504 0.04483631253242493 0.6339262127876282
0.37269970774650574 0.04463282600045204 0.6337229013442993
0.37912511825561523 0.04534350708127022 0.6319263577461243
0.3818959593772888 0.05098937451839447 0.6277888417243958
0.38273829221725464 0.05141223967075348 0.6273456811904907
0.38428568840026855 0.05015937611460686 0.6278104186058044
0.38508298993110657 0.049893610179424286 0.6278104186058044
0.3882964551448822 0.049147188663482666 0.627605676651001
0.336439311504364 0.06115654855966568 0.6299310326576233
0.33964604139328003 0.05785064399242401 0.6313440799713135
0.3404417634010315 0.05711796507239342 0.6316397786140442
0.34987470507621765 0.05043056607246399 0.6338780522346497
0.35065507888793945 0.05001876875758171 0.6339738965034485
0.3514348566532135 0.04960797727108002 0.6340690851211548
0.35533010959625244 0.04788313806056976 0.6343383193016052
0.3600647747516632 0.04923129826784134 0.6324899196624756
0.36166200041770935 0.04996126517653465 0.6316924095153809
0.36245018243789673 0.049799539148807526 0.6316285729408264
0.3640288710594177 0.04951130226254463 0.6314780712127686
0.3679046332836151 0.04664073884487152 0.6324754953384399
0.37579160928726196 0.044937875121831894 0.6318905353546143
0.3765770196914673 0.04467606917023659 0.6318905353546143
0.37931105494499207 0.0503431037068367 0.6277341246604919
0.3864843547344208 0.04812644422054291 0.627623975276947
0.38990068435668945 0.04997904598712921 0.6257348656654358
0.33385351300239563 0.06425561755895615 0.627514123916626
0.33550548553466797 0.06149931997060776 0.6289123892784119
0.33711302280426025 0.059956762939691544 0.6295504570007324
0.33791953325271606 0.05897287279367447 0.6300035119056702
0.3434361517429352 0.05722878873348236 0.6299429535865784
0.3442196846008301 0.05738464742898941 0.6296785473823547
0.3473801910877228 0.055523745715618134 0.6301905512809753
0.3497459590435028 0.04998467490077019 0.6332009434700012
0.350526362657547 0.049573980271816254 0.6332967281341553
0.3520852029323578 0.048753149807453156 0.6334874033927917
0.3544227182865143 0.0477973036468029 0.6335992217063904
0.35676005482673645 0.04695548489689827 0.6336387395858765
0.35832127928733826 0.04658780246973038 0.6335422992706299
0.3599601686000824 0.05007915943861008 0.6309835910797119
0.36701369285583496 0.04716113582253456 0.6313428282737732
0.3677482008934021 0.04549147188663483 0.6322455406188965
0.3732585608959198 0.044326599687337875 0.6318201422691345
0.38167688250541687 0.050892580300569534 0.6258805990219116
0.38322582840919495 0.049640316516160965 0.6263468265533447
0.3863718509674072 0.047988712787628174 0.6267288327217102
0.3345695436000824 0.06185632571578026 0.6278826594352722
0.33859869837760925 0.05739245191216469 0.6298666000366211
0.34018900990486145 0.05599924176931381 0.6304147839546204
0.34174755215644836 0.05624207854270935 0.629930317401886
0.345673531293869 0.0557919517159462 0.6293846368789673
0.346463143825531 0.055295202881097794 0.6295333504676819
0.353515088558197 0.04771086201071739 0.6328603625297546
0.35902994871139526 0.04912954568862915 0.630790114402771
0.362985223531723 0.049071915447711945 0.6299883127212524
0.3645637035369873 0.04873175546526909 0.6298702955245972
0.36759403347969055 0.04439469426870346 0.6319851279258728
0.3683755397796631 0.044134147465229034 0.6319851279258728
0.37075987458229065 0.044292256236076355 0.6313793659210205
0.3771585524082184 0.04464317485690117 0.6298000812530518
0.37826117873191833 0.049962129443883896 0.6261855363845825
0.3791007101535797 0.05044766888022423 0.6256991624832153
0.38308265805244446 0.0490686297416687 0.6257315874099731
0.3846517503261566 0.04817906767129898 0.6259651184082031
0.3854316771030426 0.047683507204055786 0.6261146664619446
0.33527570962905884 0.0596420019865036 0.6281417608261108
0.33767566084861755 0.05753006041049957 0.6289784908294678
0.33927297592163086 0.05592706426978111 0.6296610236167908
0.34005308151245117 0.055938269942998886 0.6294878721237183
0.3439697325229645 0.05575592815876007 0.6287720799446106
0.3471463918685913 0.05019209906458855 0.6316442489624023
0.3479277789592743 0.049765508621931076 0.6317505240440369
0.3487080931663513 0.04950549080967903 0.6317505240440369
0.3502688407897949 0.048684101551771164 0.6319423913955688
0.3518277406692505 0.047884393483400345 0.6321208477020264
0.3580970764160156 0.047840993851423264 0.6308158040046692
0.35891643166542053 0.049628786742687225 0.6295017004013062
0.36049047112464905 0.04920482262969017 0.6294377446174622
0.36596614122390747 0.046529620885849 0.6299797296524048
0.36825376749038696 0.04394078254699707 0.6311442255973816
0.37222036719322205 0.04390653595328331 0.6303228139877319
0.3738294541835785 0.04423939064145088 0.6297686696052551
0.3746371865272522 0.04442465677857399 0.6294787526130676
0.3343423902988434 0.05996507778763771 0.6271336078643799
0.3359641134738922 0.05793006718158722 0.6280897259712219
0.3509199619293213 0.047829728573560715 0.6313614249229431
0.3524787425994873 0.0472475104033947 0.6314013004302979
0.35403743386268616 0.046665459871292114 0.6314414739608765
0.3563773036003113 0.046004679054021835 0.6313652992248535
0.35799312591552734 0.049027130007743835 0.6290870308876038
0.3658123314380646 0.04537927359342575 0.6297535300254822
0.36655718088150024 0.043963294476270676 0.6305001378059387
0.36972230672836304 0.04387257620692253 0.6298835873603821
0.37051865458488464 0.04392911493778229 0.6296772360801697
0.37131762504577637 0.044021520763635635 0.629447877407074
0.3721019923686981 0.04376007243990898 0.629447877407074
0.33584052324295044 0.057314857840538025 0.627511203289032
0.3366278409957886 0.05705241486430168 0.627511203289032
0.33978071808815 0.05581653118133545 0.6276297569274902
0.3405677378177643 0.055554188787937164 0.6276297569274902
0.34214019775390625 0.05512484535574913 0.6275692582130432
0.3445064127445221 0.0539131760597229 0.6278405785560608
0.3554699718952179 0.045972567051649094 0.6305904984474182
0.35624977946281433 0.045712631195783615 0.6305904984474182
0.3570612072944641 0.047675445675849915 0.629157543182373
0.3586600422859192 0.04901669919490814 0.6279549598693848
0.3602345287799835 0.048592470586299896 0.6278907060623169
0.362606018781662 0.04829488322138786 0.62757408618927
0.36339056491851807 0.047933802008628845 0.6276379823684692
0.3641775846481323 0.04767146706581116 0.6276379823684692
0.3664352595806122 0.0437820702791214 0.6296508312225342
0.3735971450805664 0.0440199188888073 0.6279665231704712
0.37440556287765503 0.0442051999270916 0.6276746988296509
0.33730950951576233 0.055430322885513306 0.6274093985557556
0.3428066372871399 0.053842656314373016 0.627251923084259
0.3451973497867584 0.04969305172562599 0.6294097900390625
0.3467613756656647 0.04884081706404686 0.6296224594116211
0.34832271933555603 0.04817040264606476 0.6297192573547363
0.349103182554245 0.047760508954524994 0.6298155188560486
0.3506626784801483 0.0470438115298748 0.6299424767494202
0.3522217571735382 0.04649294167757034 0.6299625039100647
0.3537808954715729 0.04597291722893715 0.629962682723999
0.35456156730651855 0.04582666605710983 0.6298892498016357
0.35535189509391785 0.04656011983752251 0.6292473673820496
0.3569525182247162 0.048759885132312775 0.6274885535240173
0.3655206859111786 0.0435439832508564 0.6290075182914734
0.3702792227268219 0.04361788183450699 0.6279385089874268
0.37267377972602844 0.043725382536649704 0.627355694770813
0.33560141921043396 0.05581362918019295 0.6265311241149902
0.34110793471336365 0.053789619356393814 0.6266525983810425
0.34741419553756714 0.04798591136932373 0.6290426850318909
0.35523873567581177 0.047647565603256226 0.6275767087936401
0.3560222387313843 0.04738634452223778 0.6275767087936401
0.35997772216796875 0.047945812344551086 0.6263642907142639
0.3607691526412964 0.04790504649281502 0.6262200474739075
0.36308807134628296 0.045528337359428406 0.6272560358047485
0.3661906123161316 0.043418847024440765 0.6279500722885132
0.3685626983642578 0.043270137161016464 0.6275355815887451
0.3386290669441223 0.053817059844732285 0.6261702179908752
0.3433775007724762 0.04948410764336586 0.6279515027999878
0.3441585302352905 0.04922376945614815 0.6279515027999878
0.35118502378463745 0.04599820077419281 0.628523051738739
0.3551226854324341 0.048549141734838486 0.6260212063789368
0.3566960394382477 0.04817032068967819 0.6259270906448364
0.35827264189720154 0.04793580621480942 0.6257384419441223
0.3644837439060211 0.043124809861183167 0.627513587474823
0.3708474636077881 0.04358275979757309 0.6258432865142822
0.3724399209022522 0.043505456298589706 0.6255492568016052
0.33929741382598877 0.05257831886410713 0.6258304119110107
0.3400818109512329 0.052316851913928986 0.6258304119110107
0.3416498601436615 0.05183829739689827 0.6258017420768738
0.34559521079063416 0.047916412353515625 0.627495288848877
0.34637653827667236 0.047506630420684814 0.6275916695594788
0.34871751070022583 0.04649386927485466 0.6277427673339844
0.35027700662612915 0.04591204971075058 0.6277832388877869
0.3526163101196289 0.045190051198005676 0.6277454495429993
0.36204200983047485 0.04489748924970627 0.6258944869041443
0.36278995871543884 0.04323582723736763 0.6268121600151062
0.3683199882507324 0.042919907718896866 0.6258196830749512
0.3415539264678955 0.04946963116526604 0.6263665556907654
0.34936875104904175 0.045825567096471786 0.6270431280136108
0.3618895411491394 0.04354288801550865 0.6258116960525513
0.36423754692077637 0.04276089370250702 0.6258107423782349
0.3422107398509979 0.048556700348854065 0.6258235573768616
0.3437746465206146 0.04785945266485214 0.6259384751319885
0.3498913049697876 0.04479297250509262 0.6256158351898193
0.35067111253738403 0.04451609030365944 0.6256269812583923
0.3925006687641144 0.062254711985588074 0.6799556612968445
0.3901420533657074 0.07059349119663239 0.6820961833000183
0.3884333372116089 0.07400906831026077 0.682944118976593
0.39399221539497375 0.06404472142457962 0.6799281239509583
0.38981759548187256 0.0720021203160286 0.6818132996559143
0.3863265812397003 0.07805797457695007 0.683091402053833
0.3943920433521271 0.06439235061407089 0.679472804069519
0.3882632851600647 0.07633431255817413 0.6823784708976746
0.39727044105529785 0.060183096677064896 0.6779757738113403
0.3960287868976593 0.062465861439704895 0.6784979701042175
0.38568416237831116 0.07805817574262619 0.6811291575431824
0.38088563084602356 0.07650099694728851 0.6779423952102661
0.3885669708251953 0.07817825675010681 0.6818152070045471
0.3851155936717987 0.07794242352247238 0.6799610257148743
0.3983256220817566 0.06028103455901146 0.6768887042999268
0.41216278076171875 0.0822547897696495 0.694953978061676
0.41164088249206543 0.08266746252775192 0.694898784160614
0.37970447540283203 0.07625637948513031 0.6755539178848267
0.41580328345298767 0.07814294099807739 0.6939352750778198
0.41464516520500183 0.0802660658955574 0.6944235563278198
0.4107685983181 0.08237428963184357 0.6935288906097412
0.391558438539505 0.07430029660463333 0.6797230243682861
0.3908166289329529 0.0760546326637268 0.6802353858947754
0.3839709162712097 0.07770953327417374 0.6776086688041687
0.37414565682411194 0.0745258629322052 0.6710261106491089
0.418296754360199 0.07408812642097473 0.6923603415489197
0.4141005277633667 0.08214958757162094 0.6943221092224121
0.41249880194664 0.0826960951089859 0.69378662109375
0.40988993644714355 0.08207882940769196 0.6921492218971252
0.3912132978439331 0.07639487832784653 0.6797851324081421
0.3902468979358673 0.07803290337324142 0.680125892162323
0.3890378773212433 0.08024623990058899 0.6806357502937317
0.37851718068122864 0.07601205259561539 0.6731467843055725
0.3735218048095703 0.07439351826906204 0.6697899103164673
0.4098637104034424 0.08220484852790833 0.6914128065109253
0.41833004355430603 0.07643050700426102 0.6919986605644226
0.4178796708583832 0.07688092440366745 0.6919986605644226
0.411408394575119 0.08310550451278687 0.6918726563453674
0.4201151728630066 0.07405684143304825 0.6909107565879822
0.4177778661251068 0.07832680642604828 0.6919006705284119
