ply
format ascii 1.0
element vertex 811
property float x
property float y
property float z
end_header
0.5557013750076294 -0.05396414175629616 0.6781039834022522
0.5520362854003906 -0.04582042992115021 0.6805480122566223
0.5441712141036987 -0.04280715063214302 0.6779003739356995
0.5831186771392822 -0.07328386604785919 0.6817222237586975
0.5824863314628601 -0.06927978247404099 0.6835676431655884
0.5816720724105835 -0.06824634969234467 0.6836875081062317
0.5813030004501343 -0.06765855848789215 0.683807373046875
0.5795932412147522 -0.06575242429971695 0.6839147210121155
0.5778610110282898 -0.06389130651950836 0.6839853525161743
0.5759832262992859 -0.06229407712817192 0.6838317513465881
0.5755095481872559 -0.06190101429820061 0.6837877631187439
0.5661143660545349 -0.056212417781353 0.6817591190338135
0.5607949495315552 -0.05424894019961357 0.6799221038818359
0.558771014213562 -0.05396076664328575 0.6789721250534058
0.5542221665382385 -0.04718634486198425 0.6801903247833252
0.5535077452659607 -0.047134172171354294 0.6798279881477356
0.5521000623703003 -0.04586055129766464 0.6797545552253723
0.5517336130142212 -0.045282524079084396 0.6798702478408813
0.5484997034072876 -0.04223336651921272 0.6797692179679871
0.5472157001495361 -0.04187903553247452 0.6792604327201843
0.5433309078216553 -0.04191076010465622 0.6771166324615479
0.5357969403266907 -0.04803292080760002 0.6696423888206482
0.5353286862373352 -0.04756466671824455 0.6696423888206482
0.5325273871421814 -0.045848142355680466 0.6690486669540405
0.5829788446426392 -0.07118364423513412 0.68199622631073
0.5780211687088013 -0.0638212338089943 0.6833162307739258
0.5702503323554993 -0.05783122777938843 0.6823387145996094
0.5691282153129578 -0.05732850730419159 0.6819985508918762
0.5664094090461731 -0.05590197443962097 0.6812893152236938
0.5628268718719482 -0.054669737815856934 0.6799989938735962
0.5611364245414734 -0.05386590585112572 0.6795122027397156
0.5506981015205383 -0.04358966276049614 0.6794233322143555
0.5495175123214722 -0.04198486730456352 0.6796561479568481
0.5460139513015747 -0.04151717945933342 0.6779895424842834
0.545173704624176 -0.04161424562335014 0.6774749755859375
0.5395992994308472 -0.0417526513338089 0.6743389368057251
0.5834211707115173 -0.0758618414402008 0.6788629293441772
0.582645833492279 -0.06946635246276855 0.6819574236869812
0.571953296661377 -0.05873740464448929 0.6819775700569153
0.5704671740531921 -0.057653073221445084 0.6817561984062195
0.5620661973953247 -0.05371168628334999 0.6793007254600525
0.5583286285400391 -0.052642352879047394 0.6778315901756287
0.5334858298301697 -0.04585802182555199 0.6678887009620667
0.5839174389839172 -0.0738234594464302 0.6794529557228088
0.5819280743598938 -0.06848594546318054 0.681302011013031
0.5815635323524475 -0.06788565218448639 0.6814323663711548
0.5800127983093262 -0.06566689908504486 0.6818012595176697
0.5795871019363403 -0.06518480181694031 0.6818321943283081
0.57829749584198 -0.06376293301582336 0.6819053292274475
0.577852189540863 -0.06331767141819 0.6819053292274475
0.5765290260314941 -0.06195860728621483 0.6819251179695129
0.5756048560142517 -0.06112801283597946 0.6818735003471375
0.574176013469696 -0.05995485931634903 0.6817322969436646
0.5736672878265381 -0.05962050333619118 0.6816359758377075
0.5680575370788574 -0.05590411648154259 0.6805903911590576
0.5657720565795898 -0.054934050887823105 0.6798638701438904
0.5553390383720398 -0.045915115624666214 0.6790831089019775
0.5531982183456421 -0.04575365036725998 0.6779898405075073
0.5515573024749756 -0.044822074472904205 0.6775980591773987
0.5508231520652771 -0.04366517812013626 0.677831768989563
0.5342963933944702 -0.04596535116434097 0.6674346923828125
0.5830640196800232 -0.07843349874019623 0.6756197810173035
0.5838689804077148 -0.07550984621047974 0.6776849627494812
0.5832361578941345 -0.07144255191087723 0.679587185382843
0.5677458047866821 -0.05541260540485382 0.679885983467102
0.5650036931037903 -0.053999800235033035 0.679149866104126
0.5614444613456726 -0.052693501114845276 0.6779018640518188
0.5542869567871094 -0.045383695513010025 0.677986204624176
0.5497002005577087 -0.04209457337856293 0.6772674322128296
0.5493339896202087 -0.04151742160320282 0.6773844361305237
0.548111617565155 -0.039969246834516525 0.6775649189949036
0.5474256277084351 -0.039853088557720184 0.6772491335868835
0.5452982783317566 -0.03958677500486374 0.6762184500694275
0.5436104536056519 -0.03977392613887787 0.6751798987388611
0.5413267016410828 -0.03967965021729469 0.6739671230316162
0.5310949087142944 -0.04376395419239998 0.6660375595092773
0.5834380388259888 -0.0766182467341423 0.6760178804397583
0.5837213397026062 -0.07339684665203094 0.6779646873474121
0.5823916792869568 -0.06938983500003815 0.679452121257782
0.5819440484046936 -0.06894206255674362 0.679452121257782
0.5813670754432678 -0.06744717806577682 0.6799620389938354
0.5720909833908081 -0.05787467584013939 0.6801267266273499
0.5705979466438293 -0.05679680407047272 0.6798962950706482
0.5695561766624451 -0.05615350604057312 0.6796749234199524
0.5690191388130188 -0.05585785582661629 0.6795406937599182
0.563418984413147 -0.053208909928798676 0.6779010891914368
0.5600347518920898 -0.05159047618508339 0.6769201755523682
0.5462242364883423 -0.03948580473661423 0.6759726405143738
0.5423562526702881 -0.03944950923323631 0.673844039440155
0.5399712324142456 -0.03947596624493599 0.6725041270256042
0.5390003323554993 -0.039719440042972565 0.6718297600746155
0.5331358313560486 -0.04442519322037697 0.6659574508666992
0.5832093954086304 -0.0759882777929306 0.6754250526428223
0.5828770399093628 -0.07132492959499359 0.6778382062911987
0.580265462398529 -0.06589502096176147 0.6794087290763855
0.579895555973053 -0.06530550867319107 0.6795310974121094
0.5787193179130554 -0.06366470456123352 0.6797899007797241
0.5778420567512512 -0.0627436488866806 0.6798144578933716
0.5769827961921692 -0.06179124861955643 0.6798662543296814
0.5756713151931763 -0.06040412560105324 0.6799083352088928
0.5747113227844238 -0.05963130667805672 0.6798041462898254
0.5737888216972351 -0.0587911531329155 0.6797581911087036
0.5723118185997009 -0.05769062787294388 0.6795485019683838
0.5661042928695679 -0.05372796580195427 0.6782975792884827
0.5649659037590027 -0.05322490260004997 0.6779435276985168
0.5531529784202576 -0.043973907828330994 0.6765159368515015
0.5517160892486572 -0.04386075213551521 0.6757784485816956
0.5498232841491699 -0.04216707497835159 0.6756674647331238
0.5494563579559326 -0.04158853366971016 0.6757855415344238
0.5327895879745483 -0.04388856515288353 0.6652171611785889
0.5298609733581543 -0.04230189323425293 0.6644695401191711
0.5824115872383118 -0.06984607130289078 0.6775944232940674
0.5819624662399292 -0.06939689069986343 0.6775944232940674
0.5673754215240479 -0.05418480560183525 0.6779438257217407
0.5668078660964966 -0.05393381044268608 0.677766740322113
0.5629594922065735 -0.05193179100751877 0.6767350435256958
0.5607128143310547 -0.043918997049331665 0.6799572706222534
0.5542415976524353 -0.04360741749405861 0.6765150427818298
0.552810549736023 -0.04349337890744209 0.6757789254188538
0.5466682314872742 -0.0379902683198452 0.6754218339920044
0.5441920757293701 -0.03819775953888893 0.673922061920166
0.5428892970085144 -0.037832681089639664 0.6733978986740112
0.5401570200920105 -0.03833881765604019 0.6715880632400513
0.5301871299743652 -0.041962433606386185 0.6639913320541382
0.582575798034668 -0.07241024821996689 0.6754388809204102
0.5811182260513306 -0.06734348833560944 0.6774618029594421
0.5800665020942688 -0.06545235961675644 0.6779323816299438
0.5707295536994934 -0.055937476456165314 0.6780320405960083
0.5702077746391296 -0.055616021156311035 0.6779197454452515
0.5696858763694763 -0.05529352277517319 0.6778081059455872
0.562076985836029 -0.05116603150963783 0.6758565306663513
0.5615260004997253 -0.05087408795952797 0.675711452960968
0.5606701374053955 -0.049896810203790665 0.675779402256012
0.558164656162262 -0.040080852806568146 0.6798772811889648
0.5480243563652039 -0.039470523595809937 0.6745354533195496
0.5455090403556824 -0.03755353018641472 0.6742000579833984
0.5446670055389404 -0.03764316439628601 0.6736778020858765
0.5416648983955383 -0.037456680089235306 0.6720995903015137
0.5397655963897705 -0.037890270352363586 0.6707919239997864
0.5373553037643433 -0.037908926606178284 0.6694303750991821
0.5326743721961975 -0.04313823580741882 0.6638755798339844
0.5316237211227417 -0.04234196990728378 0.6637330651283264
0.5279730558395386 -0.041687753051519394 0.6620535254478455
0.5820683240890503 -0.07364235818386078 0.673644483089447
0.5823463797569275 -0.07178334146738052 0.6748460531234741
0.5817655324935913 -0.0702645555138588 0.6753731966018677
0.5816407203674316 -0.0691947489976883 0.6759046912193298
0.5797812938690186 -0.06493495404720306 0.6772541403770447
0.5790416598320007 -0.06375190615653992 0.6775034070014954
0.577832043170929 -0.062167104333639145 0.6777141690254211
0.5774005055427551 -0.06169143691658974 0.6777390837669373
0.5756665468215942 -0.059804704040288925 0.6778249740600586
0.5738481879234314 -0.058068785816431046 0.6777786612510681
0.5733706951141357 -0.05767444148659706 0.6777318120002747
0.5719696283340454 -0.05643492564558983 0.677640974521637
0.5645898580551147 -0.051989223808050156 0.6759915351867676
0.5591027736663818 -0.03991592675447464 0.6796941757202148
0.5542741417884827 -0.04270473122596741 0.6754118800163269
0.5509498715400696 -0.042017657309770584 0.6739292144775391
0.5502246618270874 -0.041961152106523514 0.6735531687736511
0.54965740442276 -0.041671548038721085 0.6733973026275635
0.5480841994285583 -0.03950408101081848 0.6737311482429504
0.5477173328399658 -0.03892595320940018 0.6738501191139221
0.5468974113464355 -0.037894852459430695 0.6739687323570251
0.5421445369720459 -0.03690004348754883 0.6718558073043823
0.5818389058113098 -0.07301072776317596 0.6730504631996155
0.5811340808868408 -0.06779399514198303 0.6755945682525635
0.5740299820899963 -0.057954199612140656 0.6771370768547058
0.5686271786689758 -0.053839024156332016 0.6764110326766968
0.5665545463562012 -0.052503641694784164 0.6759954690933228
0.5659855008125305 -0.05225114896893501 0.6758168339729309
0.5611106753349304 -0.04035358875989914 0.679776668548584
0.5606676936149597 -0.03991058096289635 0.679776668548584
0.5524995923042297 -0.042105868458747864 0.6739330887794495
0.5520468354225159 -0.04165327921509743 0.6739330887794495
0.5811552405357361 -0.07192453742027283 0.6724560260772705
0.5798423290252686 -0.06528551876544952 0.6754679679870605
0.5792097449302673 -0.0638982430100441 0.6758947372436523
0.5693675875663757 -0.0539826937019825 0.6759362816810608
0.5573699474334717 -0.03834278881549835 0.6779960989952087
0.5447922348976135 -0.03561805561184883 0.6724238991737366
0.543948233127594 -0.035704005509614944 0.6718981266021729
0.541396975517273 -0.03596393018960953 0.6703081727027893
0.5400696992874146 -0.03560901805758476 0.6697584986686707
0.5391000509262085 -0.03584278002381325 0.6690778136253357
0.5366846919059753 -0.03585181012749672 0.6677068471908569
0.5311583876609802 -0.04104849323630333 0.6616427302360535
0.5257112383842468 -0.04161743447184563 0.6582403779029846
0.5809252858161926 -0.07129213958978653 0.671860933303833
0.581098735332489 -0.06964967399835587 0.6728909015655518
0.5808555483818054 -0.06750119477510452 0.6739716529846191
0.5777392387390137 -0.06173804774880409 0.6754729747772217
0.5760766267776489 -0.059710100293159485 0.6756802201271057
0.5756458044052124 -0.05923127755522728 0.6757073998451233
0.5743452906608582 -0.057810306549072266 0.6757758259773254
0.5739120841026306 -0.05733659863471985 0.6757985353469849
0.5720251202583313 -0.05570835620164871 0.675652027130127
0.5715470910072327 -0.055311169475317 0.6756059527397156
0.5664954781532288 -0.05176399648189545 0.6747527718544006
0.5640207529067993 -0.04988110437989235 0.6744170784950256
0.5635522603988647 -0.04712449759244919 0.6757148504257202
0.5623425841331482 -0.039871565997600555 0.6791426539421082
0.5587546825408936 -0.038624357432127 0.6778149604797363
0.5570409893989563 -0.037856850773096085 0.677278459072113
0.5499114394187927 -0.040562912821769714 0.6716994047164917
0.5482811331748962 -0.03958135470747948 0.671331524848938
0.5478966236114502 -0.03902493044734001 0.6714292168617249
0.5470738410949707 -0.037990473210811615 0.6715491414070129
0.5459734201431274 -0.03625526279211044 0.6719092130661011
0.5455816984176636 -0.035713497549295425 0.6719942092895508
0.5795925259590149 -0.0740751102566719 0.6686949729919434
0.5798517465591431 -0.06573472917079926 0.6735872626304626
0.5703192949295044 -0.05395660921931267 0.6748648285865784
0.5656862854957581 -0.0508904904127121 0.6739734411239624
0.564789891242981 -0.04998401552438736 0.6739792227745056
0.5603228807449341 -0.03862178698182106 0.6779017448425293
0.5586159825325012 -0.037855926901102066 0.6773663759231567
0.5510130524635315 -0.040200427174568176 0.6717074513435364
0.5423569083213806 -0.034853797405958176 0.6698247790336609
0.5383129715919495 -0.03493797034025192 0.6674761772155762
0.5358890295028687 -0.034942347556352615 0.6660948991775513
0.5304593443870544 -0.03996509313583374 0.6601486802101135
0.5293859839439392 -0.03918760269880295 0.659980297088623
0.5270423293113708 -0.037879329174757004 0.6593911051750183
0.579953670501709 -0.07231199741363525 0.6690738797187805
0.5805667638778687 -0.06852563470602036 0.6715840697288513
0.5799907445907593 -0.06700338423252106 0.672123908996582
0.578839898109436 -0.06398657709360123 0.6731887459754944
0.5779000520706177 -0.06188860535621643 0.6738494038581848
0.568973958492279 -0.052792832255363464 0.6739462614059448
0.5674757957458496 -0.051693156361579895 0.6737188696861267
0.5658411979675293 -0.04379688948392868 0.6772915124893188
0.5640266537666321 -0.03981079161167145 0.6785305142402649
0.5622899532318115 -0.03911849111318588 0.6779347062110901
0.5563818216323853 -0.03688276931643486 0.6758394241333008
0.5559356808662415 -0.036436595022678375 0.6758394241333008
0.5528295636177063 -0.0399012416601181 0.6720902919769287
0.5521107912063599 -0.039839185774326324 0.6717154383659363
0.5513899326324463 -0.03977683559060097 0.6713398694992065
0.5480561256408691 -0.03903500363230705 0.6698609590530396
0.5476644039154053 -0.03848734125494957 0.6699498891830444
0.5423790216445923 -0.03384394571185112 0.6695836186408997
0.5415264964103699 -0.033927030861377716 0.6690497398376465
0.5384337306022644 -0.03379300609230995 0.6673615574836731
0.5364758968353271 -0.03425435721874237 0.6659814119338989
0.530691385269165 -0.03975049778819084 0.659544825553894
0.5799517631530762 -0.07124148309230804 0.6688538789749146
0.579789936542511 -0.06891914457082748 0.6700901985168457
0.5798470377922058 -0.0675094798207283 0.6709295511245728
0.5795791745185852 -0.06541983038187027 0.6719720959663391
0.5764316320419312 -0.05971664562821388 0.6734346747398376
0.5756295919418335 -0.05864715948700905 0.6735875606536865
0.574748694896698 -0.05771872401237488 0.6736148595809937
0.5738945007324219 -0.05674410238862038 0.673683762550354
0.5730187296867371 -0.05580812692642212 0.6737181544303894
0.5716018080711365 -0.054581351578235626 0.6736094355583191
0.5706738233566284 -0.05373391881585121 0.6735633611679077
0.5682178735733032 -0.05183729529380798 0.6732432842254639
0.5661125183105469 -0.04700654000043869 0.6748027801513672
0.5666115283966064 -0.04158136248588562 0.6781930923461914
0.5609320998191833 -0.03797544166445732 0.6770064830780029
0.5556033253669739 -0.035950109362602234 0.6751160621643066
0.5468991994857788 -0.03748311474919319 0.6692577004432678
0.5457796454429626 -0.035766564309597015 0.6695994138717651
0.5441245436668396 -0.03371410816907883 0.6698265671730042
0.5402948260307312 -0.03353876620531082 0.6677353978157043
0.5346261858940125 -0.03356551751494408 0.6644761562347412
0.5280700325965881 -0.03780588135123253 0.6582977771759033
0.5256607532501221 -0.03765023499727249 0.6570082902908325
0.5795667767524719 -0.06827117502689362 0.6695060729980469
0.5785650610923767 -0.0636681392788887 0.6715729832649231
0.5668341517448425 -0.049533966928720474 0.6729525327682495
0.5665980577468872 -0.04756041243672371 0.6739495992660522
0.567249059677124 -0.04533715173602104 0.6755992770195007
0.5660111308097839 -0.04384724423289299 0.6757439970970154
0.5665815472602844 -0.04064411297440529 0.6779097318649292
0.565571665763855 -0.039962127804756165 0.6777215600013733
0.5589003562927246 -0.036722492426633835 0.6757518649101257
0.5565500259399414 -0.03578725829720497 0.6749398112297058
0.5502445697784424 -0.03834958001971245 0.6698500514030457
0.5289192199707031 -0.03787817806005478 0.6578807234764099
0.5790315866470337 -0.06951158493757248 0.667654812335968
0.5793434977531433 -0.06762300431728363 0.6689215302467346
0.5777379274368286 -0.06158149242401123 0.6714749932289124
0.5765874981880188 -0.05986753851175308 0.67179936170578
0.5657992959022522 -0.0431915745139122 0.6751887202262878
0.5626382231712341 -0.03789282590150833 0.6764193177223206
0.5608927607536316 -0.03719722107052803 0.6758151054382324
0.5555816292762756 -0.035133667290210724 0.6739453673362732
0.5513448119163513 -0.037991464138031006 0.6698614954948425
0.5498977303504944 -0.037861574441194534 0.6691031455993652
0.5472434759140015 -0.03722623363137245 0.6679409742355347
0.5458953976631165 -0.035826124250888824 0.6679710149765015
0.5421122908592224 -0.032351136207580566 0.6677935123443604
0.5382169485092163 -0.03221387788653374 0.6656302809715271
0.5262736082077026 -0.03594326972961426 0.6566084623336792
0.5236597061157227 -0.03710422292351723 0.6544352769851685
0.5790454745292664 -0.06581661105155945 0.6689621806144714
0.5782892107963562 -0.0633481815457344 0.6699506044387817
0.5759345889091492 -0.05873892456293106 0.6712522506713867
0.5751194357872009 -0.057687293738126755 0.6713886857032776
0.573869526386261 -0.056161463260650635 0.6715482473373413
0.5734196901321411 -0.05571149289608002 0.6715482473373413
0.5716568827629089 -0.053848832845687866 0.6716057658195496
0.5697771310806274 -0.052184320986270905 0.6714816093444824
0.569357693195343 -0.051682934165000916 0.6715289354324341
0.5680817365646362 -0.04902200028300285 0.6723285913467407
0.5686622262001038 -0.04688859358429909 0.6738954782485962
0.5683823227882385 -0.04500140994787216 0.6748232245445251
0.5659594535827637 -0.04079935699701309 0.675850510597229
0.5660574436187744 -0.03950478509068489 0.6766546368598938
0.5633448958396912 -0.03807465732097626 0.6759141683578491
0.5629018545150757 -0.03763173893094063 0.6759141683578491
0.5588790774345398 -0.035912130028009415 0.6745843887329102
0.5565272569656372 -0.03497392311692238 0.673768162727356
0.5488227009773254 -0.037306759506464005 0.6679732203483582
0.5443925261497498 -0.03365890309214592 0.6675215363502502
0.5425909757614136 -0.031800221651792526 0.6675545573234558
0.5417389273643494 -0.03187940642237663 0.667016863822937
0.5395662784576416 -0.03157941997051239 0.6659355163574219
0.5378321409225464 -0.031744953244924545 0.6648387908935547
0.5354054570198059 -0.031733959913253784 0.6634441018104553
0.5788969993591309 -0.06632543355226517 0.6677519679069519
0.5784415602684021 -0.06587015092372894 0.6677519679069519
0.5777287483215332 -0.06204184144735336 0.6695558428764343
0.5772764682769775 -0.06158957630395889 0.6695558428764343
0.5700060725212097 -0.05198505520820618 0.6709074974060059
0.5687134265899658 -0.04934610053896904 0.6716868877410889
0.5675414800643921 -0.04419951140880585 0.6739884614944458
0.5670071840286255 -0.043897323310375214 0.6738541722297668
0.5654911994934082 -0.04284626618027687 0.6735849976539612
0.5653062462806702 -0.03970128670334816 0.6752987504005432
0.5603961944580078 -0.035993579775094986 0.6746026873588562
0.5585516095161438 -0.03542441129684448 0.6738640069961548
0.5544702410697937 -0.03370477259159088 0.6724965572357178
0.5537724494934082 -0.03361897170543671 0.6721422076225281
0.5460506677627563 -0.03583095967769623 0.6663901209831238
0.54004967212677 -0.03102663718163967 0.6656972169876099
0.5340138673782349 -0.03149983286857605 0.6619280576705933
0.5279761552810669 -0.03608972206711769 0.6557738780975342
0.5783354043960571 -0.06759913265705109 0.6658535003662109
0.5778779983520508 -0.06714161485433578 0.6658535003662109
0.5764541029930115 -0.05949397385120392 0.6694679856300354
0.5756379961967468 -0.05843646451830864 0.6696082949638367
0.5752724409103394 -0.057833995670080185 0.669745683670044
0.5702680349349976 -0.04577595740556717 0.6738423705101013
0.5698118805885315 -0.04535028338432312 0.6738246083259583
0.5651628971099854 -0.04122300446033478 0.6735217571258545
0.5644512176513672 -0.03778490051627159 0.6751049160957336
0.5600769519805908 -0.03549714758992195 0.6738932132720947
0.5541373491287231 -0.03321247920393944 0.6717705726623535
0.5533883571624756 -0.03319801017642021 0.671343982219696
0.5503073930740356 -0.03652660548686981 0.6676214933395386
0.5483977198600769 -0.03593660891056061 0.6668550372123718
0.5461761951446533 -0.03576667979359627 0.6656637191772461
0.5457183122634888 -0.035308968275785446 0.6656637191772461
0.5445052981376648 -0.03371404483914375 0.6658852696418762
0.5379444360733032 -0.03070681355893612 0.6638215184211731
0.5282180905342102 -0.035860903561115265 0.655179500579834
0.5246732234954834 -0.033890943974256516 0.6542649269104004
0.5779091715812683 -0.0647263303399086 0.666441023349762
0.57779461145401 -0.06364932656288147 0.667001485824585
0.5769948363304138 -0.06126900389790535 0.6679220199584961
0.5738018751144409 -0.05565040931105614 0.6693350076675415
0.5721076726913452 -0.053658340126276016 0.6695083975791931
0.5716570019721985 -0.053207527846097946 0.6695083975791931
0.5705755949020386 -0.05139989033341408 0.6699315309524536
0.5701292753219604 -0.04854937270283699 0.6713319420814514
0.5707559585571289 -0.0463251918554306 0.6729924082756042
0.5625330805778503 -0.03638202324509621 0.6739944815635681
0.5619515180587769 -0.036148298531770706 0.6737919449806213
0.5568119883537292 -0.03383474424481392 0.6721458435058594
0.5561740398406982 -0.033668626099824905 0.6718711256980896
0.5437357425689697 -0.03270288556814194 0.6651885509490967
0.5430000424385071 -0.031543128192424774 0.6654353737831116
0.5417724251747131 -0.02997685968875885 0.6656326651573181
0.5384314656257629 -0.030152561143040657 0.6635843515396118
0.537971019744873 -0.029692335054278374 0.6635843515396118
0.533739447593689 -0.029888780787587166 0.6610049605369568
0.5774257779121399 -0.06584049761295319 0.6646720767021179
0.5764409899711609 -0.05994858592748642 0.6675388216972351
0.5757161974906921 -0.05872064083814621 0.6678329706192017
0.5687537789344788 -0.04390455037355423 0.672420859336853
0.5661694407463074 -0.042247142642736435 0.6718793511390686
0.565633237361908 -0.04194343462586403 0.6717433929443359
0.5642930269241333 -0.0394638366997242 0.672409176826477
0.5645787119865417 -0.03788365423679352 0.6734992265701294
0.5622158646583557 -0.03588669002056122 0.6732855439186096
0.5583909153938293 -0.03384250029921532 0.6722450852394104
0.5503388047218323 -0.03561415150761604 0.6665061712265015
0.5484287738800049 -0.035021498799324036 0.6657366752624512
0.5397796630859375 -0.02952433004975319 0.663895308971405
0.5357837080955505 -0.02944856882095337 0.6616050004959106
0.5323378443717957 -0.029647640883922577 0.6594756841659546
0.5275053381919861 -0.034770384430885315 0.653659999370575
0.5264236330986023 -0.03398597985506058 0.6534863114356995
0.5773704051971436 -0.0635896548628807 0.665118396282196
0.5751370191574097 -0.05745043605566025 0.6674069762229919
0.5739523768424988 -0.055792663246393204 0.6676843166351318
0.5721819996833801 -0.047873906791210175 0.6712865829467773
0.5717357993125916 -0.04742756485939026 0.6712865829467773
0.5723509192466736 -0.045217130333185196 0.6729422211647034
0.5726233720779419 -0.043588362634181976 0.6740561127662659
0.5695134401321411 -0.044007688760757446 0.6719883680343628
0.5689801573753357 -0.04370550811290741 0.6718529462814331
0.5637944340705872 -0.04039278253912926 0.6707555055618286
0.5640804171562195 -0.03880660980939865 0.6718524694442749
0.5597022175788879 -0.03423932567238808 0.6719632148742676
0.5586658716201782 -0.03356534242630005 0.671751081943512
0.5537793636322021 -0.03190009668469429 0.6698635220527649
0.5461561679840088 -0.03393102437257767 0.6642069220542908
0.5454055070877075 -0.033880118280649185 0.6637970805168152
0.5438868403434753 -0.032702427357435226 0.6635972857475281
0.543110191822052 -0.03159358352422714 0.663791835308075
0.5363389849662781 -0.02880973368883133 0.6614556908607483
0.5237608551979065 -0.032033056020736694 0.652197539806366
0.5769751667976379 -0.06453432142734528 0.6634929776191711
0.5765399932861328 -0.061474915593862534 0.6650350093841553
0.5761547088623047 -0.059627797454595566 0.6658940315246582
0.5757004618644714 -0.059173744171857834 0.6658940315246582
0.5740278363227844 -0.055864036083221436 0.6668559312820435
0.5730363726615906 -0.05387721583247185 0.6674409508705139
0.5720710754394531 -0.05186128243803978 0.668058454990387
0.5726742744445801 -0.04842764139175415 0.6704306602478027
0.5732839107513428 -0.046209950000047684 0.6720919609069824
0.5734469890594482 -0.04357307776808739 0.6737374067306519
0.5712175965309143 -0.04373466223478317 0.6723322868347168
0.5666218400001526 -0.04184725880622864 0.6707408428192139
0.563484251499176 -0.03988310322165489 0.6700512766838074
0.563422441482544 -0.03770348057150841 0.6712957620620728
0.5611356496810913 -0.034448809921741486 0.6718645095825195
0.5553720593452454 -0.03191186115145683 0.6699683666229248
0.5465389490127563 -0.033507090061903 0.6638403534889221
0.5354932546615601 -0.027866756543517113 0.6606640219688416
0.5345216989517212 -0.028061525896191597 0.6599786281585693
0.5257018804550171 -0.032895527780056 0.6519550681114197
0.5240077972412109 -0.03179701417684555 0.6516051292419434
0.52339768409729 -0.0314854271709919 0.6514296531677246
0.575694739818573 -0.0670914277434349 0.6603888273239136
0.5762919187545776 -0.06342270225286484 0.6629031896591187
0.5763781070709229 -0.06198615953326225 0.6638005971908569
0.5751485228538513 -0.05784778296947479 0.6655148863792419
0.5731673240661621 -0.048983894288539886 0.6695713996887207
0.5743775367736816 -0.044558100402355194 0.6728929877281189
0.5704100131988525 -0.042886462062597275 0.671539843082428
0.5657755136489868 -0.04103840887546539 0.6698976159095764
0.5642531514167786 -0.039980966597795486 0.669623613357544
0.5637146830558777 -0.03967534005641937 0.6694865822792053
0.563342809677124 -0.03571387007832527 0.6716020107269287
0.560816764831543 -0.033950746059417725 0.6711524128913879
0.5567668676376343 -0.032202672213315964 0.6697956323623657
0.5563196539878845 -0.031755656003952026 0.6697956323623657
0.5519811511039734 -0.030337529256939888 0.6680744886398315
0.5488401055335999 -0.033683229237794876 0.664251446723938
0.5481099486351013 -0.033612098544836044 0.6638630628585815
0.5403693914413452 -0.027947016060352325 0.6626397967338562
0.5399109125137329 -0.027488477528095245 0.6626397967338562
0.5381855368614197 -0.027631273493170738 0.66153883934021
0.5373178124427795 -0.02770324982702732 0.6609849333763123
0.5331249833106995 -0.0278148390352726 0.6584481000900269
0.5757185220718384 -0.0646815076470375 0.6609766483306885
0.5755496621131897 -0.059869732707738876 0.6637210845947266
0.5742127895355225 -0.05594877153635025 0.6652485728263855
0.5739343166351318 -0.05519180744886398 0.6655312776565552
0.5731611847877502 -0.051607340574264526 0.6671930551528931
0.5742682218551636 -0.0473090298473835 0.6703880429267883
0.5748955607414246 -0.043870918452739716 0.6727912425994873
0.5735148787498474 -0.041468434035778046 0.6733951568603516
0.5710996389389038 -0.041931215673685074 0.6716940402984619
0.568591833114624 -0.04250120371580124 0.669874906539917
0.5676106214523315 -0.04175121709704399 0.6697381138801575
0.5582912564277649 -0.03229713439941406 0.6698177456855774
0.5529711842536926 -0.03013463318347931 0.667951226234436
0.5523252487182617 -0.029963724315166473 0.667670488357544
0.5516360402107239 -0.02985215187072754 0.6673290729522705
0.5450918078422546 -0.03244803473353386 0.66192626953125
0.5446330904960632 -0.031989287585020065 0.66192626953125
0.5438696146011353 -0.0319470539689064 0.661500096321106
0.5417097806930542 -0.029465168714523315 0.6616904735565186
0.5758402943611145 -0.06211412325501442 0.6617222428321838
0.5758420825004578 -0.06083444878458977 0.6624818444252014
0.5740306973457336 -0.05398929864168167 0.6654661297798157
0.5741183757781982 -0.05260801687836647 0.6663368940353394
0.5746052265167236 -0.05055005103349686 0.6678455471992493
0.5747622847557068 -0.047860726714134216 0.6695330142974854
0.5753585696220398 -0.045650798827409744 0.6711965203285217
0.574238121509552 -0.041616473346948624 0.6729240417480469
0.568370521068573 -0.04185805469751358 0.6693022847175598
0.5623949766159058 -0.037453144788742065 0.6683711409568787
0.5627851486206055 -0.03572680428624153 0.6696258783340454
0.5607625246047974 -0.0331893265247345 0.6699311137199402
0.5543738603591919 -0.030428463593125343 0.6677804589271545
0.5462166666984558 -0.03209181874990463 0.6619583964347839
0.5406581163406372 -0.02774594910442829 0.6612398028373718
0.5252255201339722 -0.03156548738479614 0.6498262882232666
0.5222817659378052 -0.029864486306905746 0.6490896344184875
0.5752578973770142 -0.06337931752204895 0.6597777605056763
0.5756158828735352 -0.06145680323243141 0.6611337661743164
0.5751943588256836 -0.05966237187385559 0.6619498133659363
0.575039267539978 -0.05741405114531517 0.6631944179534912
0.5745417475700378 -0.05578432232141495 0.6638675928115845
0.5757040977478027 -0.04886045679450035 0.6686755418777466
0.5761518478393555 -0.044493477791547775 0.6715382933616638
0.5758678317070007 -0.04378534480929375 0.671790361404419
0.5724432468414307 -0.04007731005549431 0.671958863735199
0.5660081505775452 -0.03998931869864464 0.6681851744651794
0.5649327039718628 -0.03937779366970062 0.6679093241691589
0.5638551115989685 -0.03876509889960289 0.6676329374313354
0.5623217821121216 -0.0377105213701725 0.6673482656478882
0.5621858835220337 -0.033413514494895935 0.6698223352432251
0.558824360370636 -0.03176774084568024 0.6688021421432495
0.5542343854904175 -0.029654603451490402 0.6673295497894287
0.5504591464996338 -0.02847512811422348 0.6657862067222595
0.5473333597183228 -0.03174249455332756 0.661984920501709
0.5431482791900635 -0.030959419906139374 0.6599622964859009
0.537451982498169 -0.025659730657935143 0.6597264409065247
0.5357089638710022 -0.025796281173825264 0.6586089134216309
0.5339092016220093 -0.025988489389419556 0.6574246287345886
0.5314446091651917 -0.02594880573451519 0.6559826731681824
0.5732256174087524 -0.06724873930215836 0.6554073691368103
0.5749050974845886 -0.061664216220378876 0.6597390174865723
0.576200544834137 -0.049416761845350266 0.6678147912025452
0.5767892003059387 -0.04719237610697746 0.6694924831390381
0.5762082934379578 -0.043394967913627625 0.6714102625846863
0.5750856995582581 -0.041734930127859116 0.6717308759689331
0.5727450847625732 -0.03975367918610573 0.671516478061676
0.5700084567070007 -0.04071266949176788 0.6693128943443298
0.567753791809082 -0.0408480167388916 0.6678875684738159
0.5662347674369812 -0.03978832811117172 0.6676138043403625
0.5619667768478394 -0.03613005578517914 0.6672501564025879
0.5615189075469971 -0.03568219020962715 0.6672501564025879
0.5618389844894409 -0.0340748131275177 0.6683995127677917
0.5602626204490662 -0.03198117017745972 0.6687079668045044
0.5579142570495605 -0.031026525422930717 0.6678770184516907
0.5419343113899231 -0.0294503103941679 0.6592877507209778
0.5407636761665344 -0.027788493782281876 0.6595808267593384
0.5399349927902222 -0.026747586205601692 0.659707248210907
0.5391778349876404 -0.025615543127059937 0.6599306464195251
0.5353249311447144 -0.02531246282160282 0.6578138470649719
0.5320422053337097 -0.02526821196079254 0.655882716178894
0.5295597910881042 -0.025224817916750908 0.6544284820556641
0.5240216255187988 -0.029989786446094513 0.648284375667572
0.5227982401847839 -0.02936277911067009 0.6479289531707764
0.5726653933525085 -0.06979504227638245 0.6526861190795898
0.576103150844574 -0.05223428085446358 0.6652446985244751
0.5717492699623108 -0.03922232985496521 0.6704227328300476
0.5706998109817505 -0.039761751890182495 0.6694725751876831
0.5691980123519897 -0.039859671145677567 0.6685156226158142
0.5681461095809937 -0.04038332775235176 0.6675733923912048
0.5616875886917114 -0.03669746220111847 0.6659151911735535
0.5615686178207397 -0.033500753343105316 0.6677558422088623
0.5599423050880432 -0.03147994726896286 0.6679917573928833
0.556542694568634 -0.029851315543055534 0.6669327020645142
0.5535661578178406 -0.028660591691732407 0.6658645868301392
0.5518240928649902 -0.02786504477262497 0.6652984023094177
0.5446969866752625 -0.030138321220874786 0.6596766710281372
0.542732298374176 -0.029553323984146118 0.6588515043258667
0.5242689847946167 -0.029752792790532112 0.6476898193359375
0.573009729385376 -0.07338955253362656 0.649865984916687
0.5738247632980347 -0.0679323822259903 0.6536279916763306
0.5748186111450195 -0.06483718007802963 0.6560807824134827
0.5756990909576416 -0.05941177159547806 0.6598631739616394
0.5760586261749268 -0.057508476078510284 0.6612205505371094
0.5764564871788025 -0.05554934963583946 0.6626341342926025
0.5771970152854919 -0.05053376406431198 0.666086733341217
0.5782923698425293 -0.04620140418410301 0.6693422794342041
0.5780524015426636 -0.04540969058871269 0.6696733236312866
0.5776099562644958 -0.044967133551836014 0.6696733236312866
0.5688316226005554 -0.03945041075348854 0.6677168607711792
0.5645353198051453 -0.03816000744700432 0.665913999080658
0.5640869140625 -0.03771151974797249 0.665913999080658
0.5635470151901245 -0.037404030561447144 0.6657745242118835
0.5609201788902283 -0.03574027493596077 0.66519695520401
0.5612388849258423 -0.03190112113952637 0.6676908135414124
0.5556100606918335 -0.029127921909093857 0.6659781336784363
0.5525850653648376 -0.027989277616143227 0.6648465991020203
0.5501548051834106 -0.027061788365244865 0.6639453768730164
0.5465548634529114 -0.0298683550208807 0.6601024270057678
0.5458193421363831 -0.02979176677763462 0.659707248210907
0.5416962504386902 -0.028881089761853218 0.6577805280685425
0.54090815782547 -0.027779987081885338 0.6579683423042297
0.5371785759925842 -0.024145444855093956 0.6579111814498901
0.5349699258804321 -0.023813491687178612 0.6567856669425964
0.5307633876800537 -0.023862842470407486 0.654232919216156
0.5215872526168823 -0.02777918055653572 0.6463797092437744
0.5749733448028564 -0.06608694791793823 0.6545616984367371
0.5756865739822388 -0.06350117176771164 0.6565462946891785
0.5763553380966187 -0.06101255491375923 0.6584455966949463
0.5763655304908752 -0.05844375863671303 0.6599971055984497
0.5775578022003174 -0.05381876230239868 0.6634966135025024
0.5781459212303162 -0.05154326185584068 0.6652191877365112
0.5776970386505127 -0.05109458044171333 0.6652191877365112
0.5776197910308838 -0.049999382346868515 0.665831446647644
0.5776895880699158 -0.043823644518852234 0.6695888042449951
0.5760905742645264 -0.041773680597543716 0.6698598861694336
0.5756196975708008 -0.04138125479221344 0.6698126792907715
0.5737519264221191 -0.039782579988241196 0.6696508526802063
0.5713859796524048 -0.037826839834451675 0.6694040298461914
0.5663776993751526 -0.038879528641700745 0.665757954120636
0.560875654220581 -0.03369545191526413 0.6655666828155518
0.5582654476165771 -0.02978859841823578 0.666346549987793
0.5570864081382751 -0.029307344928383827 0.665926992893219
0.5498068332672119 -0.026571644470095634 0.6631935834884644
0.5462026000022888 -0.02936962991952896 0.6593421697616577
0.5427761673927307 -0.028607282787561417 0.6577394008636475
0.5397363901138306 -0.026207335293293 0.6573545336723328
0.5393530130386353 -0.025644417852163315 0.6574625968933105
0.5376665592193604 -0.023597439751029015 0.6576794385910034
0.5345850586891174 -0.023327363654971123 0.6559881567955017
0.5224486589431763 -0.02785644866526127 0.6459628939628601
0.5218348503112793 -0.027541253715753555 0.6457830667495728
0.5753321647644043 -0.06961708515882492 0.6517841815948486
0.5754894018173218 -0.06669075042009354 0.6536445021629333
0.5761104822158813 -0.06425970792770386 0.6554858684539795
0.5767228603363037 -0.061860401183366776 0.657302975654602
0.578061580657959 -0.05438845232129097 0.6626186966896057
0.5786482691764832 -0.05210535228252411 0.6643500924110413
0.5608394742012024 -0.035011179745197296 0.6639191508293152
0.5603575110435486 -0.03125658258795738 0.6658935546875
0.5589784979820251 -0.029972022399306297 0.6658364534378052
0.5551120042800903 -0.027894780039787292 0.6647571325302124
0.5532060861587524 -0.027337590232491493 0.6639432907104492
0.5497084856033325 -0.02573620341718197 0.6627992391586304
0.5443713665008545 -0.028713779523968697 0.6577827334403992
0.5197567343711853 -0.025873979553580284 0.6446454524993896
0.5764751434326172 -0.0677603930234909 0.6527273058891296
0.577235758304596 -0.06245200335979462 0.6563997864723206
0.5784320831298828 -0.05773042142391205 0.6599807739257812
0.5779767632484436 -0.057274989783763885 0.6599807739257812
0.5785676836967468 -0.05495821312069893 0.6617400646209717
0.579151451587677 -0.052669376134872437 0.6634783148765564
0.5789749622344971 -0.05173741281032562 0.6639354228973389
0.5785716772079468 -0.04389389231801033 0.6684375405311584
0.5745493173599243 -0.03998647630214691 0.6683679223060608
0.5722010135650635 -0.03799762949347496 0.6681504249572754
0.570749819278717 -0.036867670714855194 0.6679560542106628
0.5698552131652832 -0.03714470937848091 0.6672471761703491
0.5672801733016968 -0.03777042403817177 0.6653102040290833
0.5636873841285706 -0.03648878261446953 0.6639118194580078
0.5626049041748047 -0.03587101399898529 0.6636305451393127
0.559594452381134 -0.033638618886470795 0.6631599068641663
0.5599985122680664 -0.03192024677991867 0.6644443869590759
0.5541614890098572 -0.02718585543334484 0.6637769937515259
0.5504726767539978 -0.025861047208309174 0.6623466610908508
0.5486564636230469 -0.025136195123195648 0.6616861820220947
0.5442971587181091 -0.02783120982348919 0.6574176549911499
0.5435554385185242 -0.027751758694648743 0.6570168733596802
0.5412799119949341 -0.02756235934793949 0.6557546854019165
0.5398887395858765 -0.02618303708732128 0.6557474136352539
0.5394946336746216 -0.025632107630372047 0.6558424234390259
0.5329288840293884 -0.022414829581975937 0.6538163423538208
0.5324639081954956 -0.02194971777498722 0.6538163423538208
0.5206204652786255 -0.025952041149139404 0.6442282795906067
0.5739848613739014 -0.07526113837957382 0.6457958817481995
0.577607274055481 -0.06592189520597458 0.653661847114563
0.5777504444122314 -0.06304432451725006 0.6554948091506958
0.5783504247665405 -0.06066139042377472 0.6573050618171692
0.5789424777030945 -0.058308590203523636 0.6590921878814697
0.5778679847717285 -0.05017304793000221 0.6633772850036621
0.5774975419044495 -0.049586523324251175 0.663508415222168
0.579160213470459 -0.04427764192223549 0.66773921251297
0.578717827796936 -0.043835174292325974 0.66773921251297
0.5778417587280273 -0.042935121804475784 0.6677537560462952
0.5765236020088196 -0.041592974215745926 0.6677682399749756
0.5756478309631348 -0.040693119168281555 0.6677828431129456
0.5747275352478027 -0.03986750543117523 0.6677254438400269
0.5738085508346558 -0.03903835266828537 0.6676709651947021
0.5723782181739807 -0.037877313792705536 0.667507529258728
0.5659710764884949 -0.03767821937799454 0.6637400388717651
0.5602010488510132 -0.033990953117609024 0.6624761819839478
0.5597847104072571 -0.03125531226396561 0.6638838052749634
0.5567043423652649 -0.02803127095103264 0.6639710068702698
0.5562560558319092 -0.027582896873354912 0.6639710068702698
0.5520835518836975 -0.025886088609695435 0.6624686121940613
0.550784707069397 -0.025534311309456825 0.661893904209137
0.5424538850784302 -0.02716781571507454 0.6558467149734497
0.5379368662834167 -0.023492004722356796 0.6553363800048828
0.5367385149002075 -0.021867826581001282 0.6555947065353394
0.535185694694519 -0.021741537377238274 0.654728889465332
0.5311488509178162 -0.021565087139606476 0.6523863077163696
0.5301406383514404 -0.021768169477581978 0.6516512632369995
0.5291277766227722 -0.02197190932929516 0.6509129405021667
0.5276398062705994 -0.021707013249397278 0.650170624256134
0.5225776433944702 -0.026826433837413788 0.6439918875694275
0.5219634175300598 -0.026510028168559074 0.6438112854957581
0.5208680629730225 -0.025713223963975906 0.6436298489570618
0.5781273245811462 -0.06652109324932098 0.6527484059333801
0.5787281394004822 -0.06410104781389236 0.654586911201477
0.5782659649848938 -0.06363888829946518 0.654586911201477
0.5800382494926453 -0.056554682552814484 0.65997713804245
0.580613911151886 -0.05425161495804787 0.6617292761802673
0.5801629424095154 -0.053800519555807114 0.6617292761802673
0.5807339549064636 -0.051528576761484146 0.6634597778320312
0.5701113939285278 -0.035905297845602036 0.666503369808197
0.5696678757667542 -0.035461775958538055 0.666503369808197
0.5686798691749573 -0.03587684407830238 0.6656494140625
0.5665503740310669 -0.03692556917667389 0.6637150049209595
0.5604369044303894 -0.03377383202314377 0.6619123220443726
0.5599862337112427 -0.03332313150167465 0.6619123220443726
0.5581521987915039 -0.02825111150741577 0.6638830304145813
0.5479515790939331 -0.024154702201485634 0.6601678729057312
0.5474979281425476 -0.023701166734099388 0.6601678729057312
0.5380006432533264 -0.023490777239203453 0.6545155048370361
0.5348008275032043 -0.02125360444188118 0.6539297103881836
0.5792473554611206 -0.06469520926475525 0.6536793112754822
0.5793787240982056 -0.06183744594454765 0.6555039286613464
0.5799676179885864 -0.05946841463446617 0.6573092937469482
0.5816879868507385 -0.052539099007844925 0.6625892519950867
0.5781369805335999 -0.05011032894253731 0.6619041562080383
0.5776633620262146 -0.049701422452926636 0.6618645191192627
0.5761025547981262 -0.04749169200658798 0.6622608304023743
0.5703776478767395 -0.0356411412358284 0.6659999489784241
0.5672438144683838 -0.035993993282318115 0.6638715863227844
0.5643691420555115 -0.0358804315328598 0.6621861457824707
0.5632866621017456 -0.03526172414422035 0.6619031429290771
0.5617513656616211 -0.03419143334031105 0.6616190671920776
0.5589463114738464 -0.031639665365219116 0.6614646315574646
0.5584186911582947 -0.027986828237771988 0.6633723974227905
0.5533440709114075 -0.025421781465411186 0.661840558052063
0.5490004420280457 -0.02389669418334961 0.6601199507713318
0.5483144521713257 -0.02376064658164978 0.6597842574119568
0.5478609800338745 -0.023307306692004204 0.6597842574119568
0.5420219898223877 -0.025778157636523247 0.6547119617462158
0.5412700772285461 -0.025700926780700684 0.6542999148368835
0.5404964685440063 -0.025648916140198708 0.6538594365119934
0.5397232174873352 -0.02559366449713707 0.65342116355896
0.5380756258964539 -0.02347586303949356 0.653708279132843
0.5376812219619751 -0.022925138473510742 0.6538037061691284
0.5368354916572571 -0.021898159757256508 0.653914213180542
0.5321831703186035 -0.02041780948638916 0.6519781947135925
0.528853178024292 -0.020350465551018715 0.6499865651130676
0.5188952684402466 -0.023962032049894333 0.641703724861145
0.5803561210632324 -0.06288705766201019 0.6546006798744202
0.5816313624382019 -0.055389996618032455 0.6599709987640381
0.5821951031684875 -0.053102537989616394 0.6617164611816406
0.5824888944625854 -0.05131610482931137 0.6629900336265564
0.5791610479354858 -0.04975919798016548 0.6619058847427368
0.5761836171150208 -0.04754693806171417 0.6614373922348022
0.5758135914802551 -0.046960752457380295 0.6615697741508484
0.5778409242630005 -0.04230561852455139 0.665660560131073
0.5774016976356506 -0.0418548509478569 0.665667712688446
0.5756421089172363 -0.0400589294731617 0.6656899452209473
0.5752032399177551 -0.03960804268717766 0.6656972765922546
0.5738652944564819 -0.03829163312911987 0.665684163570404
0.5733879208564758 -0.03790387138724327 0.6656292080879211
0.5719890594482422 -0.036684535443782806 0.6655192971229553
0.5679451823234558 -0.03504938259720802 0.6640446782112122
0.5645855069160461 -0.03569478169083595 0.6615929007530212
0.5585205554962158 -0.029062770307064056 0.6619400382041931
0.5552786588668823 -0.02605780027806759 0.6617949604988098
0.5546745657920837 -0.025826655328273773 0.6615667343139648
0.5506186485290527 -0.02392609976232052 0.6602470874786377
0.5443549752235413 -0.025983283296227455 0.6551533937454224
0.5344457626342773 -0.019753573462367058 0.6529006361961365
0.533565104007721 -0.019810568541288376 0.6523268222808838
0.5326806902885437 -0.01986812613904476 0.6517499685287476
0.5317932367324829 -0.019925691187381744 0.6511716246604919
0.5209957361221313 -0.024678168818354607 0.6416521072387695
0.5802885890007019 -0.06588947772979736 0.6518548727035522
0.58087557554245 -0.06347711384296417 0.6536962985992432
0.5795937180519104 -0.06190731003880501 0.6538732647895813
0.5821421146392822 -0.05596134811639786 0.6590884327888489
0.5819554328918457 -0.04998897761106491 0.6626408696174622
0.5806297659873962 -0.04985778033733368 0.6619073748588562
0.5622060894966125 -0.033783670514822006 0.6604647636413574
0.5595776438713074 -0.03208636865019798 0.6598930954933167
0.5590265989303589 -0.031781233847141266 0.6597420573234558
0.5577717423439026 -0.026973139494657516 0.6619236469268799
0.5509307384490967 -0.0235996562987566 0.6597948670387268
0.5432576537132263 -0.02539343386888504 0.653982400894165
0.5386207103729248 -0.02399829775094986 0.6519920825958252
0.5300430655479431 -0.019022062420845032 0.6497809290885925
0.5200100541114807 -0.023801280185580254 0.6406864523887634
0.5813962817192078 -0.06406925618648529 0.6527894139289856
0.5831078290939331 -0.05698699876666069 0.6582042574882507
0.5830862522125244 -0.051932092756032944 0.6613035798072815
0.5823071002960205 -0.04957429692149162 0.6622756123542786
0.5771915316581726 -0.04865782707929611 0.6596900224685669
0.5763466954231262 -0.04765754193067551 0.6597857475280762
0.5759757161140442 -0.04707001894712448 0.6599192023277283
0.569504976272583 -0.03405299037694931 0.6639500260353088
0.5690252184867859 -0.03366352990269661 0.6638943552970886
0.5678311586380005 -0.03324894234538078 0.6634142994880676
0.562433660030365 -0.0335797518491745 0.6598871946334839
0.561890184879303 -0.03326863795518875 0.6597440242767334
0.5576918721199036 -0.030522003769874573 0.6588501930236816
0.5578467845916748 -0.029187150299549103 0.6597674489021301
0.5580271482467651 -0.02782260626554489 0.6607188582420349
0.5564063787460327 -0.02577204816043377 0.6609835624694824
0.5529571771621704 -0.024128105491399765 0.6598717570304871
0.5523434281349182 -0.02390299178659916 0.6596325635910034
0.5475175380706787 -0.021927600726485252 0.6578773260116577
0.5401744842529297 -0.02419411949813366 0.6519600749015808
0.5379048585891724 -0.02287871204316616 0.651372492313385
0.5370457172393799 -0.02186286263167858 0.6514689326286316
0.5358733534812927 -0.020194625481963158 0.6517742872238159
0.5355042219161987 -0.019612828269600868 0.6519055366516113
0.5196399688720703 -0.023241927847266197 0.6399020552635193
0.5821604132652283 -0.06288687884807587 0.6531262397766113
0.5826155543327332 -0.04923669248819351 0.6618370413780212
0.5782198309898376 -0.04830831661820412 0.6596958041191101
0.5753153562545776 -0.045950278639793396 0.6593583822250366
0.5769246220588684 -0.0408293679356575 0.6635144352912903
0.576076090335846 -0.039873771369457245 0.6635807156562805
0.5756363868713379 -0.03942204639315605 0.6635881066322327
0.573872983455658 -0.037622734904289246 0.6636101603507996
0.5720427632331848 -0.03593186289072037 0.6635241508483887
0.5715638995170593 -0.035542868077754974 0.663468599319458
0.5663902759552002 -0.033354394137859344 0.6616250872612
0.5653099417686462 -0.03387995436787605 0.6606334447860718
0.5643023252487183 -0.034286875277757645 0.6597599387168884
