ply
format ascii 1.0
element vertex 808
property float x
property float y
property float z
end_header
0.5293231010437012 0.004740309901535511 0.675423264503479
0.5303720831871033 0.0008335185120813549 0.6773214340209961
0.5314797163009644 -0.0007104204269126058 0.677948534488678
0.5321642756462097 -0.003272725036367774 0.679193913936615
0.5325046181678772 -0.004544188268482685 0.679812490940094
0.5343024134635925 -0.008489269763231277 0.6815977096557617
0.5368537902832031 -0.008535526692867279 0.681168794631958
0.5386291742324829 -0.008402103558182716 0.6807816028594971
0.5402933955192566 -0.008538523688912392 0.6805583238601685
0.5421198010444641 -0.008308467455208302 0.680110514163971
0.5523509383201599 0.011058307252824306 0.6679553389549255
0.5542094111442566 0.011164970695972443 0.667567789554596
0.5563570261001587 0.011907339096069336 0.6667895317077637
0.5603959560394287 0.012763128615915775 0.6656143665313721
0.5625756978988647 0.013515080325305462 0.6648252606391907
0.564469039440155 0.01362634263932705 0.6644296050071716
0.5708757638931274 0.015426216647028923 0.6623293161392212
0.5743057727813721 0.01673411950469017 0.6610208749771118
0.4998897910118103 0.07897686213254929 0.6399953365325928
0.49824079871177673 0.06987036764621735 0.6451665163040161
0.5004677176475525 0.0647134929895401 0.6475301384925842
0.5019474029541016 0.06344644725322723 0.6479445099830627
0.5033235549926758 0.06495586782693863 0.6468902230262756
0.5041695237159729 0.06467388570308685 0.6468902230262756
0.5067182183265686 0.06693578511476517 0.6452248096466064
0.5090939402580261 0.06856763362884521 0.6439266204833984
0.5110988616943359 0.0689539685845375 0.6433619260787964
0.5134141445159912 0.07030487060546875 0.6422255635261536
0.5145100355148315 0.07076900452375412 0.6417810916900635
0.520523190498352 0.013607338070869446 0.6713162660598755
0.5235757231712341 0.007794997189193964 0.6738837361335754
0.5244301557540894 0.0077584171667695045 0.6737504005432129
0.5260570049285889 0.007464551366865635 0.6736177802085876
0.5282865166664124 0.006476968061178923 0.6737488508224487
0.5296548008918762 0.00332284951582551 0.6751933097839355
0.5300050377845764 0.0020200349390506744 0.6758283972740173
0.5318049192428589 -0.0021059676073491573 0.6777164340019226
0.5335806608200073 -0.006174884736537933 0.6795786023139954
0.5417360067367554 -0.009278399869799614 0.6797845959663391
0.5507658123970032 0.009407736361026764 0.6681669354438782
0.5518284440040588 0.009774337522685528 0.6677809357643127
0.5526161193847656 0.009511786513030529 0.6677809357643127
0.558771014213562 0.011092942208051682 0.6658356189727783
0.560938835144043 0.01183747872710228 0.6650505065917969
0.5628232359886169 0.01194590050727129 0.6646555662155151
0.5650113821029663 0.01269632950425148 0.6638631224632263
0.5661100149154663 0.013072684407234192 0.6634654998779297
0.5680124759674072 0.013183576054871082 0.6630670428276062
0.5702331066131592 0.013954167254269123 0.6622578501701355
0.5714478492736816 0.014550238847732544 0.6617214679718018
0.5726771354675293 0.01516937930136919 0.6611708998680115
0.5748845934867859 0.015865197405219078 0.6604041457176208
0.5763332843780518 0.016916831955313683 0.6595824956893921
0.49773332476615906 0.07144045829772949 0.6433826088905334
0.4991249740123749 0.06653772294521332 0.6457678079605103
0.502465546131134 0.06525003910064697 0.6458615660667419
0.5037329196929932 0.06638060510158539 0.6450273990631104
0.5045819282531738 0.06609760969877243 0.6450273990631104
0.5071418285369873 0.06837531924247742 0.6433447003364563
0.5114586353302002 0.07014410942792892 0.6416214108467102
0.5126182436943054 0.07082270085811615 0.6410490274429321
0.5212392807006836 0.010790529660880566 0.6717591881752014
0.5220138430595398 0.010532339103519917 0.6717591881752014
0.5281051397323608 0.005957139655947685 0.673126220703125
0.5299856066703796 0.0019102608785033226 0.6749639511108398
0.5303342342376709 0.0006129370885901153 0.6755982041358948
0.5321287512779236 -0.003496629884466529 0.6774846911430359
0.5342337489128113 -0.008803888224065304 0.6799595355987549
0.5345662832260132 -0.010053427889943123 0.680571436882019
0.5361687541007996 -0.010311204008758068 0.6804226040840149
0.5379834771156311 -0.010077224113047123 0.6799723505973816
0.5388644933700562 -0.010026219300925732 0.6797869205474854
0.540499746799469 -0.010225936770439148 0.6796014308929443
0.5422688722610474 -0.010124051943421364 0.6792299151420593
0.5542251467704773 0.00896485149860382 0.666832685470581
0.556367039680481 0.00969901867210865 0.6660541892051697
0.5582341551780701 0.009803983382880688 0.6656633615493774
0.5644585490226746 0.011395016685128212 0.6636943221092224
0.5674582719802856 0.011890805326402187 0.6628903150558472
0.5708720684051514 0.013222754932940006 0.6615633368492126
0.5720975399017334 0.013837694190442562 0.6610137820243835
0.5755137205123901 0.015101651661098003 0.6597225069999695
0.4981590807437897 0.06972652673721313 0.6431953310966492
0.5006158947944641 0.06533826887607574 0.6451194286346436
0.5028774738311768 0.06669514626264572 0.6439816355705261
0.5041449666023254 0.0678153932094574 0.6431501507759094
0.5074984431266785 0.06959452480077744 0.6415882110595703
0.5086478590965271 0.07026990503072739 0.6410175561904907
0.5118212699890137 0.07134392857551575 0.6398685574531555
0.5223569869995117 0.00908175203949213 0.6715406179428101
0.5237137079238892 0.005782993510365486 0.6730749607086182
0.5244826674461365 0.005526678171008825 0.6730749607086182
0.5260607004165649 0.005117848981171846 0.6730116009712219
0.5297253727912903 0.0033801179379224777 0.6732898950576782
0.5314251184463501 -0.0010435369331389666 0.6753690838813782
0.5324516296386719 -0.004882958717644215 0.677254855632782
0.5335464477539062 -0.0064022121950984 0.6778767704963684
0.5345500111579895 -0.010168062523007393 0.6797268986701965
0.5526363849639893 0.0073245917446911335 0.6670466065406799
0.5558369755744934 0.008417174220085144 0.665882408618927
0.5566258430480957 0.008154202252626419 0.665882408618927
0.5609384775161743 0.009623587131500244 0.6643152832984924
0.5628184080123901 0.009728541597723961 0.6639214158058167
0.5639287829399109 0.010143750347197056 0.6634976267814636
0.5680756568908691 0.01112344954162836 0.6622242331504822
0.5691969990730286 0.011535498313605785 0.6618004441261292
0.5703216791152954 0.011949047446250916 0.6613757610321045
0.5748708844184875 0.01365088764578104 0.6596406698226929
0.5762146711349487 0.014485667459666729 0.6589491963386536
0.5806424021720886 0.02161768078804016 0.6543089151382446
0.49632421135902405 0.07323671877384186 0.6405941843986511
0.49765080213546753 0.07129845023155212 0.6414034962654114
0.4991494417190552 0.06675226241350174 0.6435924768447876
0.5008516311645508 0.06620275974273682 0.6435828804969788
0.5033128261566162 0.06821992993354797 0.6420477628707886
0.5045599937438965 0.06926068663597107 0.6412593722343445
0.5066977739334106 0.07010959088802338 0.6404150128364563
0.507847249507904 0.07078711688518524 0.6398411989212036
0.5090015530586243 0.0714692547917366 0.6392644047737122
0.522698700428009 0.007636661641299725 0.6713222861289978
0.525636613368988 0.0039688111282885075 0.6727768778800964
0.5264890789985657 0.003930529113858938 0.6726434230804443
0.5299471020698547 0.001689787837676704 0.6732320189476013
0.5302962064743042 0.0003915653796866536 0.6738715171813965
0.5317510366439819 -0.0024409915786236525 0.675141453742981
0.5320934057235718 -0.003721197135746479 0.6757723689079285
0.5363713502883911 -0.012010283768177032 0.6794844269752502
0.5389463305473328 -0.01200047880411148 0.6790146827697754
0.5542415380477905 0.006777273491024971 0.6660996675491333
0.5553085803985596 0.0071401516906917095 0.665711522102356
0.5560960173606873 0.006877688225358725 0.665711522102356
0.5582404136657715 0.007605292834341526 0.6649307608604431
0.5645474791526794 0.009387556463479996 0.6628298163414001
0.5664549469947815 0.009529637172818184 0.6624088883399963
0.5675702095031738 0.009937897324562073 0.6619873046875
0.5729659795761108 0.011521459557116032 0.6601577997207642
0.5769478678703308 0.013936296105384827 0.6581335067749023
0.4962819218635559 0.07316693663597107 0.639599084854126
0.49807682633399963 0.0695812776684761 0.6412200331687927
0.5012291669845581 0.06755466014146805 0.6417500972747803
0.5024750232696533 0.06861160695552826 0.6409509181976318
0.5049857497215271 0.07074099779129028 0.6393412947654724
0.5223114490509033 0.008874442428350449 0.6697837114334106
0.5234007239341736 0.0048660458996891975 0.6717614531517029
0.524169385433197 0.004609818570315838 0.6717614531517029
0.5313884615898132 -0.0012666262919083238 0.6736450791358948
0.5324166417121887 -0.005108121316879988 0.6755439043045044
0.5341840982437134 -0.009148208424448967 0.6774171590805054
0.5404179096221924 -0.012655416503548622 0.6781927347183228
0.5413082838058472 -0.012586815282702446 0.677994430065155
0.5421913266181946 -0.012537292204797268 0.6778075695037842
0.5526566505432129 0.005148298107087612 0.6663159728050232
0.5537180304527283 0.0055077578872442245 0.6659289002418518
0.5547884702682495 0.0058817616663873196 0.6655322909355164
0.5599504709243774 0.007256724871695042 0.6638520359992981
0.5607410073280334 0.006993213668465614 0.6638520359992981
0.5629452466964722 0.0078064631670713425 0.6630116701126099
0.5681822896003723 0.0091635687276721 0.661328136920929
0.5704236626625061 0.009981345385313034 0.6604785919189453
0.5723938345909119 0.010214513167738914 0.6599957942962646
0.5749279260635376 0.011592844501137733 0.6587892174720764
0.5812221169471741 0.018654024228453636 0.6538180708885193
0.5756410360336304 -0.0037305422592908144 0.6669763326644897
0.5759098529815674 -0.005001697689294815 0.6676175594329834
0.5766027569770813 -0.0054327878169715405 0.6677263379096985
0.5780748128890991 -0.006123255006968975 0.667834997177124
0.5801210999488831 -0.005701941903680563 0.6672359704971313
0.49756789207458496 0.07115551829338074 0.6394183039665222
0.5015712976455688 0.06878524273633957 0.639982283115387
0.502812385559082 0.06981578469276428 0.6391963362693787
0.5052285194396973 0.07160785794258118 0.63778156042099
0.50608891248703 0.07132106274366379 0.63778156042099
0.5226536393165588 0.007427962031215429 0.6695681810379028
0.5245057344436646 0.0031803082674741745 0.6715449094772339
0.5256416201591492 0.001642832881771028 0.6721758842468262
0.5264914631843567 0.0016032826388254762 0.6720432639122009
0.5281082391738892 0.0013075832976028323 0.67191082239151
0.5303910970687866 0.0005012534093111753 0.6719357967376709
0.5317148566246033 -0.0026649574283510447 0.6734194755554199
0.5334959030151367 -0.006742911878973246 0.6753167510032654
0.5338323712348938 -0.00800629984587431 0.6759438514709473
0.5345011353492737 -0.01051418948918581 0.6771878600120544
0.5355834364891052 -0.012009712867438793 0.6778057813644409
0.5359123349189758 -0.013249131850898266 0.6784211993217468
0.552157998085022 0.003930516075342894 0.6661168336868286
0.5561909675598145 0.00488158967345953 0.6648674011230469
0.558373749256134 0.005695243366062641 0.664027750492096
0.5602572560310364 0.005836488679051399 0.6636087894439697
0.5646601319313049 0.007439713459461927 0.6619365215301514
0.5665640830993652 0.007578948047012091 0.661514937877655
0.5718362927436829 0.00893836934119463 0.6598180532455444
0.573017954826355 0.009458482265472412 0.6593203544616699
0.5756456255912781 0.011020424775779247 0.6579927206039429
0.5764502882957458 0.010752196423709393 0.6579927206039429
0.5716086626052856 -0.004634414333850145 0.6672505736351013
0.5717762112617493 -0.0061178007163107395 0.6680276989936829
0.572553277015686 -0.00637681083753705 0.6680276989936829
0.57467120885849 -0.007573259528726339 0.6682946085929871
0.5762841701507568 -0.007973242551088333 0.6682198643684387
0.5771209001541138 -0.008114400319755077 0.6681444644927979
0.578854501247406 -0.008284524083137512 0.6679230332374573
0.5807397365570068 -0.008169515058398247 0.667517900466919
0.49572136998176575 0.07469183951616287 0.6367816925048828
0.4961968958377838 0.07302641123533249 0.6376045942306519
0.4979940950870514 0.06943443417549133 0.6392403244972229
0.4986784756183624 0.0685567855834961 0.6395952701568604
0.5030349493026733 0.07062951475381851 0.6376695036888123
0.5054285526275635 0.07233143597841263 0.6363032460212708
0.506290853023529 0.0720440149307251 0.6363032460212708
0.5229950547218323 0.005986427888274193 0.6693537831306458
0.5248413681983948 0.0017557849641889334 0.6713289022445679
0.526068389415741 0.0004648658214136958 0.6718105673789978
0.5310009717941284 -0.0002073120849672705 0.6712794899940491
0.5320400595664978 -0.004058515187352896 0.6731945872306824
0.5341507792472839 -0.009378509595990181 0.6757165789604187
0.5362241864204407 -0.014600669033825397 0.6781924366950989
0.5371279716491699 -0.014485027641057968 0.6779643297195435
0.5387867093086243 -0.014606954529881477 0.6777290105819702
0.5406134724617004 -0.014351761899888515 0.67725670337677
0.5422796010971069 -0.014474020339548588 0.6770203709602356
0.5440686941146851 -0.014326312579214573 0.6766136884689331
0.5527725219726562 0.003196282312273979 0.6654546856880188
0.5546355843544006 0.003336950670927763 0.6650383472442627
0.5578942894935608 0.004540997091680765 0.6637873649597168
0.558983325958252 0.004936855286359787 0.6633725762367249
0.5630607008934021 0.005867987405508757 0.6621214151382446
0.5682881474494934 0.007211361546069384 0.6604351997375488
0.5701935291290283 0.007331771310418844 0.6600225567817688
0.571293294429779 0.007692211773246527 0.6596250534057617
0.5676043629646301 -0.005531598813831806 0.6675221920013428
0.5683807730674744 -0.00579041987657547 0.6675221920013428
0.5684497356414795 -0.0074826618656516075 0.6684342622756958
0.5698015093803406 -0.008391854353249073 0.6686848402023315
0.5705256462097168 -0.00874844565987587 0.668748140335083
0.5721304416656494 -0.00914695579558611 0.6686732769012451
0.5746582746505737 -0.009512705728411674 0.6684126853942871
0.49567803740501404 0.07462184131145477 0.6357799768447876
0.4974844753742218 0.07101070135831833 0.6374297738075256
0.49999433755874634 0.06994231045246124 0.6375563740730286
0.500851035118103 0.06965675204992294 0.6375563740730286
0.5044705271720886 0.07234877347946167 0.6354195475578308
0.5241051912307739 0.004293384961783886 0.669139564037323
0.5244637727737427 0.002969195134937763 0.6698001027107239
0.5257875919342041 -0.00030870886985212564 0.6713553071022034
0.5265516042709351 -0.0005633770488202572 0.6713553071022034
0.5281580090522766 -0.0008749939734116197 0.6712323427200317
0.5316785573959351 -0.002889718161895871 0.6716935634613037
0.5334619879722595 -0.006971059832721949 0.6736049056053162
0.534468412399292 -0.010745702311396599 0.6754902601242065
0.5563302636146545 0.0029921894893050194 0.6639642715454102
0.558499813079834 0.0037779477424919605 0.6631368398666382
0.560377299785614 0.003910320345312357 0.6627216339111328
0.5625686049461365 0.004702726379036903 0.6618863940238953
0.5644592642784119 0.004835216794162989 0.6614688634872437
0.5666297078132629 0.0055450075305998325 0.6606826782226562
0.5688119530677795 0.006258394569158554 0.6598929166793823
0.5696073770523071 0.005993250757455826 0.6598929166793823
0.5644512176513672 -0.008429660461843014 0.6687417030334473
0.5664620995521545 -0.009815948083996773 0.6691344380378723
0.5671836733818054 -0.010170490480959415 0.6691968441009521
0.5680112838745117 -0.010310904122889042 0.6691227555274963
0.5703744292259216 -0.010975651443004608 0.669055163860321
0.5721760392189026 -0.010973416268825531 0.6687248349189758
0.5747669339179993 -0.011203032918274403 0.6683772206306458
0.5765936374664307 -0.011171190068125725 0.6680259108543396
0.5775724649429321 -0.011032018810510635 0.6677706837654114
0.5785512328147888 -0.010896141640841961 0.6675171852111816
0.5803053379058838 -0.011021319776773453 0.6672654151916504
0.49611133337020874 0.07288364320993423 0.6356070637702942
0.5002129673957825 0.07076619565486908 0.6360191106796265
0.5022737383842468 0.0713689774274826 0.6353104710578918
0.5034833550453186 0.07227019965648651 0.6345923542976379
0.5247998833656311 0.0015435850946232677 0.669586718082428
0.5320042371749878 -0.004284672439098358 0.671471357345581
0.533782422542572 -0.008349391631782055 0.6733810305595398
0.5355363488197327 -0.012358750216662884 0.6752651929855347
0.5365203022956848 -0.016064979135990143 0.677122950553894
0.5380744338035583 -0.01642017439007759 0.6770331263542175
0.5408084392547607 -0.016042647883296013 0.6763242483139038
0.5424720048904419 -0.01616617664694786 0.676087498664856
0.5433885455131531 -0.01603984646499157 0.675849974155426
0.5443069934844971 -0.01591305248439312 0.6756117343902588
0.5529205799102783 0.001325317774899304 0.66455078125
0.5547759532928467 0.0014531795168295503 0.6641401052474976
0.5558534264564514 0.0018419822445139289 0.663728654384613
0.5620230436325073 0.003424030728638172 0.6617273092269897
0.5649700164794922 0.003864050842821598 0.6609450578689575
0.5604814887046814 -0.009369203820824623 0.6690465807914734
0.5610266923904419 -0.010091006755828857 0.6693441271781921
0.562382698059082 -0.01097274199128151 0.6695799827575684
0.5647113919258118 -0.011682692915201187 0.6695439219474792
0.5662468075752258 -0.012191200628876686 0.6695418357849121
0.5680409669876099 -0.01218040194362402 0.6692075133323669
0.5705956220626831 -0.012450681068003178 0.6688875555992126
0.5723987221717834 -0.012441077269613743 0.6685518622398376
0.5741181969642639 -0.012602770701050758 0.6683250665664673
0.5760661363601685 -0.01232802215963602 0.6678171157836914
0.578016459941864 -0.012061037123203278 0.667312502861023
0.5821244716644287 -0.011171898804605007 0.6660703420639038
0.4951130449771881 0.0761609748005867 0.6329337358474731
0.49559178948402405 0.07448194921016693 0.6337720155715942
0.49740099906921387 0.0708666518330574 0.6354345679283142
0.4981372058391571 0.07015251368284225 0.6356927752494812
0.5004329681396484 0.07159492373466492 0.6344743967056274
0.5024973750114441 0.07219546288251877 0.633763313293457
0.5267545580863953 -0.0023568037431687117 0.6704446077346802
0.528305172920227 -0.0028011018875986338 0.670403778553009
0.5308856964111328 -0.00284201349131763 0.6699519753456116
0.5319860577583313 -0.004398082382977009 0.670608401298523
0.5334280133247375 -0.0071990941651165485 0.6718887090682983
0.5341014862060547 -0.009723047725856304 0.6731580495834351
0.5344358086585999 -0.01097685657441616 0.6737881302833557
0.5361788868904114 -0.014951841905713081 0.6756614446640015
0.540449321269989 -0.016948780044913292 0.6759774088859558
0.5532313585281372 -7.639502291567624e-05 0.664315402507782
0.5564113259315491 0.0009840105194598436 0.6631450057029724
0.5582561492919922 0.0010678644757717848 0.6627591252326965
0.5603892803192139 0.0017609047936275601 0.661984384059906
0.5565404295921326 -0.010302296839654446 0.6693497896194458
0.5583364367485046 -0.012120372615754604 0.6700226664543152
0.5606239438056946 -0.012892575934529305 0.6700284481048584
0.5621540546417236 -0.01339650060981512 0.6700249314308167
0.5630452036857605 -0.01338964607566595 0.6698570847511292
0.5647050738334656 -0.013632417656481266 0.669685959815979
0.5745678544044495 -0.013616994023323059 0.6678627729415894
0.5804346203804016 -0.012787612155079842 0.666326105594635
0.4950689375400543 0.07609080523252487 0.6319245100021362
0.4960257112979889 0.07274200767278671 0.63360196352005
0.49945417046546936 0.07153933495283127 0.6336355805397034
0.5006538033485413 0.07242746651172638 0.6329218745231628
0.5247577428817749 0.0013288637856021523 0.6678411960601807
0.5254678130149841 -0.0012938192812725902 0.6691626310348511
0.5262320637702942 -0.001548571977764368 0.6691626310348511
0.5265827775001526 -0.0028504589572548866 0.6698185205459595
0.5288392305374146 -0.0036896823439747095 0.6698663830757141
0.5320679545402527 -0.004267033189535141 0.6695906519889832
0.5337488651275635 -0.008578919805586338 0.6716676354408264
0.5355050563812256 -0.012591785751283169 0.6735658645629883
0.5364905595779419 -0.016299724578857422 0.6754364967346191
0.5382726788520813 -0.018100665882229805 0.6761049032211304
0.5391812324523926 -0.017976652830839157 0.6758687496185303
0.5408414602279663 -0.018093213438987732 0.675626814365387
0.5445757508277893 -0.01742636412382126 0.674568235874176
0.5537556409835815 -0.0010001001646742225 0.6637784242630005
0.5548083186149597 -0.000659041223116219 0.6633955836296082
0.5567998886108398 -0.00024042419681791216 0.6627959609031677
0.553390383720398 -0.01148279383778572 0.669650673866272
0.5537564754486084 -0.012589014135301113 0.6701954007148743
0.5543234348297119 -0.013258442282676697 0.6704613566398621
0.5565719604492188 -0.014089856296777725 0.6705069541931152
0.5580976009368896 -0.014587456360459328 0.6705008745193481
0.5606280565261841 -0.01483392994850874 0.6701699495315552
0.5623508095741272 -0.014932670630514622 0.6699066758155823
0.5648891925811768 -0.0151854632422328 0.6695784330368042
0.5667352676391602 -0.015052241273224354 0.6691638827323914
0.568455159664154 -0.015180438756942749 0.6689172387123108
0.570455014705658 -0.014762713573873043 0.6683170199394226
0.5724678039550781 -0.014333751052618027 0.6677078604698181
0.5742508769035339 -0.014367298223078251 0.6673973202705383
0.5801291465759277 -0.013507244177162647 0.6658362746238708
0.5823619961738586 -0.012731615453958511 0.6649948954582214
0.4955051839351654 0.07434167712926865 0.6317580342292786
0.4959830343723297 0.07267072051763535 0.6325984001159668
0.4974852502346039 0.07131651788949966 0.6330719590187073
0.4996727406978607 0.07237187772989273 0.6320807337760925
0.5250933170318604 -9.218431659974158e-05 0.6676307916641235
0.527001678943634 -0.004030025098472834 0.6694648861885071
0.5284919738769531 -0.004620241932570934 0.669516921043396
0.5301344394683838 -0.004831470549106598 0.6693297624588013
0.5340683460235596 -0.009954188950359821 0.6714475154876709
0.5361480116844177 -0.01518747303634882 0.6739698052406311
0.5379315614700317 -0.018970241770148277 0.6757408976554871
0.5388543009757996 -0.01881125569343567 0.6754816770553589
0.5423895716667175 -0.01856156252324581 0.6746886968612671
0.544258713722229 -0.018227312713861465 0.6741566061973572
0.5530422925949097 -0.0026743446942418814 0.6638897061347961
0.5495021343231201 -0.012401887215673923 0.6699492335319519
0.5497739911079407 -0.01372191496193409 0.6706323623657227
0.5503425002098083 -0.014387309551239014 0.6708967089653015
0.5525538921356201 -0.015277125872671604 0.6709814667701721
0.554077684879303 -0.015762891620397568 0.6709690093994141
0.5548351407051086 -0.016015376895666122 0.6709690093994141
0.5565699934959412 -0.01605827547609806 0.6706720590591431
0.5582810640335083 -0.016157986596226692 0.6704102754592896
0.560802698135376 -0.01641341857612133 0.6700851917266846
0.561718225479126 -0.016347788274288177 0.6698794364929199
0.562650203704834 -0.016251731663942337 0.6696532964706421
0.564399778842926 -0.01629827544093132 0.6693549156188965
0.5701496005058289 -0.015494965016841888 0.6678441166877747
0.5770094394683838 -0.014406680129468441 0.6659693121910095
0.5788056254386902 -0.014436790719628334 0.6656530499458313
0.5826587677001953 -0.014031554572284222 0.6647145748138428
0.49498146772384644 0.07595226913690567 0.6299018859863281
0.49593985080718994 0.07259964197874069 0.6315922737121582
0.49680203199386597 0.07231224328279495 0.6315922737121582
0.49755972623825073 0.07165570557117462 0.6318175792694092
0.4986734688282013 0.07225408405065536 0.6312773823738098
0.5261924862861633 -0.0017641435842961073 0.667421281337738
0.5330848693847656 -0.006154836621135473 0.6685878038406372
0.5337153673171997 -0.00880873017013073 0.6699500679969788
0.5340519547462463 -0.010069837793707848 0.6705905199050903
0.5354738831520081 -0.012824470177292824 0.6718620657920837
0.5358041524887085 -0.014067739248275757 0.6724933385848999
0.5364603400230408 -0.0165365319699049 0.6737477779388428
0.5430172085762024 -0.019172249361872673 0.6739983558654785
0.5446982383728027 -0.019258351996541023 0.6737344264984131
0.5472190380096436 -0.017509542405605316 0.6722910404205322
0.5483945608139038 -0.016835443675518036 0.6716967821121216
0.5500787496566772 -0.016954820603132248 0.6714502573013306
0.5525460243225098 -0.017272189259529114 0.6711690425872803
0.5660853981971741 -0.016605840995907784 0.6682819724082947
0.5670815110206604 -0.016394617035984993 0.6679795384407043
0.5688438415527344 -0.01643776148557663 0.6676760911941528
0.572634756565094 -0.016028303653001785 0.6667430996894836
0.5756841897964478 -0.015353664755821228 0.6658005118370056
0.5805553793907166 -0.014704333618283272 0.6645340323448181
0.49877509474754333 0.07268370687961578 0.6299622654914856
0.526523768901825 -0.003176069352775812 0.6672132611274719
0.5268735885620117 -0.004473857115954161 0.6678739786148071
0.5278836488723755 -0.006264235824346542 0.6686868071556091
0.5286435484886169 -0.006517525762319565 0.6686868071556091
0.5303176045417786 -0.006644838955253363 0.668445885181427
0.5340354442596436 -0.010185232385993004 0.669732928276062
0.5357887744903564 -0.014184686355292797 0.6716426610946655
0.5375184416770935 -0.01813013292849064 0.6735265254974365
0.5382955074310303 -0.02026279643177986 0.6745741963386536
0.5408819317817688 -0.020208656787872314 0.6740619540214539
0.5418055653572083 -0.020057231187820435 0.6738052368164062
0.5444058179855347 -0.02000255696475506 0.6732901334762573
0.5462666749954224 -0.01969805732369423 0.6727727055549622
0.5485201478004456 -0.01855461299419403 0.6717133522033691
0.5501528382301331 -0.018776949495077133 0.6715328693389893
0.552734911441803 -0.018836235627532005 0.6710843443870544
0.5544569492340088 -0.018884912133216858 0.6707908511161804
0.556399941444397 -0.018478842452168465 0.6702016592025757
0.5573742389678955 -0.01827547699213028 0.6699061393737793
0.5581308007240295 -0.018527669832110405 0.6699061393737793
0.5600878000259399 -0.018119685351848602 0.6693131923675537
0.5657854080200195 -0.017333071678876877 0.6678117513656616
0.5705589056015015 -0.016712134703993797 0.666574239730835
0.5733489394187927 -0.016520565375685692 0.6659473180770874
0.574364185333252 -0.016296828165650368 0.6656325459480286
0.5771718621253967 -0.016103697940707207 0.6650014519691467
0.5813063383102417 -0.01514583732932806 0.6636949181556702
0.5820797085762024 -0.015403621830046177 0.6636949181556702
0.4959258437156677 0.07271468639373779 0.6294195055961609
0.4967896640300751 0.07242675125598907 0.6294195055961609
0.530848503112793 -0.0075288391672074795 0.6679109930992126
0.5325167179107666 -0.0076769376173615456 0.6676821708679199
0.5361024737358093 -0.015540695749223232 0.6714237928390503
0.538148820400238 -0.020685793831944466 0.6739280223846436
0.5424491763114929 -0.020629145205020905 0.6730919480323792
0.5469142198562622 -0.020269334316253662 0.6720551252365112
0.5478559136390686 -0.020100437104701996 0.671784520149231
0.5486055612564087 -0.020350320264697075 0.671784520149231
0.5625173449516296 -0.018684541806578636 0.6682478189468384
0.5635045170783997 -0.01847655139863491 0.667946457862854
0.5644940733909607 -0.01826825737953186 0.667644739151001
0.5672484636306763 -0.018089942634105682 0.6670288443565369
0.5712712407112122 -0.017203439027071 0.665779173374176
0.5789437890052795 -0.016316883265972137 0.6638466119766235
0.581807017326355 -0.016057657077908516 0.6631659865379333
0.49533164501190186 0.07406071573495865 0.6277146339416504
0.49782225489616394 0.07281262427568436 0.6279496550559998
0.5264841914176941 -0.0033950747456401587 0.6654719114303589
0.5275301933288574 -0.00727226072922349 0.6674578785896301
0.5282896161079407 -0.00752540398389101 0.6674578785896301
0.5288905501365662 -0.008170289918780327 0.6677085757255554
0.5304997563362122 -0.00845163781195879 0.667564868927002
0.5321709513664246 -0.008586954325437546 0.6673272252082825
0.5354267358779907 -0.013175610452890396 0.6692994236946106
0.5357577800750732 -0.014420007355511189 0.6699379682540894
0.5364153981208801 -0.01689176820218563 0.6712064146995544
0.5374892950057983 -0.018368801102042198 0.6718361377716064
0.5456957221031189 -0.021148739382624626 0.671860933303833
0.5502353310585022 -0.02067582681775093 0.6707427501678467
0.5521602630615234 -0.020275453105568886 0.6701562404632568
0.5538784265518188 -0.020325684919953346 0.669861912727356
0.5548468828201294 -0.020124778151512146 0.6695672869682312
0.5558170676231384 -0.01992368884384632 0.6692718863487244
0.5614627599716187 -0.019153738394379616 0.6677789688110352
0.5689603686332703 -0.018359437584877014 0.6659255027770996
0.5717389583587646 -0.018172256648540497 0.6652986407279968
0.575828492641449 -0.01722121424973011 0.6639957427978516
0.5765972137451172 -0.017477460205554962 0.6639957427978516
0.5825729370117188 -0.0164734348654747 0.662309467792511
0.4959917366504669 0.07311688363552094 0.6270607113838196
0.5268154740333557 -0.004802227020263672 0.6652664542198181
0.5271645784378052 -0.006094742566347122 0.6659303307533264
0.5340629816055298 -0.010348480194807053 0.6670342683792114
0.5350784659385681 -0.012042084708809853 0.6677996516227722
0.536072313785553 -0.015776321291923523 0.6697216033935547
0.5384416580200195 -0.02213670127093792 0.6728677153587341
0.5400435924530029 -0.022371796891093254 0.6726988554000854
0.5428105592727661 -0.021923575550317764 0.6719247698783875
0.5435560941696167 -0.022172104567289352 0.6719247698783875
0.5444828271865845 -0.022022470831871033 0.6716662645339966
0.5509110689163208 -0.021192871034145355 0.669987142086029
0.5564977526664734 -0.020443273708224297 0.6685119271278381
0.5582277178764343 -0.020491212606430054 0.6682134866714478
0.5592057704925537 -0.020286286249756813 0.6679133176803589
0.5601857304573059 -0.020080778747797012 0.6676126718521118
0.5676628947257996 -0.01928960718214512 0.6657582521438599
0.5724667310714722 -0.018633991479873657 0.6644838452339172
0.5745314359664917 -0.01811734214425087 0.6638027429580688
0.576336145401001 -0.018114008009433746 0.6634616255760193
0.5823001265525818 -0.017126470804214478 0.6617806553840637
0.5282530188560486 -0.007746396120637655 0.6657260060310364
0.5298185348510742 -0.010256444104015827 0.6668523550033569
0.5307407975196838 -0.010107592679560184 0.6665939688682556
0.5324233174324036 -0.010211242362856865 0.6663351058959961
0.5363854169845581 -0.017128566280007362 0.6695058941841125
0.5381070375442505 -0.021045999601483345 0.6714009642601013
0.5406844019889832 -0.02294212393462658 0.6719881892204285
0.5460582971572876 -0.022439559921622276 0.670688271522522
0.5487092137336731 -0.02230456843972206 0.6701112985610962
0.5496666431427002 -0.022106897085905075 0.669818639755249
0.5579367280006409 -0.021208373829722404 0.6677472591400146
0.5626283288002014 -0.020614638924598694 0.6665247082710266
0.5646138191223145 -0.020180555060505867 0.6659035682678223
0.5656100511550903 -0.019962618127465248 0.6655919551849365
0.5663707256317139 -0.020216185599565506 0.6655919551849365
0.5722090005874634 -0.019267069175839424 0.6639513373374939
0.5781569480895996 -0.01822790317237377 0.6622387766838074
0.5791875720024109 -0.017992893233895302 0.6619112491607666
0.5802204012870789 -0.017757348716259003 0.6615830063819885
0.580991804599762 -0.018014490604400635 0.6615830063819885
0.5285788178443909 -0.009139331057667732 0.6655218601226807
0.5321044921875 -0.011053529568016529 0.6659420132637024
0.5344024896621704 -0.011753453873097897 0.665904700756073
0.535160481929779 -0.01200612261891365 0.665904700756073
0.5357113480567932 -0.014773259870707989 0.6673734784126282
0.5374464988708496 -0.018726060166954994 0.6692918539047241
0.5384143590927124 -0.022377831861376762 0.6711844801902771
0.5467252135276794 -0.022964827716350555 0.6699430346488953
0.550341010093689 -0.022623447701334953 0.6690636277198792
0.5520516037940979 -0.022676223888993263 0.6687697172164917
0.5549479126930237 -0.022078851237893105 0.6678808331489563
0.5559189915657043 -0.021875986829400063 0.6675817966461182
0.5566725134849548 -0.022127164527773857 0.6675817966461182
0.5633310079574585 -0.02110273763537407 0.6657374501228333
0.5681163668632507 -0.020410727709531784 0.6644372940063477
0.5701612830162048 -0.019900627434253693 0.6637595295906067
0.5709248781204224 -0.02015507034957409 0.6637595295906067
0.5778884887695312 -0.018876951187849045 0.6617134213447571
0.5789178013801575 -0.018643075600266457 0.6613853573799133
0.5827928185462952 -0.018195178359746933 0.6603963971138
0.5840052366256714 -0.017640404403209686 0.6598512530326843
0.5274543166160583 -0.007715722545981407 0.663990318775177
0.5282155871391296 -0.007969473488628864 0.663990318775177
0.5289033651351929 -0.010527716018259525 0.6653190851211548
0.5300880670547485 -0.011836805380880833 0.6658401489257812
0.5308443903923035 -0.012088784016668797 0.6658401489257812
0.5360260605812073 -0.01613185554742813 0.6671610474586487
0.5377562046051025 -0.020068814978003502 0.6690776348114014
0.538079023361206 -0.02128678560256958 0.6697111129760742
0.5401268601417542 -0.0243774875998497 0.6710844039916992
0.5427109003067017 -0.024331090971827507 0.670566976070404
0.544559895992279 -0.02403504215180874 0.6700462102890015
0.5454950332641602 -0.023869428783655167 0.6697739958763123
0.5536928176879883 -0.022993221879005432 0.6677156090736389
0.5583427548408508 -0.02241227775812149 0.6665003895759583
0.5603092312812805 -0.021984197199344635 0.6658821702003479
0.5610654354095459 -0.02223627083003521 0.6658821702003479
0.5620527863502502 -0.022021612152457237 0.6655721664428711
0.5678626298904419 -0.021039912477135658 0.6639077067375183
0.5688830018043518 -0.020786186680197716 0.6635690927505493
0.5727236270904541 -0.020276034250855446 0.6625478863716125
0.5748032331466675 -0.019734298810362816 0.6618435978889465
0.582520067691803 -0.01884666085243225 0.6598697900772095
0.5281970500946045 -0.008080696687102318 0.663120687007904
0.5298740863800049 -0.012428438290953636 0.6652887463569641
0.5323824286460876 -0.012607320211827755 0.6649124622344971
0.5356802940368652 -0.01500957552343607 0.6656586527824402
0.5374175310134888 -0.018965624272823334 0.6675910353660583
0.5383867025375366 -0.02262013405561447 0.6694973707199097
0.5394501090049744 -0.024074692279100418 0.6701270937919617
0.543352484703064 -0.02490157261490822 0.669855535030365
0.5442771911621094 -0.024753469973802567 0.6695943474769592
0.5461643934249878 -0.024385809898376465 0.6690239906311035
0.5488166809082031 -0.024244818836450577 0.6684374809265137
0.5507307052612305 -0.02385389618575573 0.6678487062454224
0.5514798760414124 -0.024103615432977676 0.6678487062454224
0.559040367603302 -0.022898606956005096 0.6657165884971619
0.5655774474143982 -0.022172225639224052 0.6640544533729553
0.5724820494651794 -0.020876990631222725 0.661996066570282
0.574537456035614 -0.020380251109600067 0.661320149898529
0.5763266086578369 -0.020404431968927383 0.6609920263290405
0.5812124013900757 -0.019731391221284866 0.6596752405166626
0.5288676023483276 -0.01075141690671444 0.6635878682136536
0.5339206457138062 -0.01313246414065361 0.6639876961708069
0.5346781015396118 -0.013384985737502575 0.6639876961708069
0.5359957218170166 -0.01636911742389202 0.6654490232467651
0.5377281308174133 -0.020309049636125565 0.6673794388771057
0.5394366383552551 -0.02419673651456833 0.6692845225334167
0.5404882431030273 -0.025662487372756004 0.6699243783950806
0.5485341548919678 -0.0249555092304945 0.6679787039756775
0.5521581172943115 -0.024613486602902412 0.6670892834663391
0.5540977120399475 -0.02419276162981987 0.6664759516716003
0.5567984580993652 -0.024021470919251442 0.6658609509468079
0.5577866435050964 -0.023788822814822197 0.6655386090278625
0.5635569095611572 -0.022795945405960083 0.6638640761375427
0.5645673274993896 -0.022545229643583298 0.6635268926620483
0.5663397908210754 -0.02254740335047245 0.6631885766983032
0.5683744549751282 -0.0220439825206995 0.6625105142593384
0.5701577067375183 -0.02204531617462635 0.6621695756912231
0.5711956024169922 -0.021766094490885735 0.6618109345436096
0.5781107544898987 -0.020587865263223648 0.6598114371299744
0.5809413194656372 -0.02038036473095417 0.6591503024101257
0.5842298865318298 -0.01935349777340889 0.6579315662384033
0.5291916131973267 -0.01213603001087904 0.6633878350257874
0.5309550166130066 -0.014118111692368984 0.6641908288002014
0.5327165722846985 -0.014022025279700756 0.6637973189353943
0.5343860983848572 -0.014154993928968906 0.6635538935661316
0.5363098382949829 -0.01772444322705269 0.6652399301528931
0.5373886227607727 -0.01920562982559204 0.6658861041069031
0.5380371809005737 -0.02164858765900135 0.6671684980392456
0.5383591651916504 -0.022862372919917107 0.6678059697151184
0.5402098894119263 -0.02637689746916294 0.6694749593734741
0.5427901148796082 -0.026334278285503387 0.6689553260803223
0.5463504791259766 -0.026050550863146782 0.6681082248687744
0.5473003387451172 -0.02585800737142563 0.6678147912025452
0.5548039078712463 -0.024650832638144493 0.6656789183616638
0.5585384368896484 -0.02416195534169674 0.6646798253059387
0.5602928400039673 -0.024165773764252663 0.6643457412719727
0.5681206583976746 -0.022671842947602272 0.6619822978973389
0.5709600448608398 -0.0223558247089386 0.6612546443939209
0.5757933855056763 -0.021695256233215332 0.6599465012550354
0.5768166184425354 -0.021465420722961426 0.6596176028251648
0.582788348197937 -0.02047525905072689 0.6579006314277649
0.5846285820007324 -0.020447038114070892 0.657531201839447
0.5288308262825012 -0.010977714322507381 0.661853551864624
0.5302703380584717 -0.013767879456281662 0.6631890535354614
0.5307844281196594 -0.01460250187665224 0.6635719537734985
0.5359827876091003 -0.016565373167395592 0.663705050945282
0.5376990437507629 -0.02055070362985134 0.6656771302223206
0.5394102334976196 -0.024440394714474678 0.6675952076911926
0.544380784034729 -0.026700619608163834 0.6679444909095764
0.5460711121559143 -0.02675705961883068 0.6676514148712158
0.5489315390586853 -0.02616405114531517 0.6667576432228088
0.5506406426429749 -0.02620549499988556 0.6664525866508484
0.55258709192276 -0.025757893919944763 0.6658187508583069
0.5592913627624512 -0.024535423144698143 0.663820743560791
0.5600457191467285 -0.024786870926618576 0.663820743560791
0.5620512962341309 -0.024292252957820892 0.6631484627723694
0.564824104309082 -0.024047818034887314 0.6624733209609985
0.5668503642082214 -0.023549120873212814 0.6617946624755859
0.5727252960205078 -0.022541407495737076 0.6600812673568726
0.5737419724464417 -0.022312935441732407 0.6597527861595154
0.5745070576667786 -0.022567959502339363 0.6597527861595154
0.5765498280525208 -0.022110318765044212 0.6590954661369324
0.5814873576164246 -0.0213441401720047 0.6577010750770569
0.5291552543640137 -0.012363588437438011 0.6616568565368652
0.5360302329063416 -0.016538290306925774 0.6627482175827026
0.5370327234268188 -0.018214792013168335 0.6635263562202454
0.5391473174095154 -0.01732630282640457 0.6626026630401611
0.5380089282989502 -0.021891022101044655 0.6654689908027649
0.5431601405143738 -0.027595536783337593 0.6677809953689575
0.5496365427970886 -0.026609208434820175 0.6659573912620544
0.550383448600769 -0.02685817889869213 0.6659573912620544
0.5523465871810913 -0.02637326344847679 0.6652972102165222
0.5550694465637207 -0.02613610215485096 0.6646332740783691
0.5570526719093323 -0.025647232308983803 0.6639668941497803
0.563816249370575 -0.02441907301545143 0.6619476675987244
0.5645737051963806 -0.024671558290719986 0.6619476675987244
0.566607654094696 -0.02415602095425129 0.661255419254303
0.5714478492736816 -0.023410258814692497 0.6598878502845764
0.5783652067184448 -0.022235773503780365 0.6578700542449951
0.5801907777786255 -0.0222098920494318 0.6575025320053101
0.5853515267372131 -0.02109544537961483 0.6558587551116943
0.530235230922699 -0.013997501693665981 0.6614606380462646
0.5311099290847778 -0.01603303663432598 0.6624751687049866
0.5327721238136292 -0.016171034425497055 0.6622330546379089
0.5344529151916504 -0.01627231016755104 0.6619659066200256
0.5360650420188904 -0.01654077135026455 0.6618095636367798
0.5382592082023621 -0.01746649667620659 0.6619228720664978
0.5405939817428589 -0.016095686703920364 0.6606727242469788
0.5383176803588867 -0.02322698011994362 0.6652621030807495
0.539384126663208 -0.02468463033437729 0.665902853012085
0.5400188565254211 -0.02708621695637703 0.6671769022941589
0.5403338074684143 -0.028278816491365433 0.667809247970581
0.5428845882415771 -0.028298132121562958 0.6673263311386108
0.5455185770988464 -0.028155820444226265 0.6667322516441345
0.5558168292045593 -0.026509106159210205 0.6637783646583557
0.5568087697029114 -0.02626531384885311 0.6634443402290344
0.5595530867576599 -0.02602679654955864 0.6627733707427979
0.568406343460083 -0.024247601628303528 0.6600216627120972
0.5701753497123718 -0.024275964125990868 0.6596955060958862
0.5770780444145203 -0.023097408935427666 0.6576718091964722
0.5820775628089905 -0.022227594628930092 0.6561965942382812
0.583142101764679 -0.021944519132375717 0.6558251976966858
0.5839138031005859 -0.022201616317033768 0.6558251976966858
0.5302183032035828 -0.014111180789768696 0.6605940461158752
0.5309464335441589 -0.016500305384397507 0.6618464589118958
0.5324801802635193 -0.01694185845553875 0.6618061065673828
0.5406111478805542 -0.016146669164299965 0.6597604155540466
0.5416609644889832 -0.015742288902401924 0.6593205332756042
0.5424216389656067 -0.015995856374502182 0.6593205332756042
0.5396890640258789 -0.026010924950242043 0.66569584608078
0.5462401509284973 -0.028553947806358337 0.6659051775932312
0.5481847524642944 -0.0280753280967474 0.6652479767799377
0.5528496503829956 -0.0273605864495039 0.6639236211776733
0.560306191444397 -0.026401396840810776 0.6619138121604919
0.5671425461769104 -0.02510937862098217 0.6598301529884338
0.5681467056274414 -0.02488524094223976 0.6595034599304199
0.5729498863220215 -0.024238724261522293 0.6581922769546509
0.5747482180595398 -0.024234376847743988 0.6578400731086731
0.5757951140403748 -0.023955941200256348 0.6574737429618835
0.5818407535552979 -0.02281046286225319 0.655629575252533
0.5847439765930176 -0.022502660751342773 0.654885470867157
0.5294431447982788 -0.013972893357276917 0.6597269773483276
0.5302007794380188 -0.014225499704480171 0.6597269773483276
0.5384423732757568 -0.01722101680934429 0.6598725914955139
0.5423433184623718 -0.01626557670533657 0.6585519313812256
0.5442950129508972 -0.029153482988476753 0.6657159328460693
0.5506464838981628 -0.02845560573041439 0.6640676856040955
0.5516266822814941 -0.02821548655629158 0.6637359857559204
0.5583087801933289 -0.02701333910226822 0.6617282032966614
0.5620694160461426 -0.026518212631344795 0.6607043147087097
0.5648807287216187 -0.026197383180260658 0.6599680185317993
0.5658830404281616 -0.025968285277485847 0.6596384048461914
0.5727100372314453 -0.024834122508764267 0.6576423048973083
0.5766122341156006 -0.02425595559179783 0.6565423011779785
0.578430712223053 -0.024232812225818634 0.6561740636825562
0.5794861316680908 -0.023953601717948914 0.6558047533035278
0.5859438180923462 -0.022135430946946144 0.6534796953201294
0.5294254422187805 -0.01408720575273037 0.6588586568832397
0.5319258570671082 -0.01841302588582039 0.6609098315238953
0.5326787829399109 -0.018664002418518066 0.6609098315238953
0.5345008969306946 -0.018426544964313507 0.6604137420654297
0.5355299711227417 -0.018037501722574234 0.6599836945533752
0.5365663170814514 -0.017637962475419044 0.6595463752746582
0.5415040254592896 -0.016281871125102043 0.6577829718589783
0.542264997959137 -0.01653556153178215 0.6577829718589783
0.540296196937561 -0.028650151565670967 0.6652832627296448
0.5413569211959839 -0.030071619898080826 0.6659108996391296
0.5421352386474609 -0.030234290286898613 0.6658537983894348
0.5430972576141357 -0.029998289421200752 0.6655270457267761
0.5448032021522522 -0.030008627101778984 0.6651992797851562
0.5486856698989868 -0.029057741165161133 0.6638808250427246
0.5523690581321716 -0.02858819253742695 0.6628839373588562
0.5541015863418579 -0.028597362339496613 0.6625497937202454
0.5560781955718994 -0.028115246444940567 0.6618799567222595
0.5570698380470276 -0.027873337268829346 0.6615439057350159
0.5628646016120911 -0.026816420257091522 0.6597882509231567
0.5666260123252869 -0.026380985975265503 0.6587960124015808
0.5683877468109131 -0.026411909610033035 0.6584696173667908
0.5704036951065063 -0.025960631668567657 0.6578095555305481
0.5763797760009766 -0.02483454905450344 0.6559788584709167
0.5781970620155334 -0.024812007322907448 0.6556095480918884
0.5803085565567017 -0.02425459399819374 0.6548685431480408
0.5308423042297363 -0.016975076869130135 0.6593418717384338
0.5372439622879028 -0.018158819526433945 0.6587824821472168
0.5393284559249878 -0.017357738688588142 0.6579007506370544
0.5396504998207092 -0.026379108428955078 0.6631529927253723
0.5465043783187866 -0.03014318086206913 0.6640242338180542
0.547475278377533 -0.02990598976612091 0.6636939644813538
0.5548467040061951 -0.028970828279852867 0.6616954207420349
0.5585706830024719 -0.028498493134975433 0.6606853008270264
0.5605858564376831 -0.027974510565400124 0.6599810123443604
0.5673697590827942 -0.026794107630848885 0.6579532623291016
0.5681285858154297 -0.02704704739153385 0.6579532623291016
0.5701756477355957 -0.0265344250947237 0.6572492718696594
0.5730130672454834 -0.02623981051146984 0.6565186381340027
0.5751000046730042 -0.0256890207529068 0.6557839512825012
0.5811325907707214 -0.024556072428822517 0.6539317965507507
0.5821942687034607 -0.02427634410560131 0.6535585522651672
0.5840296745300293 -0.024253102019429207 0.6531840562820435
0.5304881930351257 -0.015832971781492233 0.657799482345581
0.5311613082885742 -0.018343036994338036 0.659150242805481
0.5323511958122253 -0.01959618367254734 0.6596567034721375
0.5381312966346741 -0.018198790028691292 0.6576915979385376
0.5402706265449524 -0.02889963798224926 0.6635957956314087
0.545301616191864 -0.030986888334155083 0.6638383269309998
0.546269416809082 -0.030751081183552742 0.6635079383850098
0.5482117533683777 -0.03027808666229248 0.6628459095954895
0.5509092807769775 -0.03005121648311615 0.6621801257133484
0.5518892407417297 -0.02981308475136757 0.661846399307251
0.5528714060783386 -0.029574399814009666 0.6615118980407715
0.5593397617340088 -0.028836846351623535 0.6598010063171387
0.5603603720664978 -0.028549598529934883 0.6594300866127014
0.5623676776885986 -0.028056828305125237 0.6587436199188232
0.5641162991523743 -0.02808946743607521 0.6584182977676392
0.5720208287239075 -0.026560692116618156 0.6559569239616394
0.5748685598373413 -0.026265544816851616 0.6552215814590454
0.579838752746582 -0.025414787232875824 0.6537395119667053
0.5308089256286621 -0.017206380143761635 0.6576095819473267
0.5352065563201904 -0.019042029976844788 0.6578291058540344
0.5361648797988892 -0.01882382668554783 0.6575099229812622
0.540779173374176 -0.018200377002358437 0.6562286019325256
0.5425093770027161 -0.018233560025691986 0.6559059023857117
0.541332483291626 -0.03042052872478962 0.6633656024932861
0.5424002408981323 -0.031815748661756516 0.6639820337295532
0.5496938824653625 -0.030898502096533775 0.6619961261749268
0.550670862197876 -0.03066176548600197 0.661662757396698
0.5526313185691833 -0.030186640098690987 0.660993754863739
0.5543631911277771 -0.03019728697836399 0.6606574058532715
0.5563423037528992 -0.02971271611750126 0.6599789261817932
0.5638608932495117 -0.0287206768989563 0.6579043865203857
0.5648561716079712 -0.028502022847533226 0.6575782895088196
0.5676587820053101 -0.028223278000950813 0.6568587422370911
0.5707546472549438 -0.027408236637711525 0.6557633280754089
0.57673180103302 -0.026291383430361748 0.6539197564125061
0.5785544514656067 -0.026261653751134872 0.6535419821739197
0.5836287140846252 -0.025282802060246468 0.6519582867622375
0.5847152471542358 -0.0249678622931242 0.6515570282936096
0.5861634612083435 -0.024004528298974037 0.6506989598274231
0.5311284065246582 -0.01857532002031803 0.6574210524559021
