ply
format ascii 1.0
element vertex 809
property float x
property float y
property float z
end_header
0.5141597390174866 0.01310467254370451 0.6838513612747192
0.5153104662895203 0.011527708731591702 0.6844646334648132
0.5172918438911438 0.00990492943674326 0.6849594712257385
0.5198619365692139 0.007588317152112722 0.6857096552848816
0.5206229090690613 0.007334663532674313 0.6857096552848816
0.5223962664604187 0.0074949078261852264 0.6853235363960266
0.5250819325447083 0.007777675054967403 0.6847178936004639
0.5279843807220459 0.008587962947785854 0.6838045120239258
0.5289559960365295 0.008859341032803059 0.6834982633590698
0.5306983590126038 0.008874871768057346 0.6831918954849243
0.5328042507171631 0.00979495421051979 0.6823583245277405
0.5339031219482422 0.01036054641008377 0.6818791031837463
0.534675121307373 0.010103216394782066 0.6818791031837463
0.5371060967445374 0.011777075938880444 0.6806024312973022
0.5384564399719238 0.012930680066347122 0.6797782182693481
0.5405251383781433 0.013659333810210228 0.6790494322776794
0.541749894618988 0.01447684783488512 0.6784190535545349
0.5431821942329407 0.01578376069664955 0.6775020360946655
0.5446512699127197 0.017165420576930046 0.6765401363372803
0.5463415384292603 0.01906043291091919 0.6752764582633972
0.5490655899047852 0.02123662270605564 0.6736913323402405
0.5515385270118713 0.024924280121922493 0.67137211561203
0.4744526743888855 0.02384812943637371 0.6842174530029297
0.4779728055000305 0.021486176177859306 0.6848304271697998
0.48362505435943604 0.017915992066264153 0.6857003569602966
0.48451972007751465 0.01813599094748497 0.6854327917098999
0.4899163544178009 0.01942872442305088 0.6838381886482239
0.4906806945800781 0.019173946231603622 0.6838381886482239
0.49258360266685486 0.019898341968655586 0.6831373572349548
0.49711257219314575 0.020853450521826744 0.6818662285804749
0.49805694818496704 0.021151060238480568 0.6815504431724548
0.5025704503059387 0.021905414760112762 0.6803853511810303
0.504266083240509 0.02183932065963745 0.6801281571388245
0.5051500201225281 0.021912213414907455 0.6799384951591492
0.5067344307899475 0.0214958805590868 0.6798809170722961
0.5098295211791992 0.017909644171595573 0.6811985969543457
0.5103245377540588 0.01684664748609066 0.6816612482070923
0.5115925669670105 0.01554570160806179 0.6821145415306091
0.5144675970077515 0.011538232676684856 0.6836872100830078
0.5156149864196777 0.009967092424631119 0.6843002438545227
0.5209313631057739 0.005833062343299389 0.6855180859565735
0.5226723551750183 0.005912598688155413 0.6851779222488403
0.5243920087814331 0.005924900062382221 0.6848759651184082
0.5263166427612305 0.006458444986492395 0.6842697262763977
0.5272824168205261 0.00672620115801692 0.6839657425880432
0.5282503366470337 0.0069941687397658825 0.6836612224578857
0.5309663414955139 0.007294957060366869 0.6830391883850098
0.5320209264755249 0.0077637010253965855 0.6826158165931702
0.5349525213241577 0.00855284370481968 0.6817054152488708
0.5361312031745911 0.009303677827119827 0.6811150908470154
0.5387795567512512 0.011487636715173721 0.6795334815979004
0.5449287295341492 0.015605282969772816 0.6763530373573303
0.5474324822425842 0.017288075760006905 0.6750540137290955
0.5493625402450562 0.01971173845231533 0.6734727025032043
0.5518828630447388 0.02349633350968361 0.6710872650146484
0.47343286871910095 0.023224398493766785 0.6837996244430542
0.47412386536598206 0.02269730716943741 0.6839534640312195
0.47557520866394043 0.021916961297392845 0.684106707572937
0.47907015681266785 0.01950983516871929 0.6847499012947083
0.4810275137424469 0.0176025852560997 0.6853991150856018
0.48709070682525635 0.018425632268190384 0.683927059173584
0.4934982657432556 0.020163752138614655 0.6819222569465637
0.49443748593330383 0.020466404035687447 0.6816035509109497
0.5015400648117065 0.021380947902798653 0.6799047589302063
0.5024675130844116 0.021598195657134056 0.6796330213546753
0.5080776214599609 0.020356381312012672 0.6793075799942017
0.5086966753005981 0.019635580480098724 0.6795735359191895
0.5114028453826904 0.014984230510890484 0.6815139055252075
0.5118986368179321 0.013945147395133972 0.6819665431976318
0.5137014389038086 0.011767037212848663 0.6827824115753174
0.5147743225097656 0.009978092275559902 0.6835237145423889
0.517281711101532 0.007469066418707371 0.6843898296356201
0.5191478729248047 0.005588090978562832 0.6850411295890808
0.5265849828720093 0.004876182414591312 0.684126079082489
0.5275490283966064 0.0051415725611150265 0.6838225722312927
0.5283112525939941 0.004887448623776436 0.6838225722312927
0.5302478671073914 0.005419337656348944 0.6832134127616882
0.5330628752708435 0.005957584362477064 0.6824493408203125
0.534120500087738 0.006424012593924999 0.6820257902145386
0.5352283716201782 0.007008603774011135 0.6815314888954163
0.5364214777946472 0.007794070988893509 0.6809192299842834
0.5385001301765442 0.008587632328271866 0.6801499724388123
0.5398053526878357 0.009618799202144146 0.6793911457061768
0.5410207509994507 0.010421931743621826 0.6787658333778381
0.5422447323799133 0.011235857382416725 0.6781333088874817
0.5437391996383667 0.012685928493738174 0.6771253943443298
0.5445207357406616 0.012425409629940987 0.6771253943443298
0.5477312803268433 0.015785014256834984 0.6748329401016235
0.5522273778915405 0.022075463086366653 0.6708020567893982
0.5530270338058472 0.021808909252285957 0.6708020567893982
0.4737958610057831 0.021550094708800316 0.6836904287338257
0.47455647587776184 0.021296508610248566 0.6836904287338257
0.47662001848220825 0.019724130630493164 0.684149980545044
0.4793536365032196 0.017612414434552193 0.6847731471061707
0.48445791006088257 0.01804102025926113 0.6836668848991394
0.48990410566329956 0.01947738602757454 0.6819785237312317
0.49066975712776184 0.01922217197716236 0.6819785237312317
0.4925386309623718 0.01982467621564865 0.6813423037528992
0.4978800415992737 0.020634518936276436 0.67999666929245
0.4988064169883728 0.02086791954934597 0.6797155141830444
0.5079489350318909 0.019970372319221497 0.6785984635353088
0.5095430612564087 0.017052896320819855 0.6798378229141235
0.5099877715110779 0.01584342122077942 0.6803892254829407
0.5122032761573792 0.012351073324680328 0.6818187832832336
0.5156489014625549 0.0076388162560760975 0.6836701035499573
0.5164097547531128 0.007385211531072855 0.6836701035499573
0.5175896883010864 0.005949041340500116 0.6842115521430969
0.5202131867408752 0.0038342601619660854 0.6848556399345398
0.5222681164741516 0.0025060619227588177 0.6851896047592163
0.5249341726303101 0.0027766122948378325 0.684587299823761
0.5268523097038269 0.00330077251419425 0.6839832067489624
0.5285751819610596 0.003310085739940405 0.6836798191070557
0.5305081605911255 0.003836993593722582 0.6830723285675049
0.5322831273078918 0.003951343707740307 0.6827050447463989
0.5343915224075317 0.004876526538282633 0.6818596124649048
0.5388266444206238 0.007175335194915533 0.679898202419281
0.5400537252426147 0.008015748113393784 0.67924964427948
0.5425418615341187 0.009747657924890518 0.6779197454452515
0.5447964668273926 0.010886192321777344 0.6769378185272217
0.5462626218795776 0.012242630124092102 0.675979495048523
0.5480281710624695 0.0142854368314147 0.6746129989624023
0.5499522686004639 0.016678309068083763 0.6730372309684753
0.5507434606552124 0.0164145790040493 0.6730372309684753
0.4714851677417755 0.022311057895421982 0.6827806234359741
0.4749161899089813 0.019630270078778267 0.6835811734199524
0.4762890636920929 0.018585316836833954 0.6838876605033875
0.47694915533065796 0.017970405519008636 0.6840936541557312
0.4800318777561188 0.01714886538684368 0.6839861273765564
0.4825931489467621 0.01740461029112339 0.6834081411361694
0.4942966103553772 0.020072584971785545 0.6799847483634949
0.4950658082962036 0.019816141575574875 0.6799847483634949
0.5031242370605469 0.02099817432463169 0.6779691576957703
0.504767656326294 0.020765267312526703 0.6778050661087036
0.5063530206680298 0.020351223647594452 0.6777453422546387
0.5070441961288452 0.01983971893787384 0.67789226770401
0.509850800037384 0.015433544293045998 0.6797001957893372
0.5106208920478821 0.015176831744611263 0.6797001957893372
0.5120143890380859 0.011793168261647224 0.6812216639518738
0.513780951499939 0.009538313373923302 0.6820894479751587
0.5167105793952942 0.005840624682605267 0.6835075616836548
0.5185117125511169 0.003797717858105898 0.6842592358589172
0.5211742520332336 0.0018225249368697405 0.6848260760307312
0.522614598274231 0.001134017831645906 0.684934675693512
0.5242478251457214 0.0009490975644439459 0.6847472190856934
0.526159942150116 0.0014717815211042762 0.68414306640625
0.5278767347335815 0.0014791206922382116 0.6838411688804626
0.5288379788398743 0.001739146769978106 0.6835383772850037
0.5346617698669434 0.003335088724270463 0.6816951632499695
0.5365431308746338 0.0036828245501965284 0.6811872720718384
0.5377886295318604 0.00458889827132225 0.6804983615875244
0.5390951633453369 0.005630622152239084 0.679729163646698
0.5403010845184326 0.0064191268756985664 0.6791088581085205
0.5422860980033875 0.0069537996314466 0.6784855127334595
0.5450707674026489 0.00935276411473751 0.6767513155937195
0.5465353727340698 0.010701076127588749 0.6757946014404297
0.5483235120773315 0.012790191918611526 0.6743950843811035
0.5510355830192566 0.014906897209584713 0.6728209853172302
0.5537126064300537 0.01898854784667492 0.6702291965484619
0.469791442155838 0.022263189777731895 0.6821843981742859
0.4711781144142151 0.021228650584816933 0.682483971118927
0.4724796414375305 0.019882626831531525 0.6829604506492615
0.4752742052078247 0.017971221357584 0.6834729313850403
0.47659361362457275 0.016745945438742638 0.6838839054107666
0.47821304202079773 0.016631020233035088 0.6836615204811096
0.48447081446647644 0.01820671372115612 0.681747317314148
0.48615947365760803 0.018262628465890884 0.6814234852790833
0.4914988875389099 0.019257739186286926 0.6799723505973816
0.4923994541168213 0.019441163167357445 0.6797196269035339
0.4967893958091736 0.019920341670513153 0.6787041425704956
0.49935027956962585 0.019930275157094002 0.678252100944519
0.5011555552482605 0.020226750522851944 0.6777825355529785
0.5083195567131042 0.018503675237298012 0.6774351000785828
0.5088582038879395 0.017551060765981674 0.6778392195701599
0.5109260082244873 0.013565227389335632 0.6795628070831299
0.5118314623832703 0.01125273760408163 0.6806142926216125
0.5130825042724609 0.009952707216143608 0.681076169013977
0.5140877962112427 0.007983094081282616 0.6819308400154114
0.515888512134552 0.005889953579753637 0.6827113032341003
0.517578661441803 0.003537679323926568 0.6836465001106262
0.5182022452354431 0.0029263002797961235 0.6838575601577759
0.5229229927062988 -0.00032922299578785896 0.6847372055053711
0.5245171785354614 -0.0006089648813940585 0.6846057176589966
0.5262259244918823 -0.0006003417074680328 0.6843032240867615
0.528140127658844 -8.312101272167638e-05 0.6836993098258972
0.530061662197113 0.00043355405796319246 0.6830940246582031
0.5328289270401001 0.0008876867359504104 0.6823741793632507
0.5338782072067261 0.0013430233811959624 0.6819535493850708
0.5349306464195251 0.001799661898985505 0.6815310120582581
0.538101315498352 0.0031612131278961897 0.6802669167518616
0.5405473709106445 0.004829570185393095 0.6789679527282715
0.542528510093689 0.005359067115932703 0.6783454418182373
0.5438917279243469 0.0064940485171973705 0.6775143146514893
0.5453442931175232 0.007825110107660294 0.6765653491020203
0.5468067526817322 0.009165472351014614 0.6756094694137573
0.5494013428688049 0.011038683354854584 0.6741783618927002
0.5513262748718262 0.01340429950505495 0.6726053357124329
0.5540582537651062 0.01759515143930912 0.669938325881958
0.4688592553138733 0.021959003061056137 0.6815903782844543
0.4702666401863098 0.021004678681492805 0.6818453073501587
0.47152960300445557 0.019504576921463013 0.6824111938476562
0.47359350323677063 0.017945636063814163 0.6828681826591492
0.48090872168540955 0.017463624477386475 0.6818419694900513
0.48260247707366943 0.01756932958960533 0.6814903020858765
0.4879753887653351 0.018787965178489685 0.6799110174179077
0.48885780572891235 0.018927497789263725 0.6796833872795105
0.49666106700897217 0.019535237923264503 0.6779997944831848
0.498412549495697 0.019685255363583565 0.6776149272918701
0.5000866055488586 0.01957688294351101 0.6773790717124939
0.5027871131896973 0.01998075842857361 0.676694393157959
0.5044219493865967 0.019724303856492043 0.6765433549880981
0.5112298130989075 0.011960366740822792 0.6794265508651733
0.5138719081878662 0.007354809436947107 0.6813806295394897
0.5186399817466736 0.0017810993595048785 0.6834710836410522
0.5204693078994751 -0.00012755088391713798 0.6841523051261902
0.5239457488059998 -0.002133103786036372 0.6845968961715698
0.524785041809082 -0.002160328906029463 0.6844643354415894
0.5264908671379089 -0.0021534881088882685 0.6841625571250916
0.527445912361145 -0.0018951809033751488 0.6838598251342773
0.5301166772842407 -0.0016348457429558039 0.683256208896637
0.5320557355880737 -0.0010855237487703562 0.6826287508010864
0.5341476798057556 -0.00018298592476639897 0.6817894577980042
0.5370997786521912 0.0006745145656168461 0.6808229684829712
0.5383937954902649 0.0016935134772211313 0.6800621151924133
0.5395903587341309 0.002468232763931155 0.6794463992118835
0.540357232093811 0.0022126133553683758 0.6794463992118835
0.542770266532898 0.0037713968195021152 0.6782066226005554
0.5441662669181824 0.004980354569852352 0.6773282289505005
0.5463922023773193 0.006045077461749315 0.6763800978660583
0.547855794429779 0.007376650348305702 0.6754257678985596
0.5496928691864014 0.009554744698107243 0.6739616990089417
0.5516164302825928 0.011907607316970825 0.6723911762237549
0.5551950335502625 0.015936361625790596 0.6696509122848511
0.4679279327392578 0.021655049175024033 0.6809967756271362
0.4699620306491852 0.019926344975829124 0.6815499067306519
0.47058045864105225 0.019126804545521736 0.681862473487854
0.47188800573349 0.017821595072746277 0.6823198199272156
0.47812530398368835 0.0164716187864542 0.6819364428520203
0.48442354798316956 0.018164094537496567 0.6799399256706238
0.4931189715862274 0.019096186384558678 0.6779235601425171
0.49475938081741333 0.018913812935352325 0.6777316927909851
0.5042117238044739 0.01909015141427517 0.6759799718856812
0.50657057762146 0.01842002011835575 0.675918459892273
0.5090854167938232 0.015675639733672142 0.6769225597381592
0.5102949142456055 0.01419326476752758 0.6774903535842896
0.5119775533676147 0.009200183674693108 0.6798238158226013
0.5127413868904114 0.008945581503212452 0.6798238158226013
0.514170229434967 0.005787343718111515 0.6812356114387512
0.5159671306610107 0.003708531381562352 0.6820148229598999
0.517605721950531 0.001243497827090323 0.683025062084198
0.5195564031600952 -0.000342509156325832 0.6835176348686218
0.5201532244682312 -0.0010061778593808413 0.6837621927261353
0.5277081727981567 -0.0034442085307091475 0.6837199926376343
0.5286637544631958 -0.0031874780543148518 0.683417022228241
0.5303745269775391 -0.0031858342699706554 0.6831159591674805
0.5323277115821838 -0.002598821185529232 0.6824645400047302
0.534127950668335 -0.0024040916468948126 0.6820458769798279
0.5362253785133362 -0.0015061991289258003 0.6812050938606262
0.5386419296264648 0.0001273878588108346 0.67992103099823
0.5394054651260376 -0.00012712246098089963 0.67992103099823
0.5406017899513245 0.000641580845694989 0.6793063879013062
0.5444392561912537 0.0034721719566732645 0.6771426796913147
0.5466622114181519 0.004529621917754412 0.6761960983276367
0.5481252074241638 0.005857045296579599 0.6752405166625977
0.5526904463768005 0.010154551826417446 0.6721768975257874
0.47094079852104187 0.017445718869566917 0.6817724108695984
0.47300007939338684 0.015894627198576927 0.682229220867157
0.4746534526348114 0.015927519649267197 0.6819204688072205
0.4755305349826813 0.016124887391924858 0.681662380695343
0.4764431118965149 0.01644856296479702 0.6813305020332336
0.4808896780014038 0.017539318650960922 0.6799709796905518
0.48256370425224304 0.017565187066793442 0.6796625256538391
0.48956504464149475 0.018564170226454735 0.6779022812843323
0.49033215641975403 0.018308419734239578 0.6779022812843323
0.5006017684936523 0.018546251580119133 0.6759684681892395
0.5023364424705505 0.018613703548908234 0.6756270527839661
0.506371021270752 0.01782202161848545 0.6753349304199219
0.5084120631217957 0.016216684132814407 0.6758238077163696
0.5101884603500366 0.013871838338673115 0.6767493486404419
0.5110006332397461 0.011270021088421345 0.6779806017875671
0.5130415558815002 0.007365677505731583 0.6796839833259583
0.5139816999435425 0.005236264783889055 0.6806434392929077
0.5152285695075989 0.003981785848736763 0.6810865998268127
0.5162610411643982 0.0021600727923214436 0.6818671226501465
0.5204460024833679 -0.002511540660634637 0.6835978031158447
0.5224751234054565 -0.0038429927080869675 0.6839439272880554
0.5231292247772217 -0.004340077750384808 0.6840914487838745
0.524590790271759 -0.004936602897942066 0.684148907661438
0.5260669589042664 -0.00549517385661602 0.6841842532157898
0.5270066261291504 -0.005266882013529539 0.6838981509208679
0.5287202000617981 -0.005237518809735775 0.6835810542106628
0.5306314826011658 -0.0047301677986979485 0.6829764246940613
0.5325984954833984 -0.004106278996914625 0.6823006272315979
0.5343954563140869 -0.003914287313818932 0.6818825006484985
0.5364895462989807 -0.003022771794348955 0.6810428500175476
0.5384619235992432 -0.0024465115275233984 0.6803910136222839
0.5408453941345215 -0.0009225552785210311 0.679166316986084
0.5420452952384949 -0.00015550597163382918 0.6785498857498169
0.5432650446891785 0.0006488238577730954 0.6779102683067322
0.5440321564674377 0.00039308113628067076 0.6779102683067322
0.5469308495521545 0.003020099364221096 0.6760119199752808
0.5502732396125793 0.00660282839089632 0.6735309958457947
0.4653071463108063 0.021301263943314552 0.6798110604286194
0.4660669267177582 0.021047962829470634 0.6798110604286194
0.4673645794391632 0.01965206302702427 0.6803217530250549
0.4693552851676941 0.017778757959604263 0.6809630990028381
0.4712998867034912 0.01577218435704708 0.6816830635070801
0.47210267186164856 0.015704680234193802 0.681577205657959
0.47904956340789795 0.016975898295640945 0.6796754598617554
0.48430514335632324 0.017872663214802742 0.6782715916633606
0.4868278205394745 0.017894906923174858 0.6778144836425781
0.4877092242240906 0.018033819273114204 0.6775851249694824
0.4902249276638031 0.01799340918660164 0.6771618127822876
0.49444571137428284 0.017958881333470345 0.6764341592788696
0.4970615804195404 0.01816912554204464 0.6758608222007751
0.49867188930511475 0.01787022314965725 0.6757346987724304
0.5003683567047119 0.01783456839621067 0.675453782081604
0.5021135210990906 0.017937565222382545 0.6750907897949219
0.5046103596687317 0.01770109124481678 0.6747750639915466
0.508216381072998 0.015632983297109604 0.675234317779541
0.5092756748199463 0.013702455908060074 0.676070511341095
0.5113027095794678 0.009670620784163475 0.6778490543365479
0.5133411288261414 0.005794698838144541 0.679543673992157
0.5160508155822754 0.001552994828671217 0.6813130974769592
0.5170881748199463 -0.00022616813657805324 0.6820728182792664
0.5189483761787415 -0.002041283529251814 0.682706356048584
0.5214869976043701 -0.004261026158928871 0.6834345459938049
0.5221238732337952 -0.004802769515663385 0.683608889579773
0.5241819620132446 -0.006034627091139555 0.6838982105255127
0.525604784488678 -0.006720760837197304 0.6840107440948486
0.526375949382782 -0.006912005599588156 0.6839758157730103
0.5280113816261292 -0.007064592093229294 0.6837679147720337
0.5308871865272522 -0.006269052624702454 0.682837963104248
0.5325956344604492 -0.006269979290664196 0.6825366616249084
0.5346618890762329 -0.0054185278713703156 0.6817197799682617
0.5367531180381775 -0.004533479455858469 0.680881679058075
0.5398954749107361 -0.003239109180867672 0.6796401739120483
0.5410879850387573 -0.0024806319270282984 0.6790274977684021
0.5443131923675537 -0.0010729870991781354 0.677711546421051
0.5471987724304199 0.0015164802316576242 0.6758291721343994
0.548679530620575 0.0028769271448254585 0.6748462915420532
0.4664362668991089 0.019349904730916023 0.6797305941581726
0.46769198775291443 0.017808610573410988 0.6803272366523743
0.475517213344574 0.016253840178251266 0.6797673106193542
0.4764404892921448 0.016611656174063683 0.6794133186340332
0.4824640452861786 0.01734536699950695 0.677955150604248
0.4842153489589691 0.017621498554944992 0.6774978041648865
0.4884653091430664 0.01779230870306492 0.6766536235809326
0.49265092611312866 0.017667695879936218 0.6759777069091797
0.49428921937942505 0.017481649294495583 0.675786554813385
0.4968371093273163 0.017478326335549355 0.6753360629081726
0.5073619484901428 0.015644261613488197 0.6744458079338074
0.509132981300354 0.013276316225528717 0.675390899181366
0.510373055934906 0.011896864511072636 0.675905168056488
0.5123674869537354 0.007823023945093155 0.6777182817459106
0.5140987634658813 0.0031492316629737616 0.679896891117096
0.5153317451477051 0.0018722504610195756 0.6803575754165649
0.5168453454971313 -0.0009177714237011969 0.6815729737281799
0.5181370377540588 -0.0019908309914171696 0.6819148063659668
0.5198413729667664 -0.004191541112959385 0.6827831864356995
0.5224213004112244 -0.006267801392823458 0.683430016040802
0.5259048342704773 -0.008155742660164833 0.6838168501853943
0.5266836881637573 -0.008324148133397102 0.6837682723999023
0.5282734036445618 -0.00858382973819971 0.6836243867874146
0.530166745185852 -0.008103344589471817 0.6830331087112427
0.5338887572288513 -0.007353798020631075 0.6819746494293213
0.5349275469779968 -0.006916720885783434 0.6815580725669861
0.5367239713668823 -0.006729563232511282 0.6811403632164001
0.5389536619186401 -0.005535730626434088 0.680109977722168
0.5401386618614197 -0.004785572178661823 0.6795006394386292
0.5420898199081421 -0.0042854067869484425 0.6788886785507202
0.5432875752449036 -0.0035291481763124466 0.6782741546630859
0.5445834398269653 -0.002555972198024392 0.6775269508361816
0.5460196137428284 -0.0012732496252283454 0.6765903234481812
0.4634495675563812 0.020694781094789505 0.6786271929740906
0.464101105928421 0.019997183233499527 0.6788837909698486
0.46678584814071655 0.01758687011897564 0.6796919703483582
0.46800497174263 0.0159236341714859 0.6803629398345947
0.47200101613998413 0.015519927255809307 0.6798675656318665
0.4745931625366211 0.015978913754224777 0.679161548614502
0.4789893627166748 0.01691300794482231 0.677881121635437
0.48074963688850403 0.017254535108804703 0.6773859262466431
0.4883175790309906 0.017341339960694313 0.6759933233261108
0.49077433347702026 0.01709536835551262 0.675687313079834
0.5031883120536804 0.0159981120377779 0.6740649938583374
0.5040203332901001 0.015923019498586655 0.6739563941955566
0.5064061284065247 0.01535469014197588 0.673835277557373
0.5115072727203369 0.007783294655382633 0.6769689917564392
0.5134886503219604 0.0037832760717719793 0.6787510514259338
0.515151858329773 0.0013464854564517736 0.679755687713623
0.5178873538970947 -0.0026977313682436943 0.6814268827438354
0.5184313654899597 -0.003498326987028122 0.6817575097084045
0.5214731693267822 -0.006587924435734749 0.6828653812408447
0.5324587821960449 -0.008814468048512936 0.6820991635322571
0.5334697961807251 -0.008435654453933239 0.6817172765731812
0.5344833731651306 -0.00805562362074852 0.6813341379165649
0.5383461713790894 -0.007045586593449116 0.680108368396759
0.5394293665885925 -0.006528901401907206 0.679639458656311
0.5412969589233398 -0.006210682913661003 0.6791377067565918
0.544852614402771 -0.004034140147268772 0.6773436069488525
0.4611089527606964 0.02134350873529911 0.6777783036231995
0.4631740152835846 0.019694838672876358 0.6782925724983215
0.4658786952495575 0.01735936477780342 0.6790603399276733
0.4670940339565277 0.01567414030432701 0.6797459125518799
0.46771714091300964 0.014904584735631943 0.680046796798706
0.4693339765071869 0.014831059612333775 0.6797975897789001
0.47019898891448975 0.015008731745183468 0.6795480251312256
0.47549188137054443 0.016338827088475227 0.6778914928436279
0.4763917922973633 0.016604222357273102 0.6775885820388794
0.4840362071990967 0.01711905002593994 0.675948441028595
0.48648473620414734 0.01688115857541561 0.6756386756896973
0.49799633026123047 0.01579979993402958 0.6741628050804138
0.4988228380680084 0.01572084054350853 0.67405766248703
0.5004456639289856 0.015463253483176231 0.6739058494567871
0.502047598361969 0.015135723166167736 0.6737957000732422
0.5074959993362427 0.013491444289684296 0.6737035512924194
0.5081595778465271 0.012920207343995571 0.6738907098770142
0.5095078349113464 0.011847059242427349 0.6742251515388489
0.5105569362640381 0.00993016455322504 0.675063967704773
0.5125691890716553 0.005943147465586662 0.6768393516540527
0.5154455900192261 -0.0001971156889339909 0.6796144843101501
0.5159174799919128 -0.0012136748991906643 0.6800742745399475
0.5181775093078613 -0.004214842803776264 0.6812782883644104
0.5200185775756836 -0.006032026372849941 0.6819224953651428
0.5217609405517578 -0.008071855641901493 0.6827035546302795
0.5223677754402161 -0.00867705512791872 0.6829196214675903
0.5260235071182251 -0.010097445920109749 0.6830276846885681
0.5297669768333435 -0.0092195188626647 0.6818893551826477
0.5307719707489014 -0.008842205628752708 0.6815078854560852
0.5355746746063232 -0.007572983391582966 0.6799710988998413
0.5363283157348633 -0.007824193686246872 0.6799710988998413
0.5420325994491577 -0.006601063068956137 0.6782981753349304
0.5431646108627319 -0.005994583945721388 0.6777710914611816
0.462247759103775 0.01939273625612259 0.6777021884918213
0.47198960185050964 0.015680426731705666 0.6779521107673645
0.47274693846702576 0.015427984297275543 0.6779521107673645
0.4805773198604584 0.01678309589624405 0.6758217215538025
0.48220381140708923 0.016627071425318718 0.6756141185760498
0.4912429749965668 0.01592928171157837 0.6743702292442322
0.4920605421066284 0.015838203951716423 0.6742726564407349
0.4944955110549927 0.015496887266635895 0.6740200519561768
0.495330274105072 0.015454165637493134 0.6738935708999634
0.49615928530693054 0.015389440581202507 0.6737800240516663
0.4985267221927643 0.014810428954660892 0.6736670732498169
0.5033568739891052 0.013921763747930527 0.6732795238494873
0.504170298576355 0.01379455253481865 0.6732020974159241
0.5085248351097107 0.011472308076918125 0.6736695170402527
0.5113140940666199 0.00719415582716465 0.6754688620567322
0.5120783448219299 0.006939408369362354 0.6754688620567322
0.5132575631141663 0.0030857340898364782 0.6773280501365662
0.5136662721633911 0.0018653091974556446 0.6779109835624695
0.514423668384552 0.0016128276474773884 0.6779109835624695
0.5162085294723511 -0.0027471105568110943 0.6799339652061462
0.5179654955863953 -0.004819830413907766 0.6807325482368469
0.5190165638923645 -0.006495116278529167 0.6814446449279785
0.5235092043876648 -0.010116319172084332 0.6825853586196899
0.5242160558700562 -0.010459238663315773 0.6826429963111877
0.5278306603431702 -0.009873509407043457 0.6816809177398682
0.5336145758628845 -0.008233948610723019 0.6797641515731812
0.5394819378852844 -0.006570793688297272 0.6778203248977661
0.5405136346817017 -0.006184387020766735 0.6774275898933411
0.5428810715675354 -0.006733910646289587 0.6772989630699158
0.4599103331565857 0.020039623603224754 0.6768547296524048
0.4605644643306732 0.019343575462698936 0.6771126985549927
0.46262484788894653 0.017702756449580193 0.6776266694068909
0.4639228284358978 0.016320019960403442 0.6781389117240906
0.4652879238128662 0.015232725068926811 0.6784800291061401
0.4762917459011078 0.016408421099185944 0.6758685111999512
0.4787692725658417 0.016350390389561653 0.6754543781280518
0.4853496253490448 0.015976276248693466 0.6744741797447205
0.48619022965431213 0.015980372205376625 0.6743202805519104
0.4886588752269745 0.01579338312149048 0.6739776134490967
0.4902304708957672 0.01541095320135355 0.6739014983177185
0.49267297983169556 0.015109220519661903 0.6736252903938293
0.4982311427593231 0.013901953585445881 0.6732773780822754
0.5006030797958374 0.013339398428797722 0.6731541752815247
0.5069394707679749 0.011839017271995544 0.6728246808052063
0.5096568465232849 0.009773503988981247 0.6734495759010315
0.5102314352989197 0.008963556960225105 0.6737833619117737
0.5123770833015442 0.005354839377105236 0.6753430366516113
0.5155788064002991 -0.0022024004720151424 0.6788412928581238
0.517249584197998 -0.0045219785533845425 0.6797921657562256
0.5200533866882324 -0.008233576081693172 0.6812888383865356
0.5218431353569031 -0.010128108784556389 0.6819885969161987
0.5225873589515686 -0.010376174002885818 0.6819885969161987
0.5241634845733643 -0.010650692507624626 0.6818534731864929
0.5268975496292114 -0.010151319205760956 0.6810930967330933
0.5299033522605896 -0.009020774625241756 0.6799434423446655
0.5309106707572937 -0.008642371743917465 0.6795583963394165
0.5375039577484131 -0.007237505167722702 0.6776158809661865
0.45903265476226807 0.019942352548241615 0.6761451959609985
0.46170124411582947 0.01740221492946148 0.6770380735397339
0.4636314809322357 0.015263143926858902 0.6778469681739807
0.4643852412700653 0.015011884272098541 0.6778469681739807
0.46668002009391785 0.01439126767218113 0.6777692437171936
0.4683239758014679 0.014423332177102566 0.6774551272392273
0.47359856963157654 0.01572328805923462 0.6758010983467102
0.47449374198913574 0.01597774401307106 0.6755018830299377
0.475348562002182 0.01607520692050457 0.6752954125404358
0.47696569561958313 0.01591913402080536 0.6750876903533936
0.48113346099853516 0.01593213528394699 0.6743292808532715
0.4827743172645569 0.015822701156139374 0.674092710018158
0.4835984706878662 0.01577720046043396 0.673969030380249
0.4844377636909485 0.015781190246343613 0.6738153696060181
0.4860430061817169 0.015529503114521503 0.673662006855011
0.493981271982193 0.013896167278289795 0.6731143593788147
0.49477773904800415 0.013735172338783741 0.6730577349662781
0.4963712692260742 0.01341270375996828 0.6729447245597839
0.5018229484558105 0.011866671033203602 0.6727982759475708
0.5026333332061768 0.011739312671124935 0.6727209687232971
0.5042550563812256 0.01148464996367693 0.6725662350654602
0.5105912685394287 0.007529072929173708 0.6735631823539734
0.5126743912696838 0.003776598023250699 0.6752175688743591
0.5146010518074036 -0.00029151953640393913 0.6770709753036499
0.5175442099571228 -0.006023020949214697 0.6796404123306274
0.5192844271659851 -0.008092228323221207 0.6804457306861877
0.5279622077941895 -0.00967765785753727 0.6797386407852173
0.5337600708007812 -0.008032022975385189 0.6778035163879395
0.5347784161567688 -0.007649910636246204 0.6774129271507263
0.5396407246589661 -0.006363814231008291 0.675840437412262
0.540675163269043 -0.005976537242531776 0.6754445433616638
0.5414355993270874 -0.006230014376342297 0.6754445433616638
0.5421071648597717 -0.00668854545801878 0.6755713224411011
0.4581782817840576 0.01994626596570015 0.6753766536712646
0.4640917479991913 0.01395105104893446 0.677560567855835
0.47013455629348755 0.015193138271570206 0.6757933497428894
0.478594571352005 0.01587456651031971 0.6738928556442261
0.4802319407463074 0.015765193849802017 0.6736565232276917
0.49060899019241333 0.013950296677649021 0.6727636456489563
0.4975843131542206 0.011910653673112392 0.6726084351539612
0.49836012721061707 0.011684315279126167 0.6725914478302002
0.5062631368637085 0.009834150783717632 0.6721659898757935
0.5098055005073547 0.0077092996798455715 0.6726779937744141
0.5116862654685974 0.005765985231846571 0.6733925938606262
0.5121487379074097 0.004665892571210861 0.6739055514335632
0.5133611559867859 0.0009333154303021729 0.6757124662399292
0.5141189098358154 0.0006807263125665486 0.6757124662399292
0.5152966976165771 -0.003039110451936722 0.6775183081626892
0.5157116651535034 -0.004198836628347635 0.678072452545166
0.5183290839195251 -0.00843773316591978 0.6798996925354004
0.5242868065834045 -0.010457114316523075 0.6799176931381226
0.5308355093002319 -0.004761957563459873 0.6756420731544495
0.530115008354187 -0.008637746796011925 0.677875816822052
0.5338327884674072 -0.007930603809654713 0.6768195033073425
0.5376585125923157 -0.00703234039247036 0.6756400465965271
0.4565644860267639 0.02020273171365261 0.674608051776886
0.45732325315475464 0.019949765875935555 0.674608051776886
0.4591473340988159 0.01725373975932598 0.6757445931434631
0.4597741961479187 0.016454091295599937 0.6760666370391846
0.46115773916244507 0.015422472730278969 0.6763772964477539
0.4624384939670563 0.013981959782540798 0.6769291162490845
0.4666408896446228 0.01448032259941101 0.6758947372436523
0.468305766582489 0.014581759460270405 0.675537645816803
0.4743243455886841 0.015529937110841274 0.6739288568496704
0.4760293960571289 0.015701424330472946 0.6735256314277649
0.487240731716156 0.013989211991429329 0.6724233627319336
0.4880436956882477 0.013862360268831253 0.6723467707633972
0.4941640794277191 0.011821191757917404 0.6723469495773315
0.5003414750099182 0.009953867644071579 0.672242283821106
0.5027231574058533 0.00944555178284645 0.6720869541168213
0.5042966604232788 0.009059765376150608 0.6720111966133118
0.5051057934761047 0.008931910619139671 0.6719343662261963
0.5066927075386047 0.008580660447478294 0.6718372702598572
0.5082261562347412 0.008070317097008228 0.6718372702598572
0.5089021325111389 0.007554192561656237 0.6719953417778015
0.5124687552452087 0.003149606753140688 0.6737464666366577
0.5144110321998596 -0.0008773709996603429 0.6755867004394531
0.5155853629112244 -0.004577263258397579 0.6773884892463684
0.5163365602493286 -0.00482767540961504 0.6773884892463684
0.5176448822021484 -0.008070940151810646 0.678917407989502
0.5193840265274048 -0.010121169500052929 0.679718017578125
0.5216209888458252 -0.01085865218192339 0.6797133684158325
0.5223658084869385 -0.011106928810477257 0.6797133684158325
0.5294190645217896 0.00024076244153548032 0.672253429889679
0.5297700762748718 -0.0010493539739400148 0.6728924512863159
0.5305337309837341 -0.0013038957258686423 0.6728924512863159
0.5308812856674194 -0.0025871109683066607 0.6735280156135559
0.5310329794883728 -0.0064567760564386845 0.6756079196929932
0.533906102180481 -0.007828970439732075 0.6758337616920471
0.5349267721176147 -0.007446002680808306 0.6754396557807922
0.5398005247116089 -0.006155942101031542 0.6738523840904236
0.5408371090888977 -0.005767783150076866 0.6734530925750732
0.5415992140769958 -0.0060218097642064095 0.6734530925750732
0.45570874214172363 0.02020670659840107 0.6738383173942566
0.4595235586166382 0.015544073656201363 0.6756910085678101
0.4602774381637573 0.015292737632989883 0.6756910085678101
0.46153533458709717 0.013750215992331505 0.6763046979904175
0.46479442715644836 0.013756894506514072 0.6757073998451233
0.46571144461631775 0.014159460552036762 0.6753207445144653
0.4700711965560913 0.01516667939722538 0.673975944519043
0.47255903482437134 0.015211819671094418 0.673498272895813
0.48464083671569824 0.013758739456534386 0.6720923185348511
0.48623472452163696 0.013474402017891407 0.6719574928283691
0.48855167627334595 0.012791401706635952 0.6719084978103638
0.4900761544704437 0.012267742305994034 0.6719168424606323
0.4915764629840851 0.011666019447147846 0.6719722747802734
0.49234068393707275 0.011411407962441444 0.6719722747802734
0.4930798411369324 0.011075424961745739 0.6720214486122131
0.49538370966911316 0.010348007082939148 0.6719990372657776
0.49614787101745605 0.01009328756481409 0.6719990372657776
0.4969211220741272 0.009867203421890736 0.6719818115234375
0.49846795201301575 0.009415358304977417 0.6719470620155334
0.500005841255188 0.00893440656363964 0.6719298958778381
0.5023664832115173 0.008373969234526157 0.6718056797981262
0.5039363503456116 0.007984688505530357 0.6717326045036316
0.5047429800033569 0.00785253569483757 0.6716582775115967
0.5063560605049133 0.00758544122800231 0.6715099811553955
0.5099534392356873 0.005654777865856886 0.6719096899032593
0.5118574500083923 0.0037994650192558765 0.6725767254829407
0.512779176235199 0.001617217087186873 0.6736010313034058
0.5147018432617188 -0.0024294292088598013 0.6754621267318726
0.5166225433349609 -0.006358507089316845 0.6772590279579163
0.5287753343582153 0.0007415381842292845 0.6711662411689758
0.5292899012565613 -0.00014538619143422693 0.6715575456619263
0.5311112999916077 -0.004217652603983879 0.6734504699707031
0.5329596400260925 -0.008111217990517616 0.6752415299415588
0.5378137230873108 -0.006826288532465696 0.673655092716217
0.45546385645866394 0.01929756999015808 0.6734575629234314
0.45607316493988037 0.018387682735919952 0.6738450527191162
0.4574368894100189 0.0172278992831707 0.6742317080497742
0.46065017580986023 0.013591708615422249 0.6756376624107361
0.46223655343055725 0.01342867687344551 0.675436794757843
0.46748897433280945 0.014833279885351658 0.6737073659896851
0.46824654936790466 0.014580762013792992 0.6737073659896851
0.47736412286758423 0.014666530303657055 0.6719942092895508
0.4781811833381653 0.014611045829951763 0.6718756556510925
0.48057445883750916 0.014224033802747726 0.6716502904891968
0.4821302890777588 0.013818995095789433 0.6715875267982483
0.48445045948028564 0.013159270398318768 0.6715256571769714
0.4882875978946686 0.011951957829296589 0.6714861989021301
0.49351879954338074 0.009804792702198029 0.671707272529602
0.494283527135849 0.009555592201650143 0.6717046499252319
0.49967116117477417 0.007918187417089939 0.6716170907020569
0.5004439949989319 0.007692499551922083 0.6716001033782959
0.5103126764297485 0.004231126978993416 0.6716942191123962
0.5110757350921631 0.003976768814027309 0.6716942191123962
0.5138329863548279 -0.00019975649775005877 0.6734797954559326
0.5153742432594299 -0.005222202744334936 0.6759517788887024
0.516125500202179 -0.005472670309245586 0.6759517788887024
0.5173275470733643 -0.008996432647109032 0.6776633858680725
0.5217390060424805 -0.010665448382496834 0.6777724027633667
0.5224853754043579 -0.010914251208305359 0.6777724027633667
0.5302990674972534 -0.0020164866000413895 0.6714665293693542
0.5340519547462463 -0.007626721169799566 0.6738563179969788
0.5399609804153442 -0.00594716751947999 0.6718562245368958
0.4558282494544983 0.017482897266745567 0.6734648942947388
0.45658454298973083 0.017230791971087456 0.6734648942947388
0.45779526233673096 0.015423520468175411 0.674237072467804
0.45902368426322937 0.013729894533753395 0.6749433875083923
0.46560510993003845 0.013985008001327515 0.6735963225364685
0.4716310501098633 0.015028233639895916 0.6719180345535278
0.4723914563655853 0.014774715527892113 0.6719180345535278
0.4740460216999054 0.014768415130674839 0.6716177463531494
0.4796234965324402 0.013879174366593361 0.6710844039916992
0.480386346578598 0.013624897226691246 0.6710844039916992
0.4857395589351654 0.011891357600688934 0.6710567474365234
0.48650041222572327 0.011630253866314888 0.6710605621337891
0.49097636342048645 0.00977433193475008 0.6712605357170105
0.4962613880634308 0.00783524289727211 0.6713581681251526
0.5032215714454651 0.005851675756275654 0.6711732745170593
0.5040245652198792 0.005717065650969744 0.6711001992225647
0.5064380764961243 0.005318852607160807 0.6708764433860779
0.5120000839233398 0.0017631269292905927 0.6718124747276306
0.5141258835792542 -0.0017568760085850954 0.6733591556549072
0.5145121812820435 -0.003014790592715144 0.673980176448822
0.516410768032074 -0.0070052132941782475 0.6758267879486084
0.5176727175712585 -0.01034484338015318 0.6774322986602783
0.5184181928634644 -0.010593333281576633 0.6774322986602783
0.5276918411254883 7.656380330445245e-05 0.6698632836341858
0.5292731523513794 -0.0024801979307085276 0.6709794402122498
0.5312248468399048 -0.0061925314366817474 0.6726632118225098
0.5323554277420044 -0.007636415306478739 0.6732505559921265
0.5379695892333984 -0.006619343999773264 0.6716620922088623
0.5390039086341858 -0.006231321953237057 0.671258807182312
0.45375287532806396 0.01930462382733822 0.6719191074371338
0.45694538950920105 0.015426203608512878 0.6734723448753357
0.4628746509552002 0.01298102643340826 0.673730731010437
0.4689815640449524 0.014466211199760437 0.6717879176139832
0.4762819707393646 0.013915148563683033 0.6707488894462585
0.4884659945964813 0.009835229255259037 0.6707593202590942
0.4929114580154419 0.007909995503723621 0.6710044145584106
0.4944019019603729 0.007302280981093645 0.6710650324821472
0.4990048110485077 0.005893813446164131 0.6709957122802734
0.500545859336853 0.005443402100354433 0.6709609627723694
0.5068372488021851 0.003996663726866245 0.6706017851829529
0.5084006190299988 0.003600134514272213 0.6705329418182373
0.5112202167510986 0.0019386829808354378 0.6709314584732056
0.5148023962974548 -0.00455980421975255 0.6738585829734802
0.5159371495246887 -0.006056611891835928 0.6744758486747742
0.5166952013969421 -0.00853161234408617 0.6757022142410278
0.521857500076294 -0.010471422225236893 0.6758232116699219
0.5226054787635803 -0.0107207540422678 0.6758232116699219
0.5272834897041321 -0.001016747672110796 0.6696075201034546
0.5302819013595581 -0.004334281664341688 0.6708868145942688
0.5311092734336853 -0.006544709671288729 0.6719542741775513
0.5341989994049072 -0.007422956172376871 0.671870768070221
0.45412200689315796 0.01748897321522236 0.6719306707382202
0.4553402364253998 0.015680015087127686 0.6727070808410645
0.4573042094707489 0.013630431145429611 0.6734796166419983
0.45865556597709656 0.012474475428462029 0.673870325088501
0.4601995050907135 0.012145986780524254 0.6737669110298157
0.4662919044494629 0.013703538104891777 0.6717803478240967
0.4672236442565918 0.014142243191599846 0.6713657975196838
0.4737868309020996 0.01398414559662342 0.6702418923377991
0.47458967566490173 0.013885043561458588 0.6701483130455017
0.4784717559814453 0.01288463082164526 0.6699854135513306
0.48001039028167725 0.012428199872374535 0.6699543595314026
0.48154574632644653 0.011959291063249111 0.669930636882782
0.4822797179222107 0.011607675813138485 0.6699897646903992
0.4830138087272644 0.011256077326834202 0.6700494885444641
0.4859367311000824 0.00981979537755251 0.6703049540519714
0.486672580242157 0.009481255896389484 0.670356273651123
0.4903789460659027 0.007891806773841381 0.6705524921417236
0.4956052899360657 0.005814278963953257 0.670738160610199
0.4963745176792145 0.005589439533650875 0.670721173286438
0.5017507672309875 0.00398476654663682 0.6706172823905945
0.5025110840797424 0.0037314656656235456 0.6706172823905945
0.5041120648384094 0.0034617395140230656 0.6704704165458679
0.5095288753509521 0.0019475506851449609 0.67030930519104
0.5121420621871948 -0.00026359324692748487 0.6710514426231384
0.5138964056968689 -0.002450407948344946 0.6719385981559753
0.5150914192199707 -0.006098204758018255 0.6737378835678101
0.5169957280158997 -0.010005965828895569 0.6755500435829163
0.5182402729988098 -0.011153764091432095 0.6759558916091919
0.5254226326942444 -0.0014094098005443811 0.6692346334457397
0.5268702507019043 -0.0021223120857030153 0.6693620681762695
0.5282121300697327 -0.0030966259073466063 0.6696540117263794
0.5294942259788513 -0.00421062670648098 0.670034646987915
0.5323110818862915 -0.007887079380452633 0.6715498566627502
0.5381258130073547 -0.00641202088445425 0.6696599125862122
0.4518970549106598 0.01865307055413723 0.6707713007926941
0.4532680809497833 0.017492078244686127 0.6711624264717102
0.4544890522956848 0.015682490542531013 0.671941876411438
0.4584836959838867 0.011898110620677471 0.6733046174049377
0.460018515586853 0.011535130441188812 0.6732217669487
0.4625297486782074 0.011839542537927628 0.6725876331329346
0.4651664197444916 0.012603298760950565 0.6716750264167786
0.468757301568985 0.01381735596805811 0.670336127281189
0.4704800844192505 0.014098688960075378 0.6698604226112366
0.4720589518547058 0.01381252147257328 0.669727087020874
0.4744519591331482 0.01346405316144228 0.6694774627685547
0.4767513573169708 0.012756583280861378 0.6694446206092834
0.47982290387153625 0.011830916628241539 0.6693904399871826
0.4842451214790344 0.009800589643418789 0.66969895362854
0.48787516355514526 0.007953878492116928 0.6700530052185059
0.4886109530925751 0.007620654068887234 0.670101523399353
0.4930446147918701 0.005702147725969553 0.670346736907959
0.4983419179916382 0.0038810432888567448 0.670377254486084
0.5061162114143372 0.0018829802284017205 0.6700477600097656
0.5069169402122498 0.0017477963119745255 0.6699743270874023
0.5084871053695679 0.0013832160038873553 0.6698861718177795
0.5100082755088806 0.0008768178522586823 0.6698862314224243
0.511338472366333 -0.0001610334002180025 0.6702162623405457
0.5142102837562561 -0.003940534312278032 0.6717840433120728
0.5161290764808655 -0.007880632765591145 0.6736174821853638
0.5249164700508118 -0.002759308787062764 0.6691447496414185
0.5278218984603882 -0.004137134179472923 0.6693724393844604
0.5284625887870789 -0.004693176597356796 0.6695626974105835
0.5343465805053711 -0.007218045648187399 0.6698760986328125
0.5364059805870056 -0.006442813202738762 0.6690638661384583
0.4516565799713135 0.0177474208176136 0.6703944802284241
0.45363759994506836 0.01568511314690113 0.6711759567260742
0.4548545479774475 0.013885930180549622 0.6719523072242737
0.4568166136741638 0.011849827133119106 0.6727233529090881
0.4639439582824707 0.011096181347966194 0.6718185544013977
0.4649450480937958 0.011840145103633404 0.6712179183959961
0.46858662366867065 0.013264195993542671 0.6697477102279663
0.4703384339809418 0.013660050928592682 0.6692013740539551
0.4773337244987488 0.011932003311812878 0.6688648462295532
0.48250648379325867 0.009614109061658382 0.6691963076591492
0.4860978126525879 0.007639382034540176 0.6696293950080872
0.4883159101009369 0.006683880463242531 0.6697501540184021
0.49054333567619324 0.0057659144513309 0.6698475480079651
0.4920108914375305 0.005101104732602835 0.6699455380439758
0.494978666305542 0.0038852610159665346 0.6700717806816101
0.4964868128299713 0.0033557710703462362 0.670086681842804
0.5010806322097778 0.0019783698953688145 0.6700009107589722
0.5026058554649353 0.0014988193288445473 0.6699851155281067
0.5041992664337158 0.00121874560136348 0.669844925403595
0.5096694827079773 -0.00010016834858106449 0.6695637702941895
0.5104041695594788 -0.0004223842406645417 0.6696071028709412
0.5140700936317444 -0.0043569812551140785 0.6711189150810242
0.5160351991653442 -0.008172607980668545 0.6728807687759399
0.5168709754943848 -0.010424768552184105 0.6739808320999146
0.5200506448745728 -0.010929949581623077 0.6736713647842407
0.5242513418197632 -0.004515921231359243 0.6693158745765686
0.5294706225395203 -0.006538258399814367 0.6694735288619995
0.5306788682937622 -0.007805391680449247 0.6699552536010742
0.5323701500892639 -0.007887408137321472 0.6696863174438477
0.4501849412918091 0.018659787252545357 0.6692322492599487
0.4508017599582672 0.017750607803463936 0.6696258187294006
0.4559738337993622 0.01186815183609724 0.6719511151313782
0.4587402939796448 0.009861943311989307 0.6725574135780334
0.460305392742157 0.00963877234607935 0.6723901629447937
0.4619903862476349 0.009899100288748741 0.6719310879707336
0.462741494178772 0.009648731909692287 0.6719310879707336
0.4666615426540375 0.012275931425392628 0.6697308421134949
0.47564631700515747 0.011917811818420887 0.6682561039924622
0.4800954759120941 0.00998299103230238 0.6685087084770203
0.48441314697265625 0.007630325388163328 0.6690194606781006
0.4880213141441345 0.005749797448515892 0.6693986654281616
0.4924446642398834 0.0038378846365958452 0.6696431636810303
0.49467018246650696 0.0029358116444200277 0.669732928276062
0.49615976214408875 0.002355464966967702 0.6697797775268555
0.4976826608181 0.0018789900932461023 0.669762372970581
0.4984489977359772 0.001654793624766171 0.6697453856468201
0.500747561454773 0.0009807157330214977 0.6696931719779968
0.505399227142334 -0.0002180604642489925 0.6694967150688171
0.5061976313591003 -0.00035351866972632706 0.6694236993789673
0.5114500522613525 -0.002267497591674328 0.6695149540901184
