ply
format ascii 1.0
element vertex 818
property float x
property float y
property float z
end_header
0.5811087489128113 0.09728231281042099 0.6313272714614868
0.5808642506599426 0.094224713742733 0.6329296231269836
0.5803819894790649 0.088197723031044 0.6360883116722107
0.5809999704360962 0.0848158597946167 0.6377093195915222
0.5803771018981934 0.08099541068077087 0.6397656202316284
0.5796546936035156 0.07697855681180954 0.641938328742981
0.5793347358703613 0.0739130824804306 0.643557608127594
0.5802215933799744 0.07361741364002228 0.643557608127594
0.5801312327384949 0.07110801339149475 0.6448541283607483
0.5801642537117004 0.0688973143696785 0.645976185798645
0.580939531326294 0.06164344400167465 0.6495471596717834
0.580710768699646 0.05893006548285484 0.6509714722633362
0.5802568197250366 0.053574513643980026 0.6537821292877197
0.5808865427970886 0.05065011978149414 0.6551677584648132
0.5813531875610352 0.04741547256708145 0.6567392945289612
0.5820720195770264 0.04685351997613907 0.6569041013717651
0.5856131911277771 0.04397110268473625 0.6577728986740112
0.5864589214324951 0.043689146637916565 0.6577728986740112
0.5880051851272583 0.04282432794570923 0.657950758934021
0.5920034646987915 0.04095235839486122 0.6582260727882385
0.5917826890945435 0.038518328219652176 0.6595062017440796
0.5915635824203491 0.03610493615269661 0.6607755422592163
0.591960072517395 0.031062984839081764 0.6632816195487976
0.591783344745636 0.026887746527791023 0.6654424667358398
0.5926070213317871 0.02661319263279438 0.6654424667358398
0.5930404663085938 0.025574680417776108 0.6658989191055298
0.5943318009376526 0.02247929759323597 0.6672590970993042
0.5955767035484314 0.0211816243827343 0.6677097678184509
0.5960016250610352 0.020160000771284103 0.6681591272354126
0.5964249968528748 0.01914103515446186 0.6686068773269653
0.5976600050926208 0.01785394363105297 0.6690539717674255
0.5980803370475769 0.01684362255036831 0.6694982051849365
0.5984989404678345 0.01583532802760601 0.6699417233467102
0.5993312001228333 0.013827681541442871 0.6708247661590576
0.6001392602920532 0.013558320701122284 0.6708247661590576
0.600964367389679 0.011564723215997219 0.6717022657394409
0.602473258972168 0.010841595008969307 0.6718142032623291
0.6041452288627625 0.010415896773338318 0.6717471480369568
0.6067472696304321 0.009943543933331966 0.6715458035469055
0.6084213256835938 0.00951706524938345 0.6714783906936646
0.6171101927757263 0.007905036211013794 0.6708225607872009
0.6188572645187378 0.007589092943817377 0.6706868410110474
0.6275634765625 0.0059155491180717945 0.6700597405433655
0.62846440076828 0.005793367046862841 0.669968843460083
0.6301764249801636 0.005401254165917635 0.669877827167511
0.6328850388526917 0.0050347186625003815 0.6696037650108337
0.6346008777618408 0.00464156549423933 0.6695131063461304
0.5816301107406616 0.09593240171670914 0.6308247447013855
0.5807693600654602 0.09144400805234909 0.6332705616950989
0.5805285573005676 0.08844131976366043 0.6348497271537781
0.578331708908081 0.07151740789413452 0.6438935995101929
0.5793148279190063 0.06915242224931717 0.6449373364448547
0.5794529914855957 0.06718596816062927 0.6459205150604248
0.579727828502655 0.06554035097360611 0.6467165946960449
0.5799227356910706 0.06372766196727753 0.6476119160652161
0.5807955265045166 0.06343667954206467 0.6476119160652161
0.5808507204055786 0.05912569910287857 0.6498101949691772
0.580622136592865 0.05643216148018837 0.6512289643287659
0.580798864364624 0.04821594059467316 0.6554074883460999
0.5812508463859558 0.047076135873794556 0.6559139490127563
0.5817159414291382 0.0459710992872715 0.6564007997512817
0.5825634002685547 0.04568856954574585 0.6564007997512817
0.5876086950302124 0.041873566806316376 0.6574934720993042
0.588418185710907 0.04152042046189308 0.6575359106063843
0.5900188684463501 0.04077814891934395 0.6576429009437561
0.5915636420249939 0.03992438316345215 0.6578167080879211
0.5916983485221863 0.03623984009027481 0.6596807241439819
0.5925365090370178 0.035960469394922256 0.6596807241439819
0.5923147797584534 0.033566009253263474 0.6609451770782471
0.5920941829681396 0.031191213056445122 0.662199079990387
0.5918757319450378 0.028837256133556366 0.6634417772293091
0.5922609567642212 0.027689311653375626 0.6639642715454102
0.5943831205368042 0.0242972020059824 0.6653394103050232
0.5948126316070557 0.02326476015150547 0.6657949686050415
0.5960596799850464 0.02196255326271057 0.6662486791610718
0.5969090461730957 0.019914956763386726 0.6671527624130249
0.5981465578079224 0.018623700365424156 0.667603075504303
0.6006280779838562 0.014310915023088455 0.6693879961967468
0.6010417938232422 0.013309173285961151 0.6698305010795593
0.6038353443145752 0.00969722867012024 0.6712031364440918
0.6047016382217407 0.009539649821817875 0.671136736869812
0.6133496165275574 0.007895291782915592 0.6705026030540466
0.6142401099205017 0.007771833799779415 0.670413076877594
0.6211257576942444 0.006341114640235901 0.6699703931808472
0.6220113635063171 0.006200974341481924 0.6698912978172302
0.6237874627113342 0.005926433950662613 0.6697283387184143
0.6245964169502258 0.005656730849295855 0.6697283387184143
0.6263872981071472 0.005402074661105871 0.6695533394813538
0.6352286338806152 0.003889391664415598 0.6688185334205627
0.6361520886421204 0.0037960726767778397 0.668708860874176
0.5816534161567688 0.09588948637247086 0.6297388672828674
0.580568790435791 0.0884353518486023 0.6337552070617676
0.5781888365745544 0.07810553908348083 0.6394729614257812
0.5775423049926758 0.07425809651613235 0.641560971736908
0.5773364305496216 0.07145301252603531 0.6430377960205078
0.5774418711662292 0.06938096135854721 0.6440850496292114
0.5787599682807922 0.06551612168550491 0.6458455324172974
0.5806301236152649 0.06073291227221489 0.6479831337928772
0.5805344581604004 0.05395188555121422 0.651485025882721
0.5811643600463867 0.05101829767227173 0.6528849601745605
0.5812490582466125 0.0490696057677269 0.6538721919059753
0.5821815729141235 0.046847760677337646 0.6548542976379395
0.5834936499595642 0.04545925185084343 0.6553433537483215
0.5846984386444092 0.04385866969823837 0.6559594869613647
0.5887017250061035 0.03995595872402191 0.6572795510292053
0.5926723480224609 0.03609504923224449 0.6585836410522461
0.5924500226974487 0.033697616308927536 0.6598541140556335
0.5922289490699768 0.031319912523031235 0.6611137390136719
0.5923041701316833 0.029545309022068977 0.662013590335846
0.5940021276473999 0.027172742411494255 0.6629413366317749
0.5948660969734192 0.025090375915169716 0.6638643145561218
0.5961182117462158 0.02377985790371895 0.6643230319023132
0.5969708561897278 0.021718015894293785 0.6652364134788513
0.5994738936424255 0.017360899597406387 0.6670472621917725
0.6003080010414124 0.015339281409978867 0.6679437160491943
0.602357029914856 0.012060892768204212 0.669277548789978
0.6027671098709106 0.01106493454426527 0.6697192788124084
0.6095975041389465 0.00788144115358591 0.6701850295066833
0.610485851764679 0.0077581689693033695 0.6700965166091919
0.613070547580719 0.007243000902235508 0.6699181795120239
0.6148262023925781 0.006951732560992241 0.6697669625282288
0.6165041923522949 0.006523931864649057 0.6696996688842773
0.6182601451873779 0.006227349862456322 0.6695506572723389
0.6199498772621155 0.0058151124976575375 0.6694737672805786
0.6208348870277405 0.005676220636814833 0.6693933010101318
0.631423830986023 0.0038864987436681986 0.6684986352920532
0.6323340535163879 0.0037764115259051323 0.6683995127677917
0.6368545293807983 0.003161968197673559 0.6679412722587585
0.6385939121246338 0.0028013435658067465 0.6678284406661987
0.5810658931732178 0.09194173663854599 0.6307698488235474
0.5765873789787292 0.07903923839330673 0.6381942629814148
0.5764496922492981 0.06931611150503159 0.6432322859764099
0.5765875577926636 0.06732578575611115 0.6442354917526245
0.5777467489242554 0.06539041548967361 0.6450341939926147
0.5780700445175171 0.06385374814271927 0.6457711458206177
0.57883620262146 0.06108025461435318 0.6470698118209839
0.5801534652709961 0.05956472083926201 0.6476248502731323
0.5807313323020935 0.05644221603870392 0.6491358876228333
0.5806738138198853 0.05414078012108803 0.6503324508666992
0.5813038349151611 0.05120289325714111 0.6517395377159119
0.5821835994720459 0.0488421656191349 0.6528060436248779
0.5826500058174133 0.04772922396659851 0.6532999277114868
0.5844262838363647 0.045230310410261154 0.6542832851409912
0.5861908793449402 0.04274776205420494 0.6552601456642151
0.5866462588310242 0.04165337607264519 0.6557465195655823
0.587553083896637 0.03947605565190315 0.6567139029502869
0.5906252264976501 0.03775164112448692 0.6570746898651123
0.5928084254264832 0.03622930869460106 0.6574844121932983
0.5932226777076721 0.02930482290685177 0.6609845161437988
0.5940526127815247 0.029028169810771942 0.6609845161437988
0.5944870710372925 0.027977820485830307 0.6614516377449036
0.5966057181358337 0.0245725829154253 0.662843644618988
0.5970332622528076 0.023536132648587227 0.6633048057556152
0.5983068346977234 0.02044663019478321 0.6646791696548462
0.5995468497276306 0.019150694832205772 0.6651344299316406
0.6003834009170532 0.01711377501487732 0.6660410165786743
0.6020280718803406 0.014819993637502193 0.6669416427612305
0.602439820766449 0.01381271705031395 0.6673901081085205
0.604070782661438 0.011540797539055347 0.6682816743850708
0.604884684085846 0.009551839902997017 0.6691672801971436
0.605856716632843 0.007867631502449512 0.6698684096336365
0.6066610217094421 0.0075994823127985 0.6698684096336365
0.6084341406822205 0.007353476248681545 0.6696912050247192
0.6102087497711182 0.007106729317456484 0.6695129871368408
0.6153309941291809 0.0059931110590696335 0.6692070960998535
0.6162073612213135 0.005844563711434603 0.6691327691078186
0.6276347041130066 0.003889859654009342 0.668176531791687
0.6284440159797668 0.003620089963078499 0.668176531791687
0.6302561163902283 0.003393875900655985 0.6679814457893372
0.6320916414260864 0.0032006839755922556 0.6677655577659607
0.6347651481628418 0.002775121247395873 0.6675257086753845
0.5758781433105469 0.079677514731884 0.6369113922119141
0.5747895240783691 0.0747440904378891 0.6396520733833313
0.5753514170646667 0.07133879512548447 0.6413177847862244
0.5754566788673401 0.06925105303525925 0.6423794627189636
0.5755993723869324 0.0672641471028328 0.6433832049369812
0.5758582353591919 0.06555751711130142 0.6442221403121948
0.5770592093467712 0.0637279525399208 0.6449618935585022
0.5778172612190247 0.06092710793018341 0.6462803483009338
0.5782737731933594 0.059714458882808685 0.6468290686607361
0.580035924911499 0.0569886788725853 0.6479359269142151
0.5804733037948608 0.05576171353459358 0.6484956741333008
0.5815634727478027 0.05380002409219742 0.6493228077888489
0.5821861028671265 0.05085393786430359 0.650739848613739
0.5826541781425476 0.04973249509930611 0.6512397527694702
0.5844378471374512 0.04721572622656822 0.6522343754768372
0.585360050201416 0.04499946907162666 0.6532222032546997
0.5858187675476074 0.04389653727412224 0.6537140607833862
0.5866673588752747 0.04361366853117943 0.6537140607833862
0.5880306959152222 0.04032950475811958 0.6551784873008728
0.5884819626808167 0.03924151882529259 0.6556639075279236
0.5897735953330994 0.03787701949477196 0.6561468839645386
0.5907021760940552 0.035793233662843704 0.6570651531219482
0.5920382738113403 0.03454919531941414 0.6574784517288208
0.592605471611023 0.03373007848858833 0.6578049659729004
0.5932701230049133 0.031176943331956863 0.6590107679367065
0.5945397019386292 0.029841357842087746 0.6594836115837097
0.5962693691253662 0.025644779205322266 0.6613571047782898
0.5983746647834778 0.022258112207055092 0.6627465486526489
0.598798394203186 0.02122773416340351 0.6632068157196045
0.6000404357910156 0.019927270710468292 0.663665235042572
0.6004601716995239 0.018904199823737144 0.6641223430633545
0.6008780002593994 0.01788349822163582 0.6645787358283997
0.6021106243133545 0.01659398339688778 0.6650331616401672
0.6025251746177673 0.01558138057589531 0.6654857397079468
0.6045699715614319 0.012289520353078842 0.6668367385864258
0.6049779057502747 0.01128981914371252 0.6672837734222412
0.606193482875824 0.008309406228363514 0.668616533279419
0.6124849319458008 0.0058898162096738815 0.6687833666801453
0.6229596138000488 0.004014930222183466 0.6679466962814331
0.6237674355506897 0.0037456490099430084 0.6679466962814331
0.6246644854545593 0.003623556811362505 0.6678552031517029
0.6264650225639343 0.003387063043192029 0.6676667332649231
0.6281831860542297 0.00301222107373178 0.6675647497177124
0.6372037529945374 0.0017813942395150661 0.6666454076766968
0.6381304264068604 0.0016912370920181274 0.6665319800376892
0.5739253759384155 0.0750022903084755 0.6385994553565979
0.5735378861427307 0.07172568887472153 0.6403680443763733
0.5744641423225403 0.06918670982122421 0.6415264010429382
0.574846625328064 0.06543613225221634 0.6434078216552734
0.5771093964576721 0.06147432699799538 0.6450738906860352
0.5794240832328796 0.057725198566913605 0.6466200947761536
0.5803784728050232 0.05543845146894455 0.6476421356201172
0.5821869373321533 0.05288008973002434 0.648657500743866
0.5826566219329834 0.05174960196018219 0.6491634845733643
0.5844483375549316 0.04921606928110123 0.6501688957214355
0.5853756070137024 0.046985797584056854 0.6511667966842651
0.5858362913131714 0.04587530717253685 0.6516633629798889
0.5862954258918762 0.044768039137125015 0.6521590948104858
0.5880571603775024 0.04228243604302406 0.6531448364257812
0.5885103344917297 0.04118659347295761 0.6536356806755066
0.5902565121650696 0.03872508928179741 0.6546120643615723
0.5907039642333984 0.03764127567410469 0.6550970673561096
0.5937572121620178 0.03199920803308487 0.6574984788894653
0.5941947102546692 0.030936915427446365 0.6579746007919312
0.5963292717933655 0.02749398723244667 0.6593928337097168
0.5980166792869568 0.025125576183199883 0.6603309512138367
0.5988684892654419 0.02304704301059246 0.6612626314163208
0.6001154780387878 0.02173842117190361 0.6617266535758972
0.6005364656448364 0.020707912743091583 0.6621885299682617
0.6017917394638062 0.017635853961110115 0.6635670065879822
0.6026099920272827 0.017363106831908226 0.6635670065879822
0.6042587161064148 0.013312999159097672 0.6653845906257629
0.6062920093536377 0.010041171684861183 0.6667315363883972
0.606696367263794 0.009047253988683224 0.6671783328056335
0.6079057455062866 0.007787572219967842 0.6676227450370789
0.6087700128555298 0.005929848644882441 0.6684378385543823
0.6104487180709839 0.005516591481864452 0.6683619022369385
0.6156309247016907 0.004515199456363916 0.6679846048355103
0.6165176033973694 0.00438464293256402 0.6678993105888367
0.6183019876480103 0.0041398340836167336 0.6677173972129822
0.6191083788871765 0.0038710390217602253 0.6677173972129822
0.6200017333030701 0.003748923307284713 0.6676263213157654
0.6324511170387268 0.0018345898715779185 0.6664652824401855
0.6343119144439697 0.001677792752161622 0.666224479675293
0.6361614465713501 0.0014976696111261845 0.6659979820251465
0.6388258337974548 0.0010463274084031582 0.6657707095146179
0.5730990171432495 0.07535334676504135 0.6374902129173279
0.5726083517074585 0.07181906700134277 0.6394171714782715
0.5737481713294983 0.0697656124830246 0.6402897238731384
0.5747396349906921 0.06739676743745804 0.641351580619812
0.5766004920005798 0.06475164741277695 0.6424070596694946
0.577088475227356 0.06358165293931961 0.6429315805435181
0.5780598521232605 0.061253298074007034 0.6439764499664307
0.5785428285598755 0.060094863176345825 0.6444958448410034
0.5794132947921753 0.05980471521615982 0.6444958448410034
0.5803718566894531 0.057500965893268585 0.6455301642417908
0.5821881890296936 0.05492419749498367 0.6465572714805603
0.5826601982116699 0.0537865087389946 0.6470677256584167
0.5840670466423035 0.05039568617939949 0.6485902667045593
0.5853903889656067 0.04898710548877716 0.6490951180458069
0.5858531594276428 0.047868501394987106 0.6495972871780396
0.58631432056427 0.04675395041704178 0.6500982046127319
0.5867737531661987 0.045641668140888214 0.6505976319313049
0.5880835056304932 0.0442509688436985 0.6510949730873108
0.5885398387908936 0.043149128556251526 0.6515898704528809
0.5902928113937378 0.040670156478881836 0.6525775790214539
0.5907420516014099 0.03957820683717728 0.6530682444572449
0.5920809507369995 0.03632388263940811 0.6545310020446777
0.5933651924133301 0.034966401755809784 0.6550159454345703
0.5938048362731934 0.03389054909348488 0.6554999947547913
0.5942456126213074 0.0328238271176815 0.6559792160987854
0.5963897705078125 0.029358984902501106 0.6574124693870544
0.5980839729309082 0.026974789798259735 0.6583603620529175
0.5985120534896851 0.025926511734724045 0.6588324904441833
0.5993642807006836 0.02384011447429657 0.6597713828086853
0.6006138324737549 0.022526752203702927 0.6602389216423035
0.6018741130828857 0.01943386159837246 0.6616314649581909
0.6022912263870239 0.01840939000248909 0.6620930433273315
0.6043512225151062 0.015082844533026218 0.6634686589241028
0.6055766940116882 0.013799527660012245 0.6639242172241211
0.6063908934593201 0.011786633171141148 0.6648321151733398
0.607201337814331 0.009788482449948788 0.665732741355896
0.6080112457275391 0.009518503211438656 0.665732741355896
0.6084129214286804 0.00852450355887413 0.6661806106567383
0.6088137030601501 0.007533636875450611 0.6666274070739746
0.6096108555793762 0.005561085417866707 0.6675165295600891
0.6104157567024231 0.0052928016521036625 0.6675165295600891
0.612779438495636 0.004400236997753382 0.6675711870193481
0.6144676804542542 0.00399908097460866 0.6674872040748596
0.6162477135658264 0.003752472111955285 0.6673064827919006
0.6277057528495789 0.0018690945580601692 0.6662978529930115
0.6286319494247437 0.0017909022280946374 0.6661773920059204
0.6304872632026672 0.001635166467167437 0.6659365296363831
0.632225751876831 0.001287440420128405 0.6658154129981995
0.6340824961662292 0.0011243009939789772 0.665578305721283
0.5723240971565247 0.07343374937772751 0.6375580430030823
0.5728258490562439 0.0722334161400795 0.6380978226661682
0.5742112398147583 0.07074233144521713 0.6386361122131348
0.5747079253196716 0.06955042481422424 0.6391730308532715
0.5761884450912476 0.06599946320056915 0.6407715678215027
0.5780426263809204 0.06336065381765366 0.6418280601501465
0.578528106212616 0.06219406798481941 0.6423535943031311
0.5803648233413696 0.05958115682005882 0.6433994770050049
0.5826634764671326 0.055840011686086655 0.6449549794197083
0.5836071968078613 0.053559042513370514 0.6459835171699524
0.5840764045715332 0.05242413282394409 0.6464948058128357
0.5845445990562439 0.05129339545965195 0.6470045447349548
0.5858702659606934 0.04987955838441849 0.6475129723548889
0.5863333344459534 0.04875651374459267 0.6480191349983215
0.5867950320243835 0.04763754457235336 0.6485239863395691
0.5881106853485107 0.04623691737651825 0.6490271091461182
0.5885676741600037 0.04512555152177811 0.6495282053947449
0.5899301767349243 0.04181376099586487 0.6510229110717773
0.5907798409461975 0.0415305495262146 0.6510229110717773
0.5921248197555542 0.03825339674949646 0.6525020003318787
0.5925699472427368 0.03716767579317093 0.652991771697998
0.5938562750816345 0.035804957151412964 0.6534803509712219
0.5942977070808411 0.034727778285741806 0.6539667248725891
0.5960134863853455 0.032302893698215485 0.6549354791641235
0.5964500308036804 0.031238416209816933 0.6554158926010132
0.5985815525054932 0.027783360332250595 0.6568507552146912
0.5994371771812439 0.02568254992365837 0.6578003764152527
0.6002873182296753 0.02359500154852867 0.6587434411048889
0.6019569039344788 0.02124602533876896 0.6596810817718506
0.6023756265640259 0.02021469920873642 0.660146951675415
0.6027934551239014 0.01918639801442623 0.6606118679046631
0.6040304899215698 0.017887689173221588 0.6610755324363708
0.6048561930656433 0.015847763046622276 0.6619985699653625
0.6060840487480164 0.014560587704181671 0.6624572277069092
0.6064920425415039 0.013548729941248894 0.6629148125648499
0.6073040962219238 0.011534934863448143 0.6638267636299133
0.6085208654403687 0.010263043455779552 0.6642798185348511
0.6097227931022644 0.007279376965016127 0.6656298041343689
0.6101212501525879 0.0062911310233175755 0.6660771369934082
0.6125041842460632 0.003755586687475443 0.666987955570221
0.6229952573776245 0.001929648220539093 0.666114091873169
0.6248252391815186 0.0017481987597420812 0.6658898591995239
0.6266741156578064 0.0015918298158794641 0.6656497120857239
0.628407895565033 0.0012439369456842542 0.6655296087265015
0.6383627653121948 -6.218715861905366e-05 0.6644775867462158
0.5708820819854736 0.07714709639549255 0.6347925066947937
0.5722813606262207 0.07563554495573044 0.6353404521942139
0.574675977230072 0.07172312587499619 0.6369743347167969
0.5761633515357971 0.06814534962177277 0.6385914087295532
0.5766555666923523 0.06696117669343948 0.6391268372535706
0.5780259966850281 0.06548754870891571 0.6396604180335999
0.578513503074646 0.06431198865175247 0.6401915550231934
0.5794835686683655 0.061972592025995255 0.6412496566772461
0.5803586840629578 0.061680883169174194 0.6412496566772461
0.5822727084159851 0.05705129727721214 0.6433441042900085
0.5836147665977478 0.05561470240354538 0.6438627243041992
0.5840861797332764 0.05447138100862503 0.6443797945976257
0.5845562219619751 0.05333228036761284 0.6448959112167358
0.5858875513076782 0.05190839245915413 0.6454097628593445
0.5863525867462158 0.05077673867344856 0.6459224224090576
0.5868160128593445 0.04964921623468399 0.6464325785636902
0.5877388715744019 0.047405846416950226 0.6474485397338867
0.5885964632034302 0.047119997441768646 0.6474485397338867
0.5899646282196045 0.04378420114517212 0.6489594578742981
0.5904176235198975 0.042679544538259506 0.6494600772857666
0.5917195081710815 0.04129539430141449 0.6499581933021545
0.5921682715415955 0.040198396891355515 0.6504552960395813
0.5926153659820557 0.03910515084862709 0.6509509682655334
0.5939071774482727 0.03773375600576401 0.6514441967010498
0.5943498015403748 0.03664817661046982 0.6519365906715393
0.5956704020500183 0.033414870500564575 0.6534018516540527
0.5965110659599304 0.033134642988443375 0.6534018516540527
0.5978145003318787 0.029934342950582504 0.6548528075218201
0.5982465147972107 0.02887478843331337 0.6553332209587097
0.599510669708252 0.02754056639969349 0.6558122634887695
0.6003641486167908 0.025438278913497925 0.6567662954330444
0.6020404100418091 0.023073425516486168 0.6577141880989075
0.6024606823921204 0.022034568712115288 0.6581854224205017
0.6028801202774048 0.020999368280172348 0.6586552262306213
0.6032978296279907 0.01996718719601631 0.6591233611106873
0.6041221618652344 0.01969236694276333 0.6591233611106873
0.6065935492515564 0.015324743464589119 0.6609829068183899
0.6074092388153076 0.013297613710165024 0.6619041562080383
0.6082189083099365 0.011282346211373806 0.6628198027610779
0.6098361015319824 0.009011675603687763 0.6637280583381653
0.6102359890937805 0.008016673848032951 0.6641802191734314
0.6106342673301697 0.007024804595857859 0.664630651473999
0.6118390560150146 0.00576687091961503 0.6650804877281189
0.6122338771820068 0.004781800787895918 0.665528416633606
0.6126270294189453 0.0037993979640305042 0.6659747362136841
0.6175220608711243 0.002299141138792038 0.6659059524536133
0.6183273196220398 0.0020307283848524094 0.6659059524536133
0.6192293763160706 0.0019250637851655483 0.6658035516738892
0.6201324462890625 0.0018197452882304788 0.6657007336616516
0.6227582097053528 0.0013584938133135438 0.6654839515686035
0.6345462799072266 -7.265162275871262e-05 0.6641726493835449
0.6362807750701904 -0.0004334073746576905 0.6640589833259583
0.6372056007385254 -0.000524607952684164 0.6639448404312134
0.6381312608718872 -0.0006154587026685476 0.6638303995132446
0.5708324909210205 0.07937921583652496 0.6325488090515137
0.5722386837005615 0.0778573751449585 0.6331033110618591
0.5742543339729309 0.07300674915313721 0.6353034377098083
0.5756418704986572 0.07150837033987045 0.6358484625816345
0.5761383175849915 0.07031109929084778 0.6363916993141174
0.5766328573226929 0.06911756843328476 0.6369335651397705
0.577125608921051 0.0679285004734993 0.6374726891517639
0.5780091285705566 0.0676339864730835 0.6374726891517639
0.5784986019134521 0.06644917279481888 0.6380107998847961
0.5799576640129089 0.06291945278644562 0.6396129727363586
0.5808351039886475 0.06262695789337158 0.6396129727363586
0.5822746753692627 0.059135135263204575 0.6411986351013184
0.5827513933181763 0.057978760451078415 0.6417237520217896
0.5840961933135986 0.05653641000390053 0.6422473788261414
0.5845680832862854 0.055388808250427246 0.6427683234214783
0.5855072140693665 0.05310492590069771 0.6438062191009521
0.5863728523254395 0.05281638354063034 0.6438062191009521
0.587765097618103 0.049420613795518875 0.6453496217727661
0.5882259011268616 0.048296164721250534 0.6458603739738464
0.590000331401825 0.045773256570100784 0.6468775272369385
0.5909084677696228 0.04355183243751526 0.6478875279426575
0.5922132134437561 0.04216230288147926 0.6483902335166931
0.5926620364189148 0.04106111824512482 0.6488913893699646
0.5931093096733093 0.03996358439326286 0.6493903994560242
0.5944038033485413 0.038587190210819244 0.6498874425888062
0.5978808999061584 0.03182205185294151 0.6528393626213074
0.5983144640922546 0.030755098909139633 0.653325080871582
0.5987465977668762 0.029691480100154877 0.6538092494010925
0.6000134348869324 0.028353119269013405 0.6542916297912598
0.600441575050354 0.027296867221593857 0.6547726392745972
0.6012926697731018 0.025193406268954277 0.6557303667068481
0.6021245718002319 0.02491609938442707 0.6557303667068481
0.603386640548706 0.021787717938423157 0.6571557521820068
0.6046316027641296 0.020476581528782845 0.6576277017593384
0.6058736443519592 0.01738964021205902 0.6590348482131958
0.6062847375869751 0.016366956755518913 0.6595007181167603
0.6075149774551392 0.015074530616402626 0.6599659323692322
0.6083279848098755 0.013045895844697952 0.6608911156654358
0.6095492243766785 0.011765650473535061 0.6613509058952332
0.6103511452674866 0.009756019338965416 0.6622676253318787
0.6111496090888977 0.007761847227811813 0.6631776094436646
0.6123567223548889 0.006499622482806444 0.6636303663253784
0.6143432855606079 0.003274056827649474 0.6649796962738037
0.6154752969741821 0.0019209146266803145 0.6654936075210571
0.6163756251335144 0.0018153322162106633 0.6653910279273987
0.6298151016235352 -3.2320274385710945e-06 0.6639899611473083
0.6307415962219238 -8.350573625648394e-05 0.6638694405555725
0.6324717402458191 -0.00044371301191858947 0.6637558341026306
0.6343165040016174 -0.0006254933541640639 0.6635273694992065
0.5712953805923462 0.08039922267198563 0.6308461427688599
0.5718057155609131 0.07917043566703796 0.6314049959182739
0.5727040767669678 0.0788709819316864 0.6314049959182739
0.5732115507125854 0.07764670252799988 0.6319625377655029
0.5742201805114746 0.07521120458841324 0.6330713033676147
0.5747223496437073 0.07399968802928925 0.6336230039596558
0.5761128664016724 0.07249583303928375 0.634172797203064
0.5766094923019409 0.0712931826710701 0.6347202658653259
0.5775981545448303 0.06890059262514114 0.635810375213623
0.5784841179847717 0.06860543042421341 0.635810375213623
0.5799495577812195 0.06504879891872406 0.6374310255050659
0.5804346799850464 0.06387165933847427 0.637967050075531
0.5822769999504089 0.06123688444495201 0.6390348076820374
0.5841061472892761 0.05861969292163849 0.6400951743125916
0.5845802426338196 0.057463210076093674 0.6406226754188538
0.5855230093002319 0.05516194924712181 0.6416722536087036
0.5877906084060669 0.05145121365785599 0.6432331204414368
0.588253378868103 0.050318315625190735 0.6437503099441528
0.5900353789329529 0.04777771234512329 0.6447789072990417
0.5909472703933716 0.04553968086838722 0.6458004713058472
0.5922572016716003 0.04414082691073418 0.646308422088623
0.5927084684371948 0.04303228482604027 0.6468146443367004
0.5931577086448669 0.04192708432674408 0.647318959236145
0.6005182862281799 0.029168765991926193 0.652762770652771
0.6013736724853516 0.027052387595176697 0.6537302732467651
0.6034765839576721 0.02362389862537384 0.6551715135574341
0.6059731245040894 0.019195599481463432 0.6570711731910706
0.6063860058784485 0.01816606894135475 0.6575419902801514
0.6080297231674194 0.01584262028336525 0.6584802269935608
0.6088436841964722 0.013807157054543495 0.6594118475914001
0.6100664734840393 0.012521162629127502 0.6598761677742004
0.6104689836502075 0.011512690223753452 0.6603376269340515
0.6112689971923828 0.009502033703029156 0.6612593531608582
0.6124805212020874 0.008231894113123417 0.661716639995575
0.6136654615402222 0.005254425574094057 0.6630806922912598
0.6140581369400024 0.0042682369239628315 0.663532555103302
0.6148658990859985 0.003998980391770601 0.663532555103302
0.6241589784622192 0.00011130256461910903 0.6639503836631775
0.6260058283805847 -4.5176089770393446e-05 0.6637074947357178
0.5712473392486572 0.08266282826662064 0.6285678744316101
0.5717605948448181 0.0814245343208313 0.6291336417198181
0.572271466255188 0.08019017428159714 0.6296979188919067
0.5731723308563232 0.07988988608121872 0.6296979188919067
0.5741862058639526 0.07743559777736664 0.6308194398880005
0.5751925110816956 0.07499788701534271 0.6319335699081421
0.5760869383811951 0.07469969987869263 0.6319335699081421
0.5765860080718994 0.07348781079053879 0.6324880123138428
0.5775792002677917 0.07107705622911453 0.6335901021957397
0.579940915107727 0.06719651073217392 0.635230302810669
0.5804281830787659 0.06601044535636902 0.6357725262641907
0.5809136033058167 0.06482811272144318 0.6363130807876587
0.5822784900665283 0.06335631012916565 0.6368528008460999
0.5832381248474121 0.06101274490356445 0.6379252672195435
0.5837156772613525 0.0598473884165287 0.6384581923484802
0.5845916867256165 0.05955531820654869 0.6384581923484802
0.5855389833450317 0.057236865162849426 0.6395201086997986
0.5860099196434021 0.05608353763818741 0.6400478482246399
0.5864794254302979 0.054934125393629074 0.6405744552612305
0.5878163576126099 0.053499385714530945 0.6410987973213196
0.5882810950279236 0.0523582361638546 0.6416211724281311
0.5900703072547913 0.0497993603348732 0.6426612734794617
0.5909869074821472 0.047545891255140305 0.6436945199966431
0.5927556753158569 0.045021284371614456 0.6447198987007141
0.5932061076164246 0.04390620067715645 0.6452311873435974
0.5941050052642822 0.041692573577165604 0.6462458372116089
0.5958481431007385 0.03920738399028778 0.647255003452301
0.5962910056114197 0.038114093244075775 0.6477563977241516
0.6023076772689819 0.026807159185409546 0.6526865363121033
0.6035670638084412 0.025475336238741875 0.6531700491905212
0.6044082641601562 0.023377271369099617 0.6541337966918945
0.6060734987258911 0.02101675048470497 0.6550905704498291
0.6064878702163696 0.019979996606707573 0.6555665135383606
0.6073128581047058 0.017916511744260788 0.6565148234367371
0.6081383228302002 0.017641369253396988 0.6565148234367371
0.6089552640914917 0.015591718256473541 0.6574572324752808
0.6113907098770142 0.011259414255619049 0.6593228578567505
0.6133996844291687 0.007976540364325047 0.6607081294059753
0.6141886711120605 0.005987519398331642 0.6616227030754089
0.6161702275276184 0.0027585283387452364 0.6629844903945923
0.6165581345558167 0.0017787488177418709 0.6634353399276733
0.6185317635536194 0.00022821676975581795 0.6639083027839661
0.620369017124176 7.109799480531365e-05 0.6636673212051392
0.6212885975837708 -7.560848189314129e-06 0.6635462045669556
0.6220942735671997 -0.0002761109790299088 0.6635462045669556
0.6248601078987122 -0.000511426362209022 0.6631825566291809
0.6355899572372437 -0.002091106493026018 0.6621241569519043
0.6365137100219727 -0.002182453405112028 0.6620091795921326
0.6374382972717285 -0.002273872960358858 0.6618940830230713
0.6383634209632874 -0.002365787047892809 0.6617796421051025
0.6401002407073975 -0.002727667335420847 0.6616643667221069
0.572739839553833 0.08121504634618759 0.6279809474945068
0.5741512179374695 0.07967885583639145 0.6285480260848999
0.5751622915267944 0.0772227868437767 0.6296749114990234
0.5775595903396606 0.073272205889225 0.6313509345054626
0.5780557990074158 0.07206404954195023 0.631905198097229
0.5785500407218933 0.07085974514484406 0.6324583292007446
0.5799322128295898 0.06936325132846832 0.6330093145370483
0.5804216265678406 0.0681677907705307 0.6335586309432983
0.58139568567276 0.06578965485095978 0.634650468826294
0.5822802186012268 0.06549476832151413 0.634650468826294
0.5832440853118896 0.0631336197257042 0.635735273361206
0.5842013955116272 0.06078850477933884 0.6368126273155212
0.5855550169944763 0.05933006480336189 0.6373484134674072
0.5860280394554138 0.058168090879917145 0.6378828287124634
0.5864995718002319 0.05701007694005966 0.6384148001670837
0.5869696736335754 0.055856041610240936 0.6389459371566772
0.5883098840713501 0.054417386651039124 0.6394729614257812
0.5897008776664734 0.05099162086844444 0.6410488486289978
0.5905675888061523 0.05070287361741066 0.6410488486289978
0.591026782989502 0.04956985265016556 0.6415696740150452
0.5923957824707031 0.046193335205316544 0.6431225538253784
0.5932565331459045 0.04590637609362602 0.6431225538253784
0.594157874584198 0.043674036860466 0.6441499590873718
0.5950535535812378 0.04145662486553192 0.6451708674430847
0.5963526368141174 0.04006887972354889 0.6456788778305054
0.6040794849395752 0.026281224563717842 0.6516414284706116
0.6045021414756775 0.02522878535091877 0.6521267294883728
0.6053416728973389 0.023130327463150024 0.6530941724777222
0.6061745882034302 0.022852692753076553 0.6530941724777222
0.6065906286239624 0.021808931604027748 0.6535751223564148
0.6086583733558655 0.018421143293380737 0.6550107598304749
0.6090676784515381 0.01739095151424408 0.6554857492446899
0.6102878451347351 0.014320208691060543 0.656902551651001
0.6115124821662903 0.013028962537646294 0.6573724746704102
0.6123143434524536 0.011005531065165997 0.6583061814308167
0.6127118468284607 0.009995893575251102 0.6587731838226318
0.6143205165863037 0.007720866706222296 0.6596975922584534
0.6147143244743347 0.006723988801240921 0.6601576805114746
0.616309404373169 0.00447023194283247 0.6610742807388306
0.6166996359825134 0.003485331078991294 0.6615288257598877
0.6192301511764526 -0.0003941040486097336 0.6631436944007874
0.6300578117370605 -0.00173794268630445 0.6619383096694946
0.6308658719062805 -0.002007306320592761 0.6619383096694946
0.632706880569458 -0.0021897940896451473 0.6617091298103333
0.6345506906509399 -0.002372712129727006 0.6614797711372375
0.5751324892044067 0.07946937531232834 0.6273946762084961
0.5761407613754272 0.07700996100902557 0.6285277009010315
0.5775402188301086 0.0754876658320427 0.6290913820266724
0.5780384540557861 0.07426968961954117 0.6296523213386536
0.5790297389030457 0.07184678316116333 0.6307688355445862
0.5804150700569153 0.07034482061862946 0.631324052810669
0.5809048414230347 0.06914439052343369 0.6318777799606323
0.5813929438591003 0.0679481253027916 0.6324290037155151
0.5827668905258179 0.06646035611629486 0.6329792737960815
0.583250105381012 0.0652732104063034 0.6335264444351196
0.5842116475105286 0.06291048228740692 0.6346161961555481
0.5846902132034302 0.061735253781080246 0.635158360004425
0.5860462784767151 0.060271210968494415 0.6356986165046692
0.5869923830032349 0.05794315040111542 0.6367723941802979
0.5883378982543945 0.056492771953344345 0.6373071670532227
0.5888051390647888 0.05533844977617264 0.6378403306007385
0.5897355675697327 0.0530434288084507 0.6388993263244629
0.5901985168457031 0.051901523023843765 0.6394264101982117
0.5924414992332458 0.048209644854068756 0.6409975290298462
0.592896580696106 0.04708290472626686 0.6415179967880249
0.5942115783691406 0.045672688633203506 0.6420369148254395
0.5951104760169983 0.04343898221850395 0.6430683135986328
0.5964149832725525 0.042041465640068054 0.6435822248458862
0.6054388284683228 0.024981161579489708 0.6510812640190125
0.6058589220046997 0.023930950090289116 0.6515674591064453
0.6066939234733582 0.02365260384976864 0.6515674591064453
0.6083512902259827 0.01948157139122486 0.653498649597168
0.610405683517456 0.016113081946969032 0.6549301743507385
0.6108109354972839 0.015088369138538837 0.6554051637649536
0.6120385527610779 0.013793514110147953 0.6558778882026672
0.6124398708343506 0.012775805778801441 0.6563498377799988
0.612839937210083 0.011761215515434742 0.6568197011947632
0.6140584945678711 0.010478312149643898 0.6572877168655396
0.6144537329673767 0.009469029493629932 0.6577563285827637
0.6148486733436584 0.008464701473712921 0.6582217216491699
0.6164496541023254 0.006196207832545042 0.6591478586196899
0.6168417930603027 0.005205561872571707 0.6596065163612366
0.6180047988891602 0.002241978421807289 0.6609817147254944
0.6188134551048279 0.0019724126905202866 0.6609817147254944
0.6244167685508728 -0.0015991369727998972 0.6618908047676086
0.6261462569236755 -0.0019461584743112326 0.6617678999900818
0.6270703673362732 -0.0020245288033038378 0.6616454124450684
0.6289114356040955 -0.0021972516551613808 0.6614102125167847
0.5766199231147766 0.07802686840295792 0.6268090009689331
0.5775219202041626 0.07772620022296906 0.6268090009689331
0.5780224204063416 0.07649856805801392 0.6273773312568665
0.5785207152366638 0.07527483999729156 0.6279428601264954
0.5795129537582397 0.0728408694267273 0.6290695667266846
0.58040851354599 0.07254230976104736 0.6290695667266846
0.5809004306793213 0.07133178412914276 0.6296295523643494
0.5823666453361511 0.06772805750370026 0.6312981247901917
0.5842233896255493 0.06505388021469116 0.6323981881141663
0.5847036242485046 0.06386932730674744 0.6329470276832581
0.5860655903816223 0.06239441782236099 0.6334933638572693
0.5874878168106079 0.05888058617711067 0.6351209878921509
0.5879590511322021 0.05771780386567116 0.6356601715087891
0.5888363718986511 0.057425372302532196 0.6356601715087891
0.5902350544929504 0.05396200716495514 0.6372643709182739
0.5920300483703613 0.051382556557655334 0.6383259892463684
0.5929447412490845 0.049108464270830154 0.6393796801567078
0.5933998227119446 0.047977179288864136 0.6399044990539551
0.5942652821540833 0.047688692808151245 0.6399044990539551
0.5947174429893494 0.04656156152486801 0.6404268741607666
0.5951679348945618 0.045438043773174286 0.6409483551979065
0.5960648655891418 0.043202996253967285 0.6419854164123535
0.6080479025840759 0.02235673926770687 0.6510086059570312
0.6084620356559753 0.021311843767762184 0.6514942646026611
0.6097061038017273 0.019992772489786148 0.6519787907600403
0.6101160049438477 0.018954787403345108 0.6524614691734314
0.6105243563652039 0.017920149490237236 0.6529422998428345
0.6113373637199402 0.015861183404922485 0.6538999080657959
0.612163782119751 0.015585719607770443 0.6538999080657959
0.6125669479370117 0.014561210758984089 0.6543766260147095
0.6137679219245911 0.011507063172757626 0.6557978391647339
0.6145890355110168 0.01123336423188448 0.6557978391647339
0.6161998510360718 0.007264156360179186 0.657635509967804
0.61905837059021 0.008811756037175655 0.6562966704368591
0.6181524395942688 0.003956547938287258 0.6590580940246582
0.6197332143783569 0.001712269033305347 0.6599775552749634
0.6201158761978149 0.0007306257612071931 0.660435140132904
0.6204979419708252 -0.0002476460940670222 0.6608908772468567
0.6223527193069458 -0.0019848989322781563 0.6614896655082703
0.6232736706733704 -0.002063579624518752 0.6613674163818359
0.6241954565048218 -0.002142186975106597 0.6612451076507568
0.6367461085319519 -0.003929343540221453 0.659961998462677
0.63767009973526 -0.004021403379738331 0.6598461866378784
0.638594925403595 -0.004113676957786083 0.6597303152084351
0.6403307318687439 -0.004476310685276985 0.6596150398254395
0.5799993276596069 0.07384157180786133 0.627359926700592
0.5808975100517273 0.07354218512773514 0.627359926700592
0.582372784614563 0.07222224026918411 0.6278046369552612
0.5845409035682678 0.07476773113012314 0.6260483860969543
0.5902725458145142 0.056041356176137924 0.6350832581520081
0.5907378196716309 0.054885901510715485 0.6356208324432373
0.5920746326446533 0.05344278737902641 0.6361570358276367
0.5929933786392212 0.05115159600973129 0.6372233033180237
0.5947737693786621 0.048586517572402954 0.6382829546928406
0.5961265563964844 0.045203447341918945 0.6398578882217407
0.5965743660926819 0.044082868844270706 0.6403799653053284
0.6089872717857361 0.02210739254951477 0.6499640941619873
0.6102342009544373 0.020784566178917885 0.6504515409469604
0.6106441020965576 0.019742630422115326 0.650937557220459
0.6114600300788879 0.017669029533863068 0.651905357837677
0.6126948595046997 0.01636132039129734 0.6523874402046204
0.6139007210731506 0.013286721892654896 0.6538233160972595
0.6142997741699219 0.01226794719696045 0.6542989015579224
0.6159154176712036 0.009967845864593983 0.6552456617355347
0.616309404373169 0.008959121070802212 0.6557166576385498
0.6182392239570618 0.008911854587495327 0.6553963422775269
0.6205368041992188 0.0094816405326128 0.6546786427497864
0.6227311491966248 0.009860864840447903 0.654082179069519
0.6202717423439026 0.0024373093619942665 0.6585109829902649
0.6206550598144531 0.0014520770637318492 0.6589718461036682
0.6214171648025513 -0.0005087939207442105 0.659888744354248
0.6222246289253235 -0.0007779985317029059 0.659888744354248
0.631101667881012 -0.0037498280871659517 0.659896194934845
0.6320208311080933 -0.0038420192431658506 0.6597804427146912
0.6338626742362976 -0.004025930073112249 0.6595499515533447
0.6346712112426758 -0.0042954497039318085 0.6595499515533447
0.5930411219596863 0.05320996046066284 0.6350493431091309
0.5944146513938904 0.04977962002158165 0.6366515755653381
0.5961890816688538 0.04722120985388756 0.6377122402191162
0.5966388583183289 0.04609282314777374 0.6382399797439575
0.6111746430397034 0.020534053444862366 0.6494062542915344
0.6115838289260864 0.019492164254188538 0.6498944163322449
0.6123976707458496 0.01741759479045868 0.6508662700653076
0.6140340566635132 0.01508015114814043 0.651832640171051
0.6144346594810486 0.014054547995328903 0.6523131728172302
0.6148344874382019 0.013032549060881138 0.6527929306030273
0.6160562634468079 0.011738595552742481 0.6532706022262573
0.6196486353874207 0.009467363357543945 0.6538493633270264
0.6206715703010559 0.00953359343111515 0.6536298990249634
0.6227207183837891 0.00966473389416933 0.6531913876533508
0.6245582103729248 0.00943189300596714 0.6529865860939026
0.6215782761573792 0.0011915526119992137 0.6579642295837402
0.6235243678092957 -0.002014743397012353 0.659342885017395
0.6246750950813293 -0.003306042868643999 0.6598318219184875
0.6263982057571411 -0.003663191571831703 0.6597151756286621
0.62823086977005 -0.0038466693367809057 0.6594849228858948
0.6299552917480469 -0.004207519348710775 0.6593693494796753
0.6308736205101013 -0.004299686290323734 0.6592543721199036
0.594926655292511 0.05068901926279068 0.6350120306015015
0.596251904964447 0.04925708845257759 0.6355471611022949
0.5967034101486206 0.04811998829245567 0.6360810995101929
0.612525224685669 0.019240781664848328 0.6488495469093323
0.6137642860412598 0.01792396418750286 0.6493380665779114
0.6141682863235474 0.016888407990336418 0.6498260498046875
0.6153711676597595 0.013800586573779583 0.6512793302536011
0.6161985397338867 0.013524798676371574 0.6512793302536011
0.6177939772605896 0.009480730630457401 0.6531792879104614
0.6263492107391357 0.008935632184147835 0.6519309878349304
0.6281076669692993 0.008562317118048668 0.6518160104751587
0.62369304895401 -0.0003232139570172876 0.6574185490608215
0.6240699887275696 -0.0013024861691519618 0.6578799486160278
0.6261723041534424 -0.004211882129311562 0.659074604511261
0.6369948387145996 -0.0056488183327019215 0.6579006314277649
0.6387500762939453 -0.005977151915431023 0.6577621698379517
0.6397131085395813 -0.006011288613080978 0.6576068997383118
0.6155109405517578 0.015602411702275276 0.6492710113525391
0.6167405843734741 0.014296208508312702 0.6497575640678406
0.6179278492927551 0.011227396316826344 0.6512084603309631
0.618320882320404 0.010210745967924595 0.651688814163208
0.6191450357437134 0.009936034679412842 0.651688814163208
0.6206187605857849 0.009090714156627655 0.6518810987472534
0.62249755859375 0.00893140584230423 0.6516280174255371
0.6242516040802002 0.008558649569749832 0.6515127420425415
0.6278718709945679 0.007989346981048584 0.6511667370796204
0.6288051605224609 0.007890955545008183 0.6510514616966248
0.6253705620765686 -0.0025416831485927105 0.6573348045349121
0.6261790990829468 -0.0028111960273236036 0.6573348045349121
0.6304184198379517 -0.00539801362901926 0.6579718589782715
0.6322558522224426 -0.005583177320659161 0.657739520072937
0.6349257826805115 -0.006004455965012312 0.6574854850769043
0.6368130445480347 -0.006123585160821676 0.6572085618972778
0.6405428051948547 -0.0064474791288375854 0.6567095518112183
0.6156508922576904 0.017416786402463913 0.6472483277320862
0.6160534620285034 0.016382215544581413 0.6477385759353638
0.6180785894393921 0.013015097007155418 0.6492044925689697
0.6184731125831604 0.011991624720394611 0.6496898531913757
0.624017596244812 0.007986549288034439 0.6508645415306091
0.6255478262901306 -0.0008479550597257912 0.6553978323936462
0.6267330050468445 -0.002098644385114312 0.6558634638786316
0.6274769902229309 -0.0040486943908035755 0.656790554523468
0.628467857837677 -0.0055851684883236885 0.6574472784996033
0.6311172842979431 -0.006026559509336948 0.6572065949440002
0.6320540308952332 -0.006090645678341389 0.6570714712142944
0.640385091304779 -0.006885411683470011 0.6559924483299255
0.6178319454193115 0.015849821269512177 0.6466919779777527
0.618229866027832 0.01481670793145895 0.6471839547157288
0.6186258792877197 0.013786339201033115 0.6476750373840332
0.6202428340911865 0.01145919132977724 0.6486517786979675
0.6210232973098755 0.009421960450708866 0.6496226191520691
0.6220305562019348 0.0077874925918877125 0.6503322720527649
0.6287207007408142 0.005755768157541752 0.6502242088317871
0.626103401184082 -0.00012630934361368418 0.6539146304130554
0.6264780759811401 -0.0011104093864560127 0.6543843150138855
0.6280339956283569 -0.0033392796758562326 0.6553186774253845
0.6284042000770569 -0.004313793033361435 0.6557837128639221
0.6299954056739807 -0.006445146165788174 0.6566585302352905
0.6355127096176147 -0.0070030116476118565 0.655958354473114
0.636471688747406 -0.0070394426584243774 0.6558037400245667
0.6382540464401245 -0.007325279992073774 0.6556353569030762
0.6207958459854126 0.012226380407810211 0.6471221446990967
0.6211867332458496 0.011202279478311539 0.6476117372512817
0.6223525404930115 0.008150058798491955 0.649072527885437
0.6231775283813477 0.007875025272369385 0.649072527885437
0.6241377592086792 0.006177159026265144 0.6498274803161621
0.6249507069587708 0.005885718390345573 0.6498388051986694
0.6265860795974731 0.005319973453879356 0.6498503088951111
0.6266615390777588 0.0005986739997752011 0.6524248123168945
0.6282231211662292 -0.0016447321977466345 0.653369128704071
0.6285942792892456 -0.0026259056758135557 0.6538388133049011
0.6301428079605103 -0.004848218522965908 0.6547744274139404
0.6308863162994385 -0.0067693330347537994 0.6556917428970337
0.6326327323913574 -0.007099289447069168 0.6555535197257996
0.6205188035964966 0.013274868950247765 0.6455842852592468
0.6221325397491455 0.010944744572043419 0.6465703845024109
0.6225211024284363 0.009923712350428104 0.6470603942871094
0.6264664530754089 0.0033158075530081987 0.6499713063240051
0.6268442869186401 0.002318682847544551 0.6504505276679993
0.6272211670875549 0.0013253078795969486 0.6509279012680054
0.6284133195877075 6.273237522691488e-05 0.6514038443565369
0.6287856698036194 -0.0009247519192285836 0.6518789529800415
0.6307075023651123 -0.00413950439542532 0.6532948017120361
0.6379386186599731 -0.008199975825846195 0.6542023420333862
0.6389243006706238 -0.008199227973818779 0.6540210247039795
0.6399114727973938 -0.008198761381208897 0.6538400053977966
0.6408994793891907 -0.008198289200663567 0.6536589860916138
0.6226915121078491 0.011712347157299519 0.645031750202179
