ply
format ascii 1.0
element vertex 820
property float x
property float y
property float z
end_header
0.47790637612342834 0.04692431911826134 0.6717225313186646
0.4795692563056946 0.04999135807156563 0.6698548197746277
0.48305544257164 0.0499272346496582 0.6692883372306824
0.48464176058769226 0.04929376766085625 0.6693423986434937
0.48863479495048523 0.04781968891620636 0.6694159507751465
0.49023711681365967 0.04724987968802452 0.6694343090057373
0.49422764778137207 0.0457768477499485 0.6695082187652588
0.49661603569984436 0.044876839965581894 0.6695618033409119
0.5003743171691895 0.045573145151138306 0.6685565114021301
0.5025594830513 0.04688696563243866 0.6675028204917908
0.5041446089744568 0.04622611030936241 0.6675714254379272
0.5049065947532654 0.04579874873161316 0.6676608920097351
0.5064332485198975 0.044957708567380905 0.6678321361541748
0.5098258852958679 0.04996174946427345 0.6646679043769836
0.4081710875034332 0.06897475570440292 0.6713809370994568
0.4105384647846222 0.06794881075620651 0.6715037822723389
0.4121064245700836 0.0671895369887352 0.6716260313987732
0.4144698977470398 0.0661652460694313 0.6717482805252075
0.41525253653526306 0.06578609347343445 0.67180997133255
0.4160347580909729 0.0654074177145958 0.6718708276748657
0.4183942973613739 0.0643848106265068 0.6719929575920105
0.4191753566265106 0.06400638073682785 0.6720539331436157
0.4199562072753906 0.0636284351348877 0.6721147298812866
0.4207519590854645 0.06336326897144318 0.6721147298812866
0.4223121702671051 0.06260766834020615 0.6722369194030762
0.42387062311172485 0.061852701008319855 0.6723586916923523
0.42466580867767334 0.061587631702423096 0.6723586916923523
0.4262228012084961 0.06083347648382187 0.6724807024002075
0.434784471988678 0.06188768520951271 0.6704577803611755
0.439502477645874 0.05979771167039871 0.6707255244255066
0.44893962144851685 0.05577473342418671 0.6711792945861816
0.45363932847976685 0.05373183265328407 0.6714261770248413
0.45441877841949463 0.0533766970038414 0.6714754700660706
0.45677390694618225 0.05240140110254288 0.6715733408927917
0.45833060145378113 0.05169210210442543 0.6716722846031189
0.46068283915519714 0.05071808770298958 0.6717706322669983
0.4622369110584259 0.05001002177596092 0.6718688607215881
0.46301373839378357 0.04965641349554062 0.6719183325767517
0.464586079120636 0.04903729259967804 0.6719670295715332
0.46691328287124634 0.0479772575199604 0.6721145510673523
0.47158104181289673 0.04594774544239044 0.672359049320221
0.4723762273788452 0.04568267613649368 0.672359049320221
0.48029473423957825 0.049531541764736176 0.6690012216567993
0.4851057529449463 0.04785674437880516 0.6690384149551392
0.48670026659965515 0.047266021370887756 0.6690688729286194
0.4906619191169739 0.045708391815423965 0.6691915988922119
0.4922392964363098 0.04506395384669304 0.6692532896995544
0.4954080283641815 0.04383033141493797 0.6693446636199951
0.49619826674461365 0.04351641237735748 0.6693710088729858
0.4988458752632141 0.043496668338775635 0.6689244508743286
0.5010156035423279 0.04479387030005455 0.6678786873817444
0.5021060109138489 0.04544476047158241 0.667353630065918
0.5098094344139099 0.04992732033133507 0.6637051701545715
0.4056662321090698 0.0695699080824852 0.6705468893051147
0.40960511565208435 0.06778347492218018 0.6707924604415894
0.41824325919151306 0.06384164839982986 0.671344518661499
0.4206003248691559 0.06282050162553787 0.6714670658111572
0.42215976119041443 0.062065329402685165 0.671588659286499
0.4229392111301422 0.06168816238641739 0.6716499924659729
0.42451319098472595 0.06104585900902748 0.6717110276222229
0.4260697662830353 0.06029215827584267 0.6718332767486572
0.42684727907180786 0.05991567671298981 0.6718935966491699
0.4284190237522125 0.059274327009916306 0.6719550490379333
0.42919594049453735 0.05889826640486717 0.6720157265663147
0.43074890971183777 0.05814633145928383 0.6721377372741699
0.4315246045589447 0.05777042359113693 0.6721981167793274
0.43231818079948425 0.05750589445233345 0.6721981167793274
0.43464332818984985 0.05638004466891289 0.6723804473876953
0.43621063232421875 0.055740587413311005 0.6724411249160767
0.4424635171890259 0.05775002762675285 0.6703155636787415
0.44716426730155945 0.055668413639068604 0.6705828309059143
0.45108160376548767 0.05397249758243561 0.6707851886749268
0.4557737708091736 0.051933206617832184 0.6710323095321655
0.456570565700531 0.0516677089035511 0.6710323095321655
0.46047672629356384 0.04998602345585823 0.6712288856506348
0.46515315771102905 0.047953929752111435 0.6714745163917542
0.46670323610305786 0.04724794253706932 0.6715732216835022
0.4682729244232178 0.04662996158003807 0.6716219186782837
0.4698212146759033 0.045925118029117584 0.6717203855514526
0.47059494256973267 0.045572660863399506 0.6717694401741028
0.4721630811691284 0.04495587572455406 0.6718182563781738
0.47448116540908813 0.043900176882743835 0.6719651818275452
0.47525328397750854 0.04354838654398918 0.6720146536827087
0.4760473966598511 0.04328368604183197 0.6720146536827087
0.4777843952178955 0.046684131026268005 0.6699479222297668
0.48241618275642395 0.04772578179836273 0.6686052083969116
0.4871640205383301 0.04584667831659317 0.6687592267990112
0.4887399673461914 0.045201219618320465 0.6688214540481567
0.4919053316116333 0.043965499848127365 0.6689146757125854
0.4926925003528595 0.04364289715886116 0.6689464449882507
0.49744418263435364 0.041819363832473755 0.6690707802772522
0.4982304573059082 0.04149734228849411 0.6691023111343384
0.5005875825881958 0.0405319407582283 0.6691955327987671
0.5021748542785645 0.03994282707571983 0.6692267060279846
0.506416916847229 0.044950421899557114 0.6658916473388672
0.40551847219467163 0.06902401894330978 0.6698970198631287
0.40630412101745605 0.06864402443170547 0.6699584722518921
0.40787434577941895 0.0678841769695282 0.6700815558433533
0.4126044809818268 0.06583534181118011 0.6703281998634338
0.41731125116348267 0.0636771097779274 0.6706349849700928
0.4212285280227661 0.06190109625458717 0.6708800792694092
0.42591655254364014 0.05975143238902092 0.6711856722831726
0.4298185706138611 0.05798235163092613 0.6714298129081726
0.43059441447257996 0.05760650709271431 0.6714909076690674
0.4321635961532593 0.056966714560985565 0.6715516448020935
0.4344882071018219 0.05584123730659485 0.6717345118522644
0.4360548257827759 0.05520235747098923 0.6717953085899353
0.43837499618530273 0.05407901853322983 0.6719778776168823
0.43914762139320374 0.05370510369539261 0.6720383763313293
0.44071152806282043 0.05306708440184593 0.672098696231842
0.44225481152534485 0.052319880574941635 0.6722202897071838
0.4430260956287384 0.051946673542261124 0.6722812652587891
0.4445878863334656 0.051309626549482346 0.6723418235778809
0.4461280405521393 0.050563812255859375 0.6724628210067749
0.4476918876171112 0.04994698986411095 0.6725123524665833
0.4484785199165344 0.04966332018375397 0.6725232601165771
0.45869866013526917 0.049873702228069305 0.6706389784812927
0.4633743166923523 0.04784272238612175 0.6708849668502808
0.4727221429347992 0.04387791082262993 0.6713272333145142
0.47883617877960205 0.047503404319286346 0.6683763265609741
0.4805329442024231 0.04731908068060875 0.6681775450706482
0.48446372151374817 0.04567166417837143 0.668353259563446
0.48921236395835876 0.04383242502808571 0.668487012386322
0.49394491314888 0.041955891996622086 0.6686422228813171
0.494730681180954 0.041634511202573776 0.668673574924469
0.49945715069770813 0.03976046293973923 0.6688295006752014
0.5002415180206299 0.039439212530851364 0.6688600778579712
0.5050118565559387 0.04335634410381317 0.6659907102584839
0.5097749829292297 0.04985414072871208 0.6617773175239563
0.40694117546081543 0.06771872937679291 0.6693709492683411
0.4085232615470886 0.0670735239982605 0.6694324612617493
0.4100915789604187 0.06631496548652649 0.6695560812950134
0.4108751714229584 0.06593577563762665 0.6696176528930664
0.412454754114151 0.0652916356921196 0.6696792244911194
0.4140198826789856 0.06453406810760498 0.6698027849197388
0.41558337211608887 0.06377758830785751 0.6699252128601074
0.41637927293777466 0.06351228058338165 0.6699252128601074
0.43355879187583923 0.05567805469036102 0.6710278391838074
0.43744611740112305 0.05391610413789749 0.6712712645530701
0.4382189214229584 0.05354194715619087 0.6713326573371887
0.4405548870563507 0.05253053829073906 0.6714542508125305
0.4420977830886841 0.05178378149867058 0.6715755462646484
0.44442999362945557 0.05077402666211128 0.6716969013214111
0.44673946499824524 0.049656108021736145 0.6718791127204895
0.44829875230789185 0.04902060329914093 0.6719400882720947
0.45060330629348755 0.04790477827191353 0.6721216440200806
0.45216038823127747 0.04727020487189293 0.6721819043159485
0.4544605314731598 0.046156495809555054 0.6723631620407104
0.45524951815605164 0.04589350149035454 0.6723631620407104
0.4560154378414154 0.04552285373210907 0.6724238991737366
0.45834046602249146 0.04454526677727699 0.6725296378135681
0.459913045167923 0.04399988055229187 0.672540545463562
0.46161729097366333 0.04782160371541977 0.6702455282211304
0.4662841260433197 0.04579242318868637 0.6704926490783691
0.4709433913230896 0.04376925900578499 0.6707388162612915
0.4775261878967285 0.04591524228453636 0.6684691905975342
0.4786195158958435 0.04678122699260712 0.6678257584571838
0.4802785813808441 0.04645713418722153 0.6677060127258301
0.4818616807460785 0.045842576771974564 0.6677517294883728
0.4826423227787018 0.04549539461731911 0.6677969098091125
0.4842028319835663 0.044801369309425354 0.6678877472877502
0.48656418919563293 0.043840669095516205 0.6679789423942566
0.4873439371585846 0.0434965118765831 0.6680225133895874
0.49126487970352173 0.041862793266773224 0.668193519115448
0.4959619343280792 0.03989929333329201 0.6684017777442932
0.4967620372772217 0.03963254392147064 0.6684017777442932
0.5014798045158386 0.037762533873319626 0.6685575842857361
0.5036218762397766 0.03895683214068413 0.6675593852996826
0.5069983005523682 0.043994564563035965 0.6643369197845459
0.4099510908126831 0.06584250181913376 0.6688689589500427
0.418570876121521 0.06183750554919243 0.6694622039794922
0.42014580965042114 0.061195164918899536 0.6695241928100586
0.42248281836509705 0.060064878314733505 0.669708251953125
0.4232613742351532 0.05968824774026871 0.6697696447372437
0.4240555167198181 0.05942348763346672 0.6697696447372437
0.42638808488845825 0.05829504132270813 0.6699541211128235
0.4271649420261383 0.05791943892836571 0.6700151562690735
0.43185457587242126 0.05588942766189575 0.6702597141265869
0.44039830565452576 0.051994163542985916 0.6708095669746399
0.4450424015522003 0.04986594617366791 0.6711140871047974
0.4496764540672302 0.04774266481399536 0.6714171767234802
0.45044422149658203 0.047371018677949905 0.6714783310890198
0.4520008862018585 0.04673674330115318 0.6715387105941772
0.45353424549102783 0.04599464684724808 0.6716598272323608
0.45430049300193787 0.04562370106577873 0.6717203259468079
0.45662036538124084 0.04461979493498802 0.6718416213989258
0.45814990997314453 0.043879423290491104 0.6719624996185303
0.46046626567840576 0.04287714511156082 0.6720835566520691
0.4627801775932312 0.04187571629881859 0.6722036600112915
0.4643053114414215 0.04113752394914627 0.672324538230896
0.46661582589149475 0.04013774171471596 0.6724452972412109
0.46737682819366455 0.039769090712070465 0.6725050806999207
0.46815550327301025 0.03947405144572258 0.6725238561630249
0.47050514817237854 0.038648106157779694 0.6725463271141052
0.4738379120826721 0.04172810539603233 0.6703475117683411
0.4748532474040985 0.042341820895671844 0.6698480844497681
0.4773673117160797 0.045414384454488754 0.6677960157394409
0.4792441427707672 0.04594378173351288 0.6671901345252991
0.48394545912742615 0.0439431332051754 0.6674172282218933
0.48474639654159546 0.04367614910006523 0.6674172282218933
0.4886620044708252 0.04202480614185333 0.6675992608070374
0.4894399344921112 0.04167895391583443 0.6676443815231323
0.4902175962924957 0.041333213448524475 0.6676899790763855
0.4925733506679535 0.04037877172231674 0.6677788496017456
0.4941295087337494 0.03969751298427582 0.6678637266159058
0.49648433923721313 0.03874990716576576 0.6679497361183167
0.49881500005722046 0.03772909566760063 0.6680776476860046
0.5022759437561035 0.03751099109649658 0.6675870418548584
0.5061689615249634 0.0442313551902771 0.6633797883987427
0.5069813132286072 0.04396055266261101 0.6633797883987427
0.5097430348396301 0.049789175391197205 0.6598384976387024
0.40588638186454773 0.06724633276462555 0.6678825616836548
0.4066702425479889 0.0668550580739975 0.6679508090019226
0.4129575490951538 0.06398304551839828 0.6683594584465027
0.4176528751850128 0.061772603541612625 0.6686992645263672
0.42156001925468445 0.059954915195703506 0.6689707040786743
0.4262351393699646 0.05775582045316696 0.6693079471588135
0.4285813868045807 0.05674022063612938 0.669430673122406
0.4301324784755707 0.0559900663793087 0.669553279876709
0.43247491121292114 0.054976433515548706 0.6696761250495911
0.43402305245399475 0.05422770604491234 0.6697985529899597
0.43479666113853455 0.053853753954172134 0.6698595285415649
0.43636175990104675 0.05321572721004486 0.6699206829071045
0.43947023153305054 0.05183142051100731 0.6701037287712097
0.4479818046092987 0.04795204848051071 0.6706531047821045
0.45722442865371704 0.04371805489063263 0.6712594628334045
0.46030473709106445 0.042346276342868805 0.6714418530464172
0.46106788516044617 0.04197663813829422 0.6715019345283508
0.4626180827617645 0.04134536534547806 0.6715621948242188
0.4641428291797638 0.04060761630535126 0.6716833114624023
0.465666264295578 0.039870504289865494 0.6718043088912964
0.4664527475833893 0.03960834816098213 0.6718043088912964
0.46873483061790466 0.03850388154387474 0.6719851493835449
0.4702806770801544 0.03787431865930557 0.6720451712608337
0.471958726644516 0.037776485085487366 0.6718021631240845
0.4729136526584625 0.03818381577730179 0.6714205145835876
0.4755851924419403 0.04195428267121315 0.6689659357070923
0.48682352900505066 0.04178261756896973 0.6670845746994019
0.49150875210762024 0.03978962451219559 0.6673116683959961
0.4923078119754791 0.03952337056398392 0.6673116683959961
0.49620959162712097 0.037878185510635376 0.6674929857254028
0.49853837490081787 0.036858923733234406 0.667620837688446
0.5001122355461121 0.03625326603651047 0.6676637530326843
0.5034630298614502 0.038499023765325546 0.6658931374549866
0.4081157445907593 0.0657743513584137 0.6673052310943604
0.41046327352523804 0.06460365653038025 0.6675100326538086
0.4120413362979889 0.06394851207733154 0.6675786375999451
0.4143836796283722 0.06278058141469955 0.6677828431129456
0.4167386293411255 0.061737705022096634 0.667918860912323
0.42532429099082947 0.05771855637431145 0.6685304641723633
0.42921626567840576 0.0559086799621582 0.6688013076782227
0.43387284874916077 0.05371726304292679 0.6691389679908752
0.4377509653568268 0.05193227902054787 0.6693987250328064
0.43852299451828003 0.05155926197767258 0.6694602370262146
0.4400853216648102 0.05092247575521469 0.6695213913917542
0.4423976242542267 0.04980475828051567 0.6697048544883728
0.44472721219062805 0.048796653747558594 0.6698271036148071
0.446265310049057 0.04805298149585724 0.6699494123458862
0.44705498218536377 0.04778975248336792 0.6699494123458862
0.4516821801662445 0.045670874416828156 0.6702535152435303
0.45553433895111084 0.0439264178276062 0.670496940612793
0.4685713052749634 0.03797531500458717 0.6713448762893677
0.47281312942504883 0.0379110649228096 0.6706316471099854
0.48037606477737427 0.043833959847688675 0.666171133518219
0.4850514233112335 0.04177244007587433 0.6664369106292725
0.48972296714782715 0.039732132107019424 0.6666921973228455
0.4943859577178955 0.037695493549108505 0.666947066783905
0.4990405738353729 0.035662077367305756 0.6672016382217407
0.5006714463233948 0.03524688258767128 0.6671339273452759
0.506131112575531 0.04415609687566757 0.661466121673584
0.5069445371627808 0.04388489946722984 0.661466121673584
0.509709894657135 0.04972035065293312 0.6578963994979858
0.40719151496887207 0.06568297743797302 0.6665545105934143
0.41111013293266296 0.06378975510597229 0.6668657660484314
0.4150288999080658 0.061968009918928146 0.6671391725540161
0.4181615114212036 0.06053771823644638 0.6673434376716614
0.41973450779914856 0.05988482013344765 0.6674116253852844
0.42051222920417786 0.059497132897377014 0.6674795746803284
0.422066867351532 0.058722175657749176 0.6676159501075745
0.4244135022163391 0.05768315866589546 0.6677519679069519
0.42673930525779724 0.05652347207069397 0.6679559350013733
0.4414803385734558 0.049695901572704315 0.668969988822937
0.4453407824039459 0.04790118709206581 0.669239342212677
0.4484328329563141 0.04651353135704994 0.669428288936615
0.44996753334999084 0.04577171429991722 0.6695506572723389
0.450756311416626 0.045508790761232376 0.6695506572723389
0.45228907465934753 0.04476770758628845 0.6696725487709045
0.45460885763168335 0.04376459866762161 0.6697946786880493
0.4561387598514557 0.04302491992712021 0.6699157953262329
0.45921850204467773 0.0416540801525116 0.6700990200042725
0.4630563259124756 0.039916638284921646 0.6703415513038635
0.4676477015018463 0.03781469911336899 0.6706445217132568
0.47275087237358093 0.037790048867464066 0.6697558760643005
0.47466519474983215 0.04197194427251816 0.6672008037567139
0.4768609404563904 0.04379656910896301 0.665845513343811
0.4777829349040985 0.04400453716516495 0.6655731797218323
0.4785948097705841 0.043783798813819885 0.6655465960502625
0.48017024993896484 0.043157197535037994 0.6656003594398499
0.4824943244457245 0.04207746684551239 0.6657615900039673
0.4832685589790344 0.04171808436512947 0.6658152341842651
0.48406782746315 0.04145166277885437 0.6658152341842651
0.4863882064819336 0.04037388041615486 0.6659771800041199
0.48795977234840393 0.03975020721554756 0.6660294532775879
0.49262335896492004 0.037714049220085144 0.6662848591804504
0.4972784221172333 0.035681407898664474 0.66653972864151
0.4062683880329132 0.06560628861188889 0.6657955646514893
0.4086405634880066 0.0646369457244873 0.665890634059906
0.4102132022380829 0.06392274796962738 0.6659917235374451
0.422708123922348 0.057912543416023254 0.6669731736183167
0.4273972809314728 0.05583710968494415 0.6672458052635193
0.4281715452671051 0.05545099824666977 0.6673133373260498
0.4304924011230469 0.054294101893901825 0.6675174236297607
0.43205752968788147 0.0536448173224926 0.6675851345062256
0.4343733489513397 0.05249033495783806 0.6677888035774231
0.4359360337257385 0.0518421046435833 0.6678563952445984
0.4367068111896515 0.05145794898271561 0.6679245233535767
0.45290350914001465 0.04390349239110947 0.6690704226493835
0.45750677585601807 0.04175543040037155 0.6693968772888184
0.45829394459724426 0.04149303957819939 0.6693968772888184
0.4605832099914551 0.0403863824903965 0.6695793867111206
0.46213215589523315 0.03975585848093033 0.6696405410766602
0.46441707015037537 0.03865129128098488 0.6698227524757385
0.46672436594963074 0.03765394538640976 0.6699444651603699
0.4705643951892853 0.035989344120025635 0.6701489090919495
0.47151345014572144 0.036384765058755875 0.6697700023651123
0.481513112783432 0.04176163673400879 0.665137529373169
0.4861789643764496 0.03970034047961235 0.6654071807861328
0.48852136731147766 0.03871722146868706 0.665514349937439
0.4900646209716797 0.03800078108906746 0.665621817111969
0.4908362030982971 0.03764486312866211 0.6656741499900818
0.4924059212207794 0.03702551871538162 0.6657253503799438
0.49472036957740784 0.03596613183617592 0.6658787727355957
0.49628809094429016 0.035347674041986465 0.6659298539161682
0.5003002882003784 0.03410935774445534 0.6658772826194763
0.5034002661705017 0.03837251290678978 0.6630598306655884
0.5060924291610718 0.04407798871397972 0.6595478653907776
0.5069072246551514 0.04380638897418976 0.6595478653907776
0.5096781849861145 0.04965624958276749 0.6559457182884216
0.4093058109283447 0.06397421658039093 0.665161669254303
0.4124482274055481 0.06253781914710999 0.6653696894645691
0.41400960087776184 0.0617559552192688 0.6655088067054749
0.4163605868816376 0.06067543849349022 0.6656674742698669
0.4179139733314514 0.059860892593860626 0.6658259034156799
0.41868987679481506 0.05945408344268799 0.6659051775932312
0.42026016116142273 0.058782633394002914 0.6659842133522034
0.4218095541000366 0.057970013469457626 0.666141927242279
0.4303569495677948 0.05387270078063011 0.6668080687522888
0.4381113648414612 0.05026964470744133 0.6673517227172852
0.4396715760231018 0.04962260276079178 0.6674193143844604
0.44044041633605957 0.049239207059144974 0.6674870848655701
0.442767471075058 0.04820992425084114 0.6676227450370789
0.44353505969047546 0.04782684147357941 0.6676900386810303
0.44430235028266907 0.047444406896829605 0.6677581071853638
0.44662508368492126 0.04641694203019142 0.66789311170578
0.4604363441467285 0.03992109373211861 0.6689023971557617
0.4650183320045471 0.037766337394714355 0.6692377924919128
0.46808114647865295 0.036391567438840866 0.6694269180297852
0.4696252644062042 0.03576315939426422 0.6694870591163635
0.4704166054725647 0.03552772477269173 0.6694719195365906
0.4745410680770874 0.04172983765602112 0.6654284000396729
0.4797826409339905 0.04189641773700714 0.6644075512886047
0.4844302833080292 0.039764150977134705 0.6647183895111084
0.4890824556350708 0.03768715262413025 0.6649991273880005
0.4929618239402771 0.03599092364311218 0.6652142405509949
0.4976084232330322 0.033956944942474365 0.6654732823371887
0.49837785959243774 0.03360474109649658 0.6655243635177612
0.5001130104064941 0.03353546932339668 0.6652526259422302
0.4111986756324768 0.06668095290660858 0.6624104380607605
0.4120013415813446 0.06641340255737305 0.6624104380607605
0.41359472274780273 0.06578298658132553 0.6624634861946106
0.41439127922058105 0.06546775996685028 0.6624901294708252
0.416748046875 0.0642780289053917 0.6627063751220703
0.4174332022666931 0.0631222352385521 0.6632030606269836
0.4181157946586609 0.06197007745504379 0.6636983752250671
0.4187960624694824 0.06082189828157425 0.664191484451294
0.42169618606567383 0.05770177021622658 0.6653447151184082
0.422470360994339 0.057295914739370346 0.6654234528541565
0.42403823137283325 0.056625645607709885 0.6655025482177734
0.4255841374397278 0.055815234780311584 0.6656607985496521
0.4263565242290497 0.055410079658031464 0.6657399535179138
0.4286927580833435 0.05433671921491623 0.6658973693847656
0.42946377396583557 0.053932614624500275 0.6659762263298035
0.4379758834838867 0.049849312752485275 0.6666437387466431
0.4464893639087677 0.0459975004196167 0.6671864986419678
0.4480211138725281 0.04523428529500961 0.667322039604187
0.4503397047519684 0.04420878365635872 0.6674571633338928
0.45110419392585754 0.04382787272334099 0.667524516582489
0.4526316523551941 0.043066445738077164 0.6676594614982605
0.45418283343315125 0.04242348298430443 0.6677272915840149
0.45570772886276245 0.04166340455412865 0.6678619980812073
0.4564698338508606 0.041283514350652695 0.6679292321205139
0.4580182433128357 0.04064156860113144 0.6679965853691101
0.45954012870788574 0.03988265618681908 0.6681315302848816
0.46794000267982483 0.035954784601926804 0.6687352061271667
0.4725635051727295 0.03742529824376106 0.6671229004859924
0.47639086842536926 0.04231927916407585 0.6638188362121582
0.4780479967594147 0.04201584309339523 0.6636855006217957
0.4788183569908142 0.04164007678627968 0.6637492775917053
0.4803870618343353 0.04099839925765991 0.6638128757476807
0.4826945662498474 0.03987281024456024 0.6640037894248962
0.48736366629600525 0.03784993290901184 0.6642539501190186
0.4919953942298889 0.03573160991072655 0.6645611524581909
0.49585285782814026 0.03398709371685982 0.664807140827179
0.5033581256866455 0.038286805152893066 0.6611649394035339
0.5060552358627319 0.04400477930903435 0.6576216816902161
0.5068711042404175 0.04373277723789215 0.6576216816902161
0.5096467137336731 0.04959261417388916 0.6539885401725769
0.41267913579940796 0.06581231951713562 0.6616390943527222
0.41427284479141235 0.06518197059631348 0.6616926789283752
0.4166506230831146 0.06414957344532013 0.6618214845657349
0.4174349009990692 0.06374494731426239 0.6618984341621399
0.41821861267089844 0.06334054470062256 0.6619753241539001
0.4190019369125366 0.06293635815382004 0.6620521545410156
0.4205862283706665 0.06226494163274765 0.6621291637420654
0.42136862874031067 0.06186125427484512 0.6622059345245361
0.42215046286582947 0.06145778298377991 0.6622826457023621
0.42451342940330505 0.06038433313369751 0.6624361872673035
0.4252939224243164 0.059981439262628555 0.6625127792358398
0.4260738790035248 0.059578899294137955 0.6625893115997314
0.42822265625 0.057148709893226624 0.6635107398033142
0.42888420820236206 0.05601130425930023 0.6640030145645142
0.4302012324333191 0.053751301020383835 0.6649814248085022
0.43245506286621094 0.05218856781721115 0.6654174327850342
0.43322432041168213 0.051785409450531006 0.6654963493347168
0.43478482961654663 0.05111854523420334 0.6655751466751099
0.4363204836845398 0.050313156098127365 0.6657330989837646
0.43708744645118713 0.049910932779312134 0.6658114790916443
0.4386451542377472 0.04924532398581505 0.6658901572227478
0.4417072832584381 0.047639623284339905 0.6662048101425171
0.4455643594264984 0.04584163427352905 0.666479766368866
0.4586432874202728 0.03984461724758148 0.6673592925071716
0.46016427874565125 0.039086584001779556 0.667493999004364
0.46247005462646484 0.038066983222961426 0.6676291227340698
0.46322882175445557 0.0376887172460556 0.667696475982666
0.4647459387779236 0.03693263977766037 0.6678312420845032
0.46628910303115845 0.0362931452691555 0.6678979396820068
0.4670466184616089 0.03591568395495415 0.6679654717445374
0.4711024761199951 0.03512891009449959 0.6676620244979858
0.4743669629096985 0.04129207506775856 0.6637657880783081
0.4762435853481293 0.041863542050123215 0.6631224751472473
0.4817601144313812 0.03972627595067024 0.6632829308509827
0.4825288653373718 0.03935161232948303 0.6633465886116028
0.4840949475765228 0.038710881024599075 0.6634103655815125
0.4856301248073578 0.03796234354376793 0.6635376214981079
0.48639732599258423 0.037588540464639664 0.6636011600494385
0.4887273907661438 0.036575060337781906 0.663727879524231
0.49026089906692505 0.03583445027470589 0.6638515591621399
0.4925890564918518 0.03482918441295624 0.6639747023582458
0.5007827877998352 0.03291652724146843 0.6635349988937378
0.4204690158367157 0.06197664141654968 0.6613339781761169
0.42203348875045776 0.061169467866420746 0.6614879369735718
0.42439717054367065 0.060095805674791336 0.6616424918174744
0.4251777231693268 0.05969304218888283 0.6617193222045898
0.42673778533935547 0.05888785049319267 0.6618730425834656
0.42831695079803467 0.05821911618113518 0.6619497537612915
0.43065181374549866 0.057013947516679764 0.6621798276901245
0.4322283864021301 0.05634642764925957 0.6622563600540161
0.4330051839351654 0.05594537779688835 0.6623328924179077
0.43455764651298523 0.055143892765045166 0.6624859571456909
0.43613147735595703 0.05447757989168167 0.6625623106956482
0.4368487298488617 0.053742457181215286 0.6628301739692688
0.43813973665237427 0.05148346722126007 0.663815438747406
0.4395754337310791 0.05009680986404419 0.6643050909042358
0.4402148723602295 0.04898087680339813 0.6647921204566956
0.4408548176288605 0.04788408800959587 0.6652682423591614
0.4424009323120117 0.04716816172003746 0.6653761267662048
0.44468140602111816 0.045904967933893204 0.6656472086906433
0.4462340772151947 0.04524177312850952 0.6657257676124573
0.44852036237716675 0.044043201953172684 0.6659613847732544
0.4492814242839813 0.04364362359046936 0.6660395860671997
0.45312321186065674 0.04184960946440697 0.6663169264793396
0.45774614810943604 0.03980613127350807 0.6665875315666199
0.4684240520000458 0.03474494069814682 0.6673970818519592
0.47243794798851013 0.037180863320827484 0.6653624773025513
0.4893261194229126 0.03568193316459656 0.6631360650062561
0.493182510137558 0.033927977085113525 0.6633884906768799
0.49474281072616577 0.033293433487415314 0.6634498834609985
0.4962714612483978 0.03255553916096687 0.6635734438896179
0.4977983832359314 0.031818125396966934 0.6636965274810791
0.49859336018562317 0.031553126871585846 0.6636965274810791
0.5033167600631714 0.03820449486374855 0.6592620611190796
0.5060186982154846 0.04393339529633522 0.6556881666183472
0.41562962532043457 0.0639801174402237 0.6601505875587463
0.42820146679878235 0.05793051794171333 0.6611560583114624
0.43053704500198364 0.05672532320022583 0.6613868474960327
0.4321138262748718 0.05605774000287056 0.6614636182785034
0.43289098143577576 0.05565668269991875 0.6615403294563293
0.43444380164146423 0.05485518276691437 0.6616938710212708
0.4360179007053375 0.0541888065636158 0.6617704629898071
0.43679317831993103 0.053788814693689346 0.6618470549583435
0.43834227323532104 0.052989158779382706 0.662000834941864
0.44068706035614014 0.05192491412162781 0.6621536612510681
0.4422324597835541 0.051126960664987564 0.662306547164917
0.44457271695137024 0.05006483197212219 0.6624590754508972
0.4453435242176056 0.04966655373573303 0.6625350713729858
0.4461034834384918 0.049212221056222916 0.6626443862915039
0.44752737879753113 0.047825638204813004 0.6631373167037964
0.44815337657928467 0.04670819267630577 0.6636285781860352
0.45019087195396423 0.044228654354810715 0.6646027565002441
0.4508099853992462 0.0431266650557518 0.6650875210762024
0.452260285615921 0.041985832154750824 0.6654430627822876
0.45455193519592285 0.04085615649819374 0.665640652179718
0.4560685157775879 0.04006098955869675 0.6657969951629639
0.45682623982429504 0.03966375067830086 0.665875256061554
0.4583713412284851 0.03900938108563423 0.6659507751464844
0.460652232170105 0.037873413413763046 0.6661542057991028
0.4652591347694397 0.03583775833249092 0.6664248108863831
0.475983589887619 0.041085828095674515 0.6616526246070862
0.4768179953098297 0.0409584678709507 0.6615708470344543
0.4783547520637512 0.04019330441951752 0.6617074012756348
0.47915321588516235 0.03992714732885361 0.6617074012756348
0.4806859791278839 0.0391552709043026 0.6618487238883972
0.48221907019615173 0.038389746099710464 0.6619863510131836
0.4837823212146759 0.03774161636829376 0.6620548963546753
0.487638384103775 0.035948578268289566 0.6623296141624451
0.500658392906189 0.03257101774215698 0.6618094444274902
0.5095987915992737 0.04949573427438736 0.6510420441627502
0.41392868757247925 0.06441617757081985 0.6592466831207275
0.4147196114063263 0.06405114382505417 0.6593016386032104
0.4155227243900299 0.0637834444642067 0.6593016386032104
0.4163067042827606 0.06336940079927444 0.6593843102455139
0.41865652799606323 0.0621287040412426 0.6596323847770691
0.4194587171077728 0.0618613101541996 0.6596323847770691
0.4202410578727722 0.06144831329584122 0.6597157716751099
0.42258620262145996 0.06021999567747116 0.6599581241607666
0.4233874976634979 0.05995289608836174 0.6599581241607666
0.43590518832206726 0.05390441417694092 0.6609764099121094
0.43822935223579407 0.05270024389028549 0.6612092852592468
0.440574586391449 0.05163548141717911 0.6613627672195435
0.4421204626560211 0.050837960094213486 0.6615159511566162
0.4444608986377716 0.04977542906999588 0.6616687178611755
0.4460033178329468 0.04897976294159889 0.6618219017982483
0.44833922386169434 0.04791921004652977 0.6619749665260315
0.45067286491394043 0.04686024412512779 0.6621274352073669
0.45220932364463806 0.04606705904006958 0.6622799634933472
0.45297685265541077 0.04567093402147293 0.6623560786247253
0.4545384645462036 0.045010197907686234 0.6624321341514587
0.45607122778892517 0.04421869292855263 0.6625843644142151
0.4567286968231201 0.04332255944609642 0.6629517674446106
0.45812973380088806 0.04195268452167511 0.6634418368339539
0.46057671308517456 0.03772401064634323 0.6652942299842834
0.46210741996765137 0.037015609443187714 0.6654015183448792
0.4643413722515106 0.03569915518164635 0.665712296962738
0.4666379988193512 0.03466663137078285 0.6658570170402527
0.4681518077850342 0.03391297534108162 0.6659924983978271
0.4707353413105011 0.03405022248625755 0.665450394153595
0.47231176495552063 0.03693438693881035 0.6635998487472534
0.48288729786872864 0.03773680701851845 0.6612513065338135
0.4844171404838562 0.03696778789162636 0.6613919734954834
0.4867435395717621 0.035938363522291183 0.6615293025970459
0.488271564245224 0.035175763070583344 0.6616672277450562
0.49059417843818665 0.03414861112833023 0.6618040800094604
0.49135661125183105 0.03376764431595802 0.6618731617927551
0.492118775844574 0.03338729217648506 0.6619419455528259
0.495198130607605 0.03198178857564926 0.6621474623680115
0.49926993250846863 0.030964955687522888 0.6619627475738525
0.5032767057418823 0.03812561184167862 0.6573514342308044
0.5059818625450134 0.04386177659034729 0.6537490487098694
0.5068001747131348 0.04358895868062973 0.6537490487098694
0.4240630567073822 0.05933438241481781 0.6591978669166565
0.426401823759079 0.058099325746297836 0.6594461798667908
0.4272024929523468 0.05783257260918617 0.6594461798667908
0.4287598431110382 0.057014718651771545 0.6596089601516724
0.43031665682792664 0.056207288056612015 0.6597658395767212
0.4311164617538452 0.055940691381692886 0.6597658395767212
0.4326711893081665 0.055134110152721405 0.6599227786064148
0.4396956264972687 0.05178656429052353 0.660470724105835
0.44358381628990173 0.04991750419139862 0.6607828736305237
0.45056676864624023 0.0465896837413311 0.661327600479126
0.45210281014442444 0.045792777091264725 0.6614826321601868
0.4544319212436676 0.044731732457876205 0.6616379022598267
0.45596396923065186 0.04393623769283295 0.6617928147315979
0.45672962069511414 0.04353904351592064 0.6618703007698059
0.45828840136528015 0.0428774431347847 0.6619473695755005
0.4590528905391693 0.042480744421482086 0.662024736404419
0.4605812728404999 0.041690535843372345 0.6621772050857544
0.4621378779411316 0.041032109409570694 0.6622531414031982
0.4644259810447693 0.03985079750418663 0.6624815464019775
0.46668675541877747 0.03857288882136345 0.662766695022583
0.4672783315181732 0.03747827559709549 0.6632552742958069
0.4684562683105469 0.035302095115184784 0.6642272472381592
0.4706129729747772 0.03368975222110748 0.6647136211395264
0.47395357489585876 0.04015878960490227 0.6605844497680664
0.47475114464759827 0.03989294171333313 0.6605844497680664
0.47733235359191895 0.03982095047831535 0.6601552367210388
0.4819621741771698 0.0376233235001564 0.6605115532875061
0.4858168959617615 0.03581596910953522 0.6607953310012817
0.4943069815635681 0.03197106346487999 0.6613484621047974
0.49658843874931335 0.03083205223083496 0.6615543365478516
0.5006140470504761 0.03248344361782074 0.6599240899085999
0.5095667243003845 0.049431271851062775 0.6490705013275146
0.4144982695579529 0.06360365450382233 0.6576327681541443
0.41609376668930054 0.0629771277308464 0.6576844453811646
0.4184458255767822 0.06173583120107651 0.6579345464706421
0.43411800265312195 0.05408523231744766 0.659260094165802
0.434917151927948 0.05381884053349495 0.659260094165802
0.43646857142448425 0.053013283759355545 0.6594181060791016
0.43801847100257874 0.0522095188498497 0.6595742702484131
0.438816636800766 0.05194355174899101 0.6595742702484131
0.4403643310070038 0.05114049091935158 0.6597315669059753
0.44270801544189453 0.050072815269231796 0.6598883271217346
0.44348037242889404 0.04967235028743744 0.6599660515785217
0.4473612308502197 0.047806691378355026 0.660278856754303
0.45123395323753357 0.04594537615776062 0.6605901122093201
0.4597187042236328 0.041837871074676514 0.6612890362739563
0.4604826271533966 0.041441548615694046 0.6613665819168091
0.4620393216609955 0.04078061133623123 0.6614443063735962
0.4635647237300873 0.03998914361000061 0.661598801612854
0.46432676911354065 0.039593737572431564 0.6616762280464172
0.46664169430732727 0.03853937238454819 0.661830484867096
0.4681626856327057 0.037750184535980225 0.6619849801063538
0.4689224064350128 0.0373554527759552 0.6620619893074036
0.4704730808734894 0.0366976335644722 0.6621391177177429
0.47218406200408936 0.03668233007192612 0.6618355512619019
0.4738568663597107 0.03990133851766586 0.6597728729248047
0.4746546447277069 0.039635416120290756 0.6597728729248047
0.4756247103214264 0.04004182294011116 0.6593737006187439
0.47644275426864624 0.03985048457980156 0.6593294739723206
0.47877031564712524 0.038788456469774246 0.6594855189323425
0.4803032875061035 0.03801587224006653 0.659628689289093
0.4810689389705658 0.03762971609830856 0.6596997380256653
0.4826323688030243 0.036978282034397125 0.6597715020179749
0.48416194319725037 0.036207206547260284 0.6599138379096985
0.4849260151386261 0.03582187369465828 0.659985363483429
0.4895375669002533 0.03363339975476265 0.6603411436080933
0.4933812916278839 0.031845007091760635 0.6606185436248779
0.4980410933494568 0.02988925389945507 0.66083824634552
0.5032360553741455 0.03804617375135422 0.6554355621337891
0.5059447884559631 0.04378948733210564 0.6518037915229797
0.5067644715309143 0.043516263365745544 0.6518037915229797
0.4134170114994049 0.06230201944708824 0.6575653553009033
0.41501736640930176 0.06174180656671524 0.6575802564620972
0.416614294052124 0.06115555763244629 0.6576098203659058
0.42061668634414673 0.05977678671479225 0.6576344966888428
0.4222199320793152 0.0592423714697361 0.6576344966888428
0.4246244728565216 0.058440402150154114 0.6576343774795532
0.4261973202228546 0.057704005390405655 0.6577510237693787
0.42855650186538696 0.05661454051733017 0.6579171419143677
0.43791669607162476 0.05198445916175842 0.6587450504302979
0.44414880871772766 0.049026720225811005 0.6592274308204651
0.4464883804321289 0.04796112701296806 0.6593839526176453
0.44802916049957275 0.04716172814369202 0.6595408916473389
0.4503641128540039 0.04609828442335129 0.6596970558166504
0.45113298296928406 0.04569949209690094 0.6597752571105957
0.45266905426979065 0.044902801513671875 0.6599312424659729
0.4673067331314087 0.03789759427309036 0.6610970497131348
0.4703783392906189 0.036450326442718506 0.6613291501998901
0.486366868019104 0.034817617386579514 0.659302294254303
0.48864853382110596 0.03363913297653198 0.6595310568809509
0.4902069866657257 0.032989501953125 0.65960294008255
0.49249061942100525 0.03183869272470474 0.6598162651062012
0.4940464496612549 0.031190261244773865 0.6598870754241943
0.4971333146095276 0.029820267111063004 0.6600741744041443
0.49896809458732605 0.03007914312183857 0.6595970392227173
0.5095348954200745 0.04936663806438446 0.6470927000045776
0.41232165694236755 0.06084974855184555 0.6575881242752075
0.41554269194602966 0.059955574572086334 0.6574897766113281
0.4163393974304199 0.059663254767656326 0.6575040817260742
0.41873234510421753 0.05881204083561897 0.657534122467041
0.42112118005752563 0.0579349584877491 0.6575783491134644
0.4227168560028076 0.05737635865807533 0.6575928926467896
0.42430880665779114 0.05679173395037651 0.6576225161552429
0.42670440673828125 0.055970199406147 0.6576356887817383
0.4283033311367035 0.055436477065086365 0.6576356887817383
0.4307020902633667 0.05463655665516853 0.6576358675956726
0.43230119347572327 0.054103173315525055 0.6576361060142517
0.4331008195877075 0.0538366362452507 0.6576361060142517
0.43470004200935364 0.053303562104701996 0.6576361060142517
0.4362702965736389 0.05260224640369415 0.6577339172363281
0.4378189742565155 0.05178460478782654 0.6578993201255798
0.43861788511276245 0.051518309861421585 0.6578993201255798
0.44170942902565 0.04988647252321243 0.6582306027412415
0.4455908536911011 0.04799216613173485 0.6585604548454285
0.45413175225257874 0.04399348795413971 0.6591941714286804
0.4564317464828491 0.04280032962560654 0.6594287753105164
0.4587572515010834 0.04174148291349411 0.659584641456604
0.460286408662796 0.040948256850242615 0.6597403883934021
0.46260762214660645 0.03989126533269882 0.6598965525627136
0.4710427522659302 0.03580896556377411 0.6605953574180603
0.4754461944103241 0.039583269506692886 0.6577123403549194
0.4762617349624634 0.03937935456633568 0.6576747298240662
0.4785885214805603 0.03830799087882042 0.657837450504303
0.4793515205383301 0.037905965000391006 0.6579182147979736
0.4801141023635864 0.03750402480363846 0.6579995155334473
0.4839581847190857 0.03563318029046059 0.6583243012428284
0.4877963066101074 0.03377527743577957 0.6586426496505737
0.49162644147872925 0.03192346170544624 0.6589586734771729
0.49620378017425537 0.029680287465453148 0.6593530178070068
0.49886712431907654 0.029783418402075768 0.6588083505630493
0.5005485415458679 0.032353710383176804 0.6570863127708435
0.5031957626342773 0.03796682506799698 0.6535136103630066
0.5059076547622681 0.04371712729334831 0.6498532295227051
0.5067285299301147 0.04344349354505539 0.6498532295227051
0.412079781293869 0.05955129489302635 0.6573740243911743
0.4168606996536255 0.057885922491550446 0.6574141383171082
0.41845354437828064 0.05732810124754906 0.6574282646179199
0.4224296808242798 0.055895961821079254 0.6574872732162476
0.42401811480522156 0.05531301349401474 0.6575168967247009
0.42799198627471924 0.053881265223026276 0.6575760245323181
0.4287858307361603 0.05359020456671715 0.6575908660888672
0.4303770959377289 0.05303293839097023 0.6576055884361267
0.43355897068977356 0.05191601440310478 0.657636284828186
0.43435657024383545 0.0516502819955349 0.657636284828186
0.43993934988975525 0.04978780448436737 0.6576372385025024
0.4407369792461395 0.04952162876725197 0.6576374173164368
0.44233205914497375 0.04898988828063011 0.6576374173164368
0.4447249174118042 0.04819197580218315 0.6576376557350159
0.445496529340744 0.047791607677936554 0.6577169299125671
0.4462939202785492 0.047525808215141296 0.6577169299125671
0.44860222935676575 0.04630688577890396 0.6579647064208984
0.4493710398674011 0.0459011010825634 0.6580474972724915
0.45789316296577454 0.041891638189554214 0.658692479133606
0.464036226272583 0.03885287791490555 0.6592395901679993
0.4663533568382263 0.0377979651093483 0.6593952775001526
0.46863630414009094 0.036613889038562775 0.6596287488937378
0.4701884686946869 0.035955388098955154 0.6597068309783936
0.4719929099082947 0.03630676493048668 0.6591803431510925
0.4736192524433136 0.039339203387498856 0.657208263874054
0.48234787583351135 0.03619883954524994 0.6573352217674255
0.4831092357635498 0.03579771891236305 0.6574166417121887
0.4846309721469879 0.034996021538972855 0.6575796604156494
0.4861885905265808 0.03432987630367279 0.6576601266860962
0.48694804310798645 0.03392971679568291 0.657741367816925
0.488465815782547 0.0331302210688591 0.6579034328460693
0.4900214374065399 0.032468002289533615 0.6579824090003967
0.4953610301017761 0.02982710301876068 0.6584576964378357
0.5095027089118958 0.04930178448557854 0.6451091766357422
0.4151204228401184 0.05792774260044098 0.6567379236221313
0.4190231263637543 0.055957287549972534 0.6571082472801208
0.42057281732559204 0.055106718093156815 0.6572936773300171
0.42372894287109375 0.053840190172195435 0.6574122309684753
0.4245213568210602 0.0535493865609169 0.6574272513389587
0.4292784035205841 0.05183106288313866 0.6575000286102295
0.43007439374923706 0.051565732806921005 0.6575000286102295
0.4348289668560028 0.04984806105494499 0.6575738787651062
0.4364117383956909 0.0492674820125103 0.65760338306427
0.4403795003890991 0.047882549464702606 0.6576376557350159
0.4427660405635834 0.04708629846572876 0.6576381921768188
0.44674405455589294 0.0457596629858017 0.6576386094093323
0.448335200548172 0.04522864520549774 0.6576389670372009
0.45072171092033386 0.04443270340561867 0.6576387882232666
0.4523128271102905 0.04390185326337814 0.6576395630836487
0.4546995460987091 0.04310593754053116 0.657639741897583
0.4562387764453888 0.042334675788879395 0.6577823758125305
0.45700371265411377 0.04193074628710747 0.6578646302223206
0.4585631191730499 0.04126214236021042 0.6579477787017822
0.46164897084236145 0.03979351371526718 0.6581911444664001
0.46549516916275024 0.03794575110077858 0.658504068851471
0.47609755396842957 0.038973934948444366 0.6559783220291138
0.49069270491600037 0.03182857483625412 0.6572408676147461
0.49220719933509827 0.031030574813485146 0.6574026942253113
0.49451744556427 0.029973654076457024 0.6575620770454407
0.496029794216156 0.02918301336467266 0.6577207446098328
0.49864625930786133 0.029130585491657257 0.6572661995887756
0.5005044341087341 0.03226654231548309 0.6551870107650757
0.5031549334526062 0.0378866083920002 0.6515865325927734
0.5058706402778625 0.04364457353949547 0.6478966474533081
0.5066927671432495 0.043370530009269714 0.6478966474533081
0.4134574830532074 0.05858391523361206 0.6557064652442932
0.41425636410713196 0.05831762030720711 0.6557064652442932
0.41503462195396423 0.057890862226486206 0.6557996869087219
0.4165896475315094 0.057037219405174255 0.655985414981842
0.42672210931777954 0.051990292966365814 0.6569130420684814
0.43137142062187195 0.04963624104857445 0.657359778881073
0.4321499466896057 0.049275077879428864 0.657416582107544
0.43609684705734253 0.04781162738800049 0.657498300075531
0.43846988677978516 0.0469677671790123 0.65752774477005
0.4416316747665405 0.04583452269434929 0.6575716137886047
0.4424210488796234 0.0455453060567379 0.657586395740509
0.4447879493236542 0.04467706009745598 0.6576302647590637
0.44716617465019226 0.043869175016880035 0.6576389670372009
0.44875311851501465 0.0433393195271492 0.6576390266418457
0.4503404200077057 0.04281036555767059 0.6576390266418457
0.4535147249698639 0.041751448065042496 0.6576399207115173
0.4543083906173706 0.041486602276563644 0.6576400995254517
0.45906975865364075 0.03989841416478157 0.6576403379440308
0.46065691113471985 0.03936902806162834 0.6576405167579651
0.46224379539489746 0.03883961960673332 0.6576408743858337
0.4646080434322357 0.03797509893774986 0.6576833724975586
0.4661625325679779 0.03730885311961174 0.6577658653259277
0.46923813223838806 0.03585442155599594 0.6580044031143188
0.4718652069568634 0.03605571389198303 0.6574057936668396
0.4734865128993988 0.03906697407364845 0.655432403087616
0.47428613901138306 0.0388004295527935 0.655432403087616
0.478370726108551 0.03779657185077667 0.6552338600158691
0.480650931596756 0.03654922544956207 0.6555044651031494
0.4822098910808563 0.03586913272738457 0.6555941104888916
0.4844864010810852 0.034634191542863846 0.6558580994606018
0.48604243993759155 0.03395681828260422 0.6559462547302246
0.509470522403717 0.049236901104450226 0.6431187987327576
0.41808050870895386 0.05630653351545334 0.6551399827003479
0.41885730624198914 0.0558803416788578 0.6552335023880005
0.4204089045524597 0.05502845346927643 0.6554200649261475
0.4227560758590698 0.05391208454966545 0.6556061506271362
0.4243033528327942 0.053062960505485535 0.6557919979095459
0.4266447424888611 0.051949214190244675 0.6559778451919556
0.4351605176925659 0.04761597141623497 0.6568113565444946
0.43901771306991577 0.045668601989746094 0.6571796536445618
0.44289112091064453 0.04386282339692116 0.657466471195221
0.44445621967315674 0.043234698474407196 0.6575259566307068
0.4483962655067444 0.041816502809524536 0.6575844883918762
0.4507615268230438 0.04097558185458183 0.6576138138771057
0.4539187550544739 0.039875578135252 0.6576399803161621
0.454710453748703 0.039611391723155975 0.6576401591300964
0.4562937021255493 0.03908302262425423 0.6576405167579651
0.4602515399456024 0.03776296600699425 0.6576411128044128
0.46262654662132263 0.03697100654244423 0.6576412916183472
0.4657929837703705 0.035914864391088486 0.6576416492462158
0.4665844142436981 0.03565066307783127 0.6576414704322815
0.46816760301589966 0.035122454166412354 0.6576416492462158
0.47054246068000793 0.034330498427152634 0.6576424241065979
0.47752171754837036 0.037985410541296005 0.6543083786964417
0.4859957993030548 0.03386436030268669 0.6550309658050537
0.4882677495479584 0.032631948590278625 0.6552956700325012
0.4898219108581543 0.03195555880665779 0.6553839445114136
0.49057742953300476 0.03154541924595833 0.6554720997810364
0.4920874238014221 0.030726313591003418 0.6556481719017029
0.4943923354148865 0.029642675071954727 0.655823826789856
0.49675190448760986 0.028747843578457832 0.6558840274810791
0.4985617399215698 0.028916895389556885 0.6554535031318665
