ply
format ascii 1.0
element vertex 824
property float x
property float y
property float z
end_header
0.5360610485076904 0.055352501571178436 0.6669155955314636
0.5362175107002258 0.05627664923667908 0.6676642894744873
0.5362464189529419 0.057081449776887894 0.6682417988777161
0.5323399901390076 0.06055840477347374 0.6679442524909973
0.5216713547706604 0.06221869960427284 0.6617029309272766
0.5188780426979065 0.062222160398960114 0.6597700119018555
0.509880006313324 0.06038864701986313 0.6522656679153442
0.5085157752037048 0.06008702144026756 0.6511114835739136
0.5568807125091553 0.008340100757777691 0.6479089856147766
0.5556544065475464 0.02666728012263775 0.6597909331321716
0.5502046346664429 0.03037743829190731 0.6585822105407715
0.5484601259231567 0.04228562116622925 0.6656441688537598
0.5409062504768372 0.0471215583384037 0.6637555360794067
0.5401477217674255 0.048017751425504684 0.6638511419296265
0.5397613048553467 0.04845874756574631 0.6638890504837036
0.5363240242004395 0.05404052138328552 0.6653791666030884
0.5356014966964722 0.05807873606681824 0.667682945728302
0.5338159203529358 0.05958058312535286 0.6674858331680298
0.530453085899353 0.0620151124894619 0.6668409109115601
0.5280701518058777 0.06302835792303085 0.6658890843391418
0.5199716091156006 0.06315834075212479 0.6603524684906006
0.5172117948532104 0.06244904547929764 0.6579420566558838
0.5158153772354126 0.06209050491452217 0.6567226648330688
0.5112755298614502 0.05922636017203331 0.6515783667564392
0.5104437470436096 0.06011591851711273 0.6516183614730835
0.5569241642951965 0.006346890702843666 0.6456888318061829
0.5558310747146606 0.009913376532495022 0.6474123597145081
0.5554203391075134 0.01038341410458088 0.647453784942627
0.5572850108146667 0.020273983478546143 0.6556446552276611
0.5561537146568298 0.026299385353922844 0.6590549945831299
0.5514904260635376 0.029105525463819504 0.6577609777450562
0.5501172542572021 0.03202267363667488 0.6588367819786072
0.5490686893463135 0.03438700735569 0.6597536206245422
0.547822117805481 0.04412359371781349 0.665669322013855
0.5464639067649841 0.046053446829319 0.6660676002502441
0.5383539199829102 0.05036491900682449 0.6634209752082825
0.537968099117279 0.050805509090423584 0.663459062576294
0.537002682685852 0.05230501666665077 0.6638312339782715
0.5243561863899231 0.059939514845609665 0.6603389382362366
0.5224901437759399 0.06222005560994148 0.6606277823448181
0.5210544466972351 0.0640854686498642 0.6609271168708801
0.5560163259506226 0.010079673491418362 0.6467957496643066
0.5538122653961182 0.02809794247150421 0.6578463315963745
0.5512726902961731 0.03061576373875141 0.6578311920166016
0.55171799659729 0.03806902468204498 0.6633505821228027
0.5504742860794067 0.04015526920557022 0.6639391779899597
0.5501983761787415 0.04071131348609924 0.6641349792480469
0.5480393171310425 0.04434025287628174 0.6651620268821716
0.5466805100440979 0.04626999422907829 0.6655610799789429
0.5459550619125366 0.047185637056827545 0.665693998336792
0.5452457070350647 0.04811559617519379 0.6658480763435364
0.5428531765937805 0.046578746289014816 0.663102388381958
0.5330554246902466 0.060511380434036255 0.6659917235374451
0.531597375869751 0.06154351308941841 0.6656941771507263
0.5305470824241638 0.06216717138886452 0.6653957962989807
0.5242935419082642 0.059926837682724 0.659460723400116
0.5237987041473389 0.060282692313194275 0.6593636274337769
0.5220625400543213 0.06419578194618225 0.6608847379684448
0.5194125771522522 0.06432118266820908 0.6591207385063171
0.5180357694625854 0.06397336721420288 0.657915472984314
0.5162227153778076 0.06404443085193634 0.6566980481147766
0.556053876876831 0.02701200172305107 0.6578237414360046
0.5556330680847168 0.027432885020971298 0.6578237414360046
0.5509518384933472 0.03200651332736015 0.6577484011650085
0.5522121787071228 0.037723325192928314 0.6626378893852234
0.5441102385520935 0.046999502927064896 0.6634607315063477
0.5425969958305359 0.04633171111345291 0.6619322896003723
0.5418072938919067 0.047200825065374374 0.6619879603385925
0.5380038022994995 0.052473150193691254 0.6630170941352844
0.5383076071739197 0.05434491112828255 0.6645419001579285
0.5380436182022095 0.05646410211920738 0.6658419966697693
0.5376870036125183 0.056921374052762985 0.6659124493598938
0.5363597869873047 0.05805973336100578 0.6657800674438477
0.5359004735946655 0.05842449143528938 0.6657137870788574
0.5241132974624634 0.06058753654360771 0.658969521522522
0.5233094692230225 0.06222128868103027 0.6595510244369507
0.5208202600479126 0.06474880129098892 0.6595779657363892
0.5185225009918213 0.06441427767276764 0.6577333211898804
0.5152706503868103 0.06410223990678787 0.655235767364502
0.5105373859405518 0.061128608882427216 0.6498351097106934
0.5584716796875 0.008090999908745289 0.6453938484191895
0.5576481819152832 0.009033175185322762 0.6454771161079407
0.5563874840736389 0.010412676259875298 0.645560622215271
0.555976152420044 0.010883375070989132 0.6456024050712585
0.5580792427062988 0.024770205840468407 0.6568395495414734
0.5531700849533081 0.02820594422519207 0.6558041572570801
0.5521093606948853 0.03059888817369938 0.6567403078079224
0.550608217716217 0.03424341604113579 0.6582465767860413
0.5524992942810059 0.03801329433917999 0.662225067615509
0.5501484870910645 0.04232204705476761 0.6636009812355042
0.5497364401817322 0.04273393750190735 0.6636009812355042
0.5411996841430664 0.048253756016492844 0.6614806056022644
0.5396236777305603 0.04999331757426262 0.6615957021713257
0.5392367839813232 0.0504346527159214 0.6616339683532715
0.5342013239860535 0.06003865227103233 0.6648443937301636
0.5306410789489746 0.06231968477368355 0.6639455556869507
0.5240417718887329 0.062106601893901825 0.659157931804657
0.5595698356628418 0.020001396536827087 0.6536945104598999
0.5550706386566162 0.027620557695627213 0.6558936238288879
0.5538020730018616 0.027985498309135437 0.6552566289901733
0.5527513027191162 0.03826515004038811 0.6617608070373535
0.5490084290504456 0.04448322579264641 0.6635053157806396
0.5479634404182434 0.04590844362974167 0.663773238658905
0.54764723777771 0.04641464352607727 0.6639071702957153
0.5436969995498657 0.045774199068546295 0.6606718301773071
0.539302408695221 0.05451127514243126 0.6637322902679443
0.5337278246879578 0.060423895716667175 0.6639704704284668
0.5317416787147522 0.061770565807819366 0.6635197997093201
0.5265663266181946 0.0588701106607914 0.657828152179718
0.525886058807373 0.059067487716674805 0.6574878692626953
0.5249354839324951 0.06058800593018532 0.6578895449638367
0.5235530734062195 0.06403607130050659 0.6593453884124756
0.5202650427818298 0.06515639275312424 0.6578176617622375
0.5176847577095032 0.0646059438586235 0.6556111574172974
0.5595755577087402 0.00434441864490509 0.6417895555496216
0.5601055026054382 0.006034667603671551 0.6433585286140442
0.5601086020469666 0.007040770724415779 0.6440718173980713
0.5590868592262268 0.024027694016695023 0.6553558111190796
0.5573148131370544 0.02653391845524311 0.6558746099472046
0.5529469847679138 0.030581917613744736 0.655648410320282
0.5520989894866943 0.03230762109160423 0.6562688946723938
0.5521684885025024 0.04019048064947128 0.6618894934654236
0.5517554879188538 0.04060349985957146 0.6618894934654236
0.5481808185577393 0.04612543433904648 0.6632657051086426
0.5449444651603699 0.04535946249961853 0.6604368090629578
0.5379908680915833 0.057265251874923706 0.663936972618103
0.5366607904434204 0.058406028896570206 0.6638032793998718
0.5357401371002197 0.05913740023970604 0.6636694669723511
0.5343020558357239 0.06018710136413574 0.6633950471878052
0.5114068984985352 0.06120643764734268 0.6479336619377136
0.5598835349082947 0.007678470574319363 0.643494188785553
0.5594449043273926 0.008117154240608215 0.643494188785553
0.557795524597168 0.010003723204135895 0.6436622142791748
0.5601430535316467 0.022456403821706772 0.6541522741317749
0.5585295557975769 0.02608155831694603 0.6555782556533813
0.5544984340667725 0.02780233696103096 0.653940737247467
0.5543027520179749 0.028484299778938293 0.6542855501174927
0.5528313517570496 0.032203707844018936 0.6558786630630493
0.5511288642883301 0.04247085005044937 0.6619493961334229
0.5461997389793396 0.04578571394085884 0.6608051061630249
0.544844388961792 0.04526013135910034 0.6594719290733337
0.5440561175346375 0.04613466560840607 0.6595330238342285
0.5436677932739258 0.04657752811908722 0.659571647644043
0.5420880913734436 0.04832075536251068 0.6596875786781311
0.5417003035545349 0.04876310005784035 0.6597263216972351
0.5405040979385376 0.05005738511681557 0.6597957611083984
0.5402700304985046 0.05145290493965149 0.6606190204620361
0.5404164791107178 0.052395712584257126 0.661391019821167
0.5405623316764832 0.053333621472120285 0.6621592044830322
0.5402815341949463 0.05466346815228462 0.6629027128219604
0.539421796798706 0.05623949319124222 0.6634103655815125
0.5261781215667725 0.06016892194747925 0.6568086743354797
0.5251756310462952 0.06241150572896004 0.6576876044273376
0.5243712663650513 0.06403815746307373 0.6582704782485962
0.5225486755371094 0.06482686847448349 0.6575377583503723
0.5187897086143494 0.06483182311058044 0.6548768281936646
0.5173857808113098 0.06447139382362366 0.6536264419555664
0.5614649653434753 0.018359923735260963 0.6513391137123108
0.556756854057312 0.0267183780670166 0.6539336442947388
0.554825484752655 0.028139017522335052 0.6535705924034119
0.5547599196434021 0.03692614287137985 0.6597699522972107
0.5541996955871582 0.03804723545908928 0.6601687669754028
0.5502976775169373 0.04411817342042923 0.6617103219032288
0.5499795079231262 0.0446263924241066 0.6618454456329346
0.5474463105201721 0.046208035200834274 0.6611691117286682
0.5348148345947266 0.0599244199693203 0.6619402766227722
0.5344032645225525 0.06033603847026825 0.6619402766227722
0.5338780879974365 0.060648173093795776 0.6617887020111084
0.5281659364700317 0.058009445667266846 0.6558529138565063
0.5277456641197205 0.05842976272106171 0.6558529138565063
0.5246837139129639 0.06434032320976257 0.6578777432441711
0.5208766460418701 0.06503916531801224 0.6556683778762817
0.5181582570075989 0.06437733769416809 0.6532657146453857
0.5602588653564453 0.008010401390492916 0.6422529220581055
0.5603490471839905 0.02445836365222931 0.6540416479110718
0.5590027570724487 0.025631612166762352 0.6539183259010315
0.5585803985595703 0.0260540172457695 0.6539183259010315
0.5543124675750732 0.030229249969124794 0.6538524031639099
0.5540971755981445 0.03088337928056717 0.6541650295257568
0.5544517040252686 0.03829917684197426 0.6597038507461548
0.5537580847740173 0.03927212953567505 0.6599031090736389
0.5491260886192322 0.046245526522397995 0.6615721583366394
0.5400867462158203 0.05610266327857971 0.6621549725532532
0.5382956862449646 0.05761038884520531 0.6619530320167542
0.537834882736206 0.05797644332051277 0.6618855595588684
0.5373735427856445 0.05834207311272621 0.6618173122406006
0.5287860035896301 0.057796087116003036 0.6553067564964294
0.5270020365715027 0.060169193893671036 0.6557266712188721
0.5229352116584778 0.06447495520114899 0.6558969020843506
0.5130026340484619 0.060301922261714935 0.6458422541618347
0.5621002316474915 0.006285661831498146 0.6414618492126465
0.5616867542266846 0.00675853481516242 0.6415042877197266
0.5604467391967773 0.008176624774932861 0.6416316628456116
0.5595942735671997 0.00908819679170847 0.641673743724823
0.5608553290367126 0.02408658340573311 0.6532968878746033
0.5562419295310974 0.03589194267988205 0.6584380865097046
0.5537306070327759 0.04008188843727112 0.659637987613678
0.552423894405365 0.042102135717868805 0.6601480841636658
0.5466310977935791 0.04454964026808739 0.6577566266059875
0.5457556247711182 0.045339055359363556 0.6576950550079346
0.5449501276016235 0.04619890823960304 0.6577339768409729
0.5437838435173035 0.04752889275550842 0.6578509211540222
0.5429790616035461 0.04838794842362404 0.6578898429870605
0.5421144962310791 0.05081866309046745 0.6590093374252319
0.5418428182601929 0.052177269011735916 0.6597864031791687
0.5420812964439392 0.054008256644010544 0.6612656116485596
0.5419719815254211 0.05470285937190056 0.6616840958595276
0.5401899218559265 0.05621694028377533 0.6614925265312195
0.5265050530433655 0.06211027130484581 0.6559227108955383
0.5263098478317261 0.06271642446517944 0.6562164425849915
0.521515965461731 0.06412889808416367 0.6537994146347046
0.5580251216888428 0.026236752048134804 0.6519665122032166
0.5573925375938416 0.02641814388334751 0.6516430377960205
0.5560027360916138 0.02846642956137657 0.6521151065826416
0.5544874668121338 0.03215223550796509 0.6536712050437927
0.5564945936203003 0.036144714802503586 0.6579722166061401
0.5526428818702698 0.04231949895620346 0.6596375107765198
0.5483007431030273 0.04456494748592377 0.6581342816352844
0.547885537147522 0.0449800081551075 0.6581342816352844
0.5424127578735352 0.052731383591890335 0.6597678065299988
0.5425196290016174 0.053635820746421814 0.6604928374290466
0.5380038022994995 0.05817665532231331 0.6605108976364136
0.535494327545166 0.0598352812230587 0.6599008440971375
0.5349684953689575 0.06014774367213249 0.659747838973999
0.5338647961616516 0.06072971969842911 0.6593737006187439
0.5293506383895874 0.057566720992326736 0.6538702845573425
0.52565598487854 0.06374859064817429 0.6556533575057983
0.5252374410629272 0.06416717171669006 0.6556533575057983
0.5222827792167664 0.06403560936450958 0.6534408330917358
0.5208956599235535 0.0636722519993782 0.6521859765052795
0.5143019556999207 0.05988398566842079 0.6447433233261108
0.5621629357337952 0.02369336411356926 0.6522666215896606
0.5602735877037048 0.02514929696917534 0.6519550681114197
0.5596778392791748 0.025368807837367058 0.6516844630241394
0.5565271377563477 0.028120871633291245 0.6513979434967041
0.5557689070701599 0.03793533891439438 0.6579083800315857
0.5545132160186768 0.04002740979194641 0.6585099697113037
0.551902174949646 0.04406622797250748 0.6595364212989807
0.5476555228233337 0.04390319064259529 0.656366229057312
0.5429760217666626 0.05003827437758446 0.6574124693870544
0.5385812520980835 0.05793844163417816 0.659932553768158
0.5380578637123108 0.05824936926364899 0.6597797870635986
0.5375341773033142 0.058560751378536224 0.6596272587776184
0.5291560292243958 0.058218102902173996 0.6533578038215637
0.5281408429145813 0.06047489494085312 0.6542503237724304
0.5239989161491394 0.06395573168992996 0.653775155544281
0.5216655731201172 0.06357873231172562 0.6518266797065735
0.5198454856872559 0.06363730132579803 0.6505602598190308
0.5631073713302612 0.006342904642224312 0.6395934820175171
0.5618391036987305 0.007729781791567802 0.6396790146827698
0.5614250302314758 0.008202966302633286 0.6397217512130737
0.5624915957450867 0.024036765098571777 0.6519060134887695
0.5561986565589905 0.0304272398352623 0.6519762873649597
0.5560211539268494 0.03818763419985771 0.6574432253837585
0.5557399988174438 0.03874768316745758 0.6576443314552307
0.552121102809906 0.044283676892519 0.6590264439582825
0.5482107400894165 0.04362191632390022 0.6557302474975586
0.5478378534317017 0.04408421739935875 0.6557947397232056
0.5458739995956421 0.04629053175449371 0.6559693217277527
0.5442835092544556 0.04803328961133957 0.656079113483429
0.5432132482528687 0.054319098591804504 0.659839391708374
0.541881799697876 0.055462051182985306 0.6597034931182861
0.5409608483314514 0.0561942458152771 0.6595673561096191
0.5310154557228088 0.056717533618211746 0.6527745127677917
0.5286523699760437 0.06016986072063446 0.6535598635673523
0.5250949859619141 0.06336937099695206 0.6533017754554749
0.5224349498748779 0.063485287129879 0.6514676809310913
0.5653492212295532 0.014142986387014389 0.6459730863571167
0.5638719201087952 0.02096332609653473 0.649836003780365
0.5597228407859802 0.02532877027988434 0.6499924063682556
0.5582042336463928 0.026317287236452103 0.6496092081069946
0.5558452606201172 0.03179299458861351 0.651862621307373
0.5581016540527344 0.03521280735731125 0.6559665203094482
0.5549993515014648 0.040512267500162125 0.6575550436973572
0.554034411907196 0.04204791039228439 0.6579676270484924
0.5536211133003235 0.042461223900318146 0.6579676270484924
0.5480203032493591 0.04426524043083191 0.6552225351333618
0.5464330315589905 0.04601592198014259 0.6553407311439514
0.5444383025169373 0.04818996414542198 0.6554703712463379
0.5438413023948669 0.049254145473241806 0.6558082103729248
0.5441160202026367 0.05115654692053795 0.6573822498321533
0.5442524552345276 0.05210026353597641 0.6581631302833557
0.5361768007278442 0.059745628386735916 0.6578519940376282
0.5309436917304993 0.05668431520462036 0.6518552899360657
0.5283728837966919 0.062300585210323334 0.6540570259094238
0.5267238616943359 0.06322886794805527 0.6535359025001526
0.5218163728713989 0.06302475929260254 0.6498403549194336
0.5159090161323547 0.0589756965637207 0.6426417231559753
0.5622170567512512 0.008062725886702538 0.6384311318397522
0.5641149282455444 0.02214866504073143 0.6500203013420105
0.5619730353355408 0.02424120157957077 0.6499845385551453
0.5581214427947998 0.02801513858139515 0.6499282121658325
0.5580712556838989 0.03603004291653633 0.6557030081748962
0.5577878355979919 0.0365929938852787 0.6559056639671326
0.5528672933578491 0.044197678565979004 0.6578518748283386
0.5392696857452393 0.05784474313259125 0.6578875780105591
0.5387455224990845 0.05815637484192848 0.6577334403991699
0.5322602987289429 0.056289080530405045 0.6516776084899902
0.5302988886833191 0.05852432921528816 0.6518760323524475
0.5300988554954529 0.0591377317905426 0.6521759033203125
0.5285813808441162 0.06251607090234756 0.6535249948501587
0.5254892706871033 0.06301232427358627 0.6516428589820862
0.522588312625885 0.06293119490146637 0.6494807004928589
0.5165613889694214 0.05876651406288147 0.6420914530754089
0.564952552318573 0.00028219338855706155 0.6338794827461243
0.5657210350036621 0.0023603385780006647 0.6359493136405945
0.565777599811554 0.004502783063799143 0.6375482678413391
0.564091145992279 0.006366802379488945 0.6376773118972778
0.563676118850708 0.006840909831225872 0.6377204060554504
0.5644918084144592 0.0225524865090847 0.6497372984886169
0.5637841820716858 0.0235696192830801 0.6499625444412231
0.5625976920127869 0.024006258696317673 0.6494171619415283
0.5577895641326904 0.029417503625154495 0.6498556137084961
0.5570597648620605 0.03838421776890755 0.6558449268341064
0.556175947189331 0.04002061113715172 0.6563921570777893
0.5516553521156311 0.04376959428191185 0.6558308601379395
0.5512402057647705 0.04418466240167618 0.6558308601379395
0.5495062470436096 0.04323941469192505 0.6538828611373901
0.5449814200401306 0.050377510488033295 0.6557829976081848
0.545208752155304 0.052229080349206924 0.6572944521903992
0.5439905524253845 0.05429290607571602 0.6579095125198364
0.5417346954345703 0.05617152526974678 0.6576352119445801
0.5302127599716187 0.060055434703826904 0.6520814895629883
0.5271210670471191 0.06287222355604172 0.6518815159797668
0.5219681262969971 0.062466997653245926 0.6478402018547058
0.5663840770721436 0.004193143453449011 0.6368789672851562
0.5603691935539246 0.025023384019732475 0.6476818919181824
0.5578659772872925 0.030375594273209572 0.6497592329978943
0.5563962459564209 0.040238361805677414 0.6558792591094971
0.5559819936752319 0.04065265506505966 0.6558792591094971
0.5504815578460693 0.04253910481929779 0.653244137763977
0.5489228367805481 0.044327158480882645 0.6534112095832825
0.5477237701416016 0.045635271817445755 0.6534907221794128
0.5473331212997437 0.04608020558953285 0.6535302996635437
0.5457172393798828 0.047804538160562515 0.6536092758178711
0.5445573329925537 0.05403994768857956 0.6573103666305542
0.537803590297699 0.05892788991332054 0.6559498906135559
0.5321558713912964 0.05625280737876892 0.64988112449646
0.5305261015892029 0.06036090478301048 0.6516883373260498
0.5299067497253418 0.061390623450279236 0.6519874334335327
0.5282171368598938 0.06228596717119217 0.651408314704895
0.5258857607841492 0.0626535713672638 0.6499763131141663
0.523168683052063 0.06194709986448288 0.6474800705909729
0.5227425694465637 0.06237322464585304 0.6474800705909729
0.5657902956008911 0.020236795768141747 0.6472892165184021
0.5626586675643921 0.02397364377975464 0.6477317810058594
0.5620625019073486 0.024193039163947105 0.6474562287330627
0.5601375102996826 0.02655895985662937 0.6477786898612976
0.5597125291824341 0.026983989402651787 0.6477786898612976
0.5584004521369934 0.030042830854654312 0.6490560173988342
0.5603861808776855 0.034113816916942596 0.6534847617149353
0.5598152279853821 0.03524510934948921 0.6538946032524109
0.5552347898483276 0.04240727424621582 0.6557825207710266
0.5461349487304688 0.04822063073515892 0.6533792018890381
0.5462667346000671 0.04917888715863228 0.6541764140129089
0.5463978052139282 0.05013212189078331 0.654969334602356
0.546164333820343 0.0523575097322464 0.6564258337020874
0.5424061417579651 0.0560339130461216 0.6563660502433777
0.5408989191055298 0.057025156915187836 0.6559886932373047
0.5399608612060547 0.05775059759616852 0.6558332443237305
0.5394359827041626 0.05806294456124306 0.6556776762008667
0.5338786244392395 0.05541928857564926 0.6496809720993042
0.5265642404556274 0.06248709186911583 0.6495007276535034
0.5671913027763367 0.004059705883264542 0.6355963945388794
0.5659095644950867 0.005440747365355492 0.6356690526008606
0.5650776028633118 0.006390715483576059 0.6357558369636536
0.5658922791481018 0.022206829860806465 0.6479511260986328
0.5609124898910522 0.033785637468099594 0.6527901887893677
0.5593674182891846 0.036478862166404724 0.6536321640014648
0.5585151314735413 0.038165733218193054 0.6542441844940186
0.5521194934844971 0.04251917079091072 0.6527466773986816
0.5451837182044983 0.053853824734687805 0.6559724807739258
0.5447708964347839 0.05426668003201485 0.6559724807739258
0.5438482761383057 0.055000703781843185 0.6558341383934021
0.5425113439559937 0.0561487078666687 0.6556954979896545
0.5345031023025513 0.05520424619317055 0.6491305828094482
0.5323796272277832 0.058101728558540344 0.6496979594230652
0.5319578051567078 0.05852343887090683 0.6496979594230652
0.5286192297935486 0.061926331371068954 0.6497451663017273
0.5276655554771423 0.06189790368080139 0.649025022983551
0.5247159004211426 0.06176039204001427 0.6467610597610474
0.5188298225402832 0.05764273926615715 0.6394253373146057
0.5680446624755859 0.01617678441107273 0.6442443132400513
0.5661165714263916 0.02242298051714897 0.647419810295105
0.5620792508125305 0.024108871817588806 0.645690381526947
0.5616524815559387 0.024535490199923515 0.645690381526947
0.5601239800453186 0.02829943411052227 0.6473343372344971
0.5598957538604736 0.028951818123459816 0.6476464867591858
0.5587677359580994 0.03841828927397728 0.6537782549858093
0.5517830848693848 0.04215414822101593 0.6513891816139221
0.5498279929161072 0.04438925161957741 0.6515950560569763
0.5482330322265625 0.04614197090268135 0.6517109870910645
0.5478255748748779 0.046570900827646255 0.6517266631126404
0.5474713444709778 0.05201328918337822 0.6554686427116394
0.538865327835083 0.058381106704473495 0.653822660446167
0.5318678021430969 0.060055870562791824 0.6499084234237671
0.5272866487503052 0.061617009341716766 0.6476876139640808
0.5268628597259521 0.06204082816839218 0.6476876139640808
0.5674851536750793 0.020246446132659912 0.6459673047065735
0.5639443397521973 0.023485135287046432 0.6457446217536926
0.5615238547325134 0.026200562715530396 0.6459619998931885
0.561720609664917 0.03374183923006058 0.6516686677932739
0.5614339113235474 0.03430899605154991 0.6518754363059998
0.5605751872062683 0.03600509464740753 0.652492880821228
0.5579262971878052 0.040082674473524094 0.6535465717315674
0.556540310382843 0.04203711450099945 0.6539658904075623
0.5562174916267395 0.04254930466413498 0.654105544090271
0.555009126663208 0.04297424480319023 0.653527557849884
0.5523427724838257 0.04187067970633507 0.6507474184036255
0.5503914952278137 0.044112592935562134 0.6509617567062378
0.5481239557266235 0.048540111631155014 0.6525548100471497
0.5415949821472168 0.05692894756793976 0.6539263129234314
0.5350744724273682 0.05496435612440109 0.6476688385009766
0.5338225364685059 0.05624976009130478 0.6476935744285583
0.5321812033653259 0.06036175414919853 0.6495156288146973
0.5280547738075256 0.061524346470832825 0.6473299860954285
0.5248779654502869 0.06119684502482414 0.6447455883026123
0.5695271492004395 0.002777307527139783 0.633698046207428
0.568219006061554 0.004127801861613989 0.6337293386459351
0.5677875876426697 0.004583858884871006 0.633747398853302
0.5660748481750488 0.006425084546208382 0.6338425874710083
0.5661859512329102 0.022386370226740837 0.6457287073135376
0.5655928254127502 0.022604433819651604 0.6454514861106873
0.5581472516059875 0.04030081629753113 0.6530323028564453
0.5525276064872742 0.04205179587006569 0.6501712799072266
0.5485628843307495 0.04814594238996506 0.6517462134361267
0.548362135887146 0.050435349345207214 0.653290867805481
0.5482258796691895 0.05194499343633652 0.6543065309524536
0.545505702495575 0.05419416353106499 0.6539581418037415
0.5436400771141052 0.05565059930086136 0.6536555886268616
0.5427021980285645 0.056376535445451736 0.6534987092018127
0.5401860475540161 0.058042075484991074 0.6528697609901428
0.5345603227615356 0.05613536760210991 0.6472991704940796
0.5274568200111389 0.061055440455675125 0.6456843614578247
0.5699805021286011 0.014510939829051495 0.6418414115905762
0.5683780908584595 0.020275117829442024 0.6449278593063354
0.5634288787841797 0.023692380636930466 0.6437917947769165
0.5623813271522522 0.026190556585788727 0.6448676586151123
0.5616930723190308 0.028161900117993355 0.6458194255828857
0.5622288584709167 0.03425013646483421 0.6507319211959839
0.5610816478729248 0.036511730402708054 0.6515582799911499
0.5600849390029907 0.03804297372698784 0.6519547700881958
0.5542539954185486 0.04127829521894455 0.6500298380851746
0.5535076856613159 0.04134871065616608 0.6495285034179688
0.552712619304657 0.04223301261663437 0.6495947241783142
0.5519392490386963 0.043139275163412094 0.6496931314468384
0.5511279702186584 0.044005028903484344 0.6497335433959961
0.5499407052993774 0.04533332958817482 0.6498382091522217
0.5491135716438293 0.04618176445364952 0.6498540043830872
0.5483354330062866 0.05205707624554634 0.6536343693733215
0.5478740930557251 0.052424076944589615 0.6535645723342896
0.5367556810379028 0.0541146919131279 0.6465723514556885
0.5340420603752136 0.05810036137700081 0.6475156545639038
0.5338377952575684 0.05871523916721344 0.6478204727172852
0.5317492485046387 0.06084044650197029 0.6478474736213684
0.5282275676727295 0.060962628573179245 0.6453263163566589
0.5211086273193359 0.056513864547014236 0.6367471814155579
0.5656613111495972 0.02256828360259533 0.6437502503395081
0.563755452632904 0.024033257737755775 0.6434223055839539
0.5634769797325134 0.03295062109827995 0.6498472690582275
0.5599806308746338 0.0387771800160408 0.6515805721282959
0.558914303779602 0.04022301733493805 0.6518628001213074
0.5540693998336792 0.041064437478780746 0.6488850712776184
0.5461835861206055 0.05405370891094208 0.6526808142662048
0.5422945618629456 0.05683242529630661 0.651854932308197
0.5417687296867371 0.05714542418718338 0.6516968011856079
0.5373824238777161 0.05389884486794472 0.6460198760032654
0.5366842746734619 0.054070115089416504 0.6456280946731567
0.5358083248138428 0.05489279329776764 0.6455882787704468
0.5335261821746826 0.06005643308162689 0.6477314233779907
0.530532717704773 0.06061122566461563 0.6459176540374756
0.527628481388092 0.06049010902643204 0.6436675190925598
0.5709932446479797 0.0023897832725197077 0.6318111419677734
0.5696923732757568 0.003754145698621869 0.6318583488464355
0.56924968957901 0.0041966685093939304 0.6318583488464355
0.5679609179496765 0.00557639729231596 0.6319262981414795
0.5692713856697083 0.02030380815267563 0.643887996673584
0.5679045915603638 0.021468909457325935 0.6437376141548157
0.566885232925415 0.02211291901767254 0.6434577107429504
0.5640817880630493 0.02437397837638855 0.6430530548095703
0.5632324814796448 0.026172088459134102 0.6437607407569885
0.5625298619270325 0.028130831196904182 0.6446976065635681
0.5640203952789307 0.03263608738780022 0.6491696834564209
0.5631542801856995 0.03434060886502266 0.6497946977615356
0.5576846599578857 0.042330607771873474 0.6516745686531067
0.5503044724464417 0.04653995856642723 0.6493097543716431
0.5500080585479736 0.047922372817993164 0.6501197814941406
0.5501267910003662 0.048878706991672516 0.6509214043617249
0.5502434968948364 0.05065740644931793 0.6523351669311523
0.5458055734634399 0.05451314523816109 0.6519008874893188
0.5438191890716553 0.055863410234451294 0.6514264941215515
0.5373200178146362 0.05386137217283249 0.6450859904289246
0.5357093811035156 0.05644256994128227 0.6458098292350769
0.5284016132354736 0.06039712205529213 0.6433088779449463
0.5224220156669617 0.056092292070388794 0.6356381773948669
0.5711717009544373 -0.001731088268570602 0.6279631853103638
0.571700394153595 8.411767339566723e-05 0.6297162771224976
0.5652545094490051 0.022900667041540146 0.641960620880127
0.5649833083152771 0.03190234676003456 0.6484906077384949
0.5624151825904846 0.03614351898431778 0.649742066860199
0.558231770992279 0.04203767701983452 0.6510217189788818
0.5551944971084595 0.04049478471279144 0.6475957632064819
0.553637683391571 0.04230491444468498 0.6477853655815125
0.5520625710487366 0.04409179091453552 0.6479437351226807
0.5516431331634521 0.04451128467917442 0.6479437351226807
0.5506938099861145 0.05027928203344345 0.6515479683876038
0.5495880246162415 0.05165893957018852 0.651752769947052
0.5491264462471008 0.05202644690871239 0.6516821980476379
0.547788143157959 0.05317660793662071 0.6515417098999023
0.546390175819397 0.05427167937159538 0.651314914226532
0.5362303853034973 0.056132204830646515 0.6451076865196228
0.5328390002250671 0.06030980125069618 0.6456956267356873
0.5296006798744202 0.05987779423594475 0.6429504156112671
0.5278012156486511 0.05992095172405243 0.6416366696357727
0.5724135041236877 0.0009753954946063459 0.6300145387649536
0.570091724395752 0.004103071056306362 0.6306191682815552
0.571861743927002 0.014664954505860806 0.6398689150810242
0.5708820223808289 0.018329162150621414 0.6418823599815369
0.5701650381088257 0.020332369953393936 0.6428471207618713
0.5669571757316589 0.022075366228818893 0.641748309135437
0.5649433135986328 0.024363156408071518 0.6419538855552673
0.5642814040184021 0.026390444487333298 0.6429779529571533
0.5633674263954163 0.02809963934123516 0.6435743570327759
0.5655256509780884 0.031583022326231 0.6478060483932495
0.5616265535354614 0.037883318960666656 0.6496069431304932
0.5612994432449341 0.03840015456080437 0.6497493982315063
0.5564007759094238 0.04003048315644264 0.6472977995872498
0.5542314052581787 0.042054105550050735 0.6471886038780212
0.5510126352310181 0.04809374362230301 0.6493043303489685
0.5439392924308777 0.05600588396191597 0.6499336361885071
0.538592517375946 0.05344361066818237 0.6440012454986572
0.5378758311271667 0.05359720066189766 0.6435789465904236
0.5375936627388 0.054153766483068466 0.643784761428833
0.5357078909873962 0.05809902027249336 0.6453295350074768
0.5339407324790955 0.05972084775567055 0.6452203392982483
0.5316251516342163 0.06007760390639305 0.6437512636184692
0.5303725004196167 0.05978523567318916 0.6425923705101013
0.5290049314498901 0.059399716556072235 0.641277551651001
0.57249915599823 0.002051867311820388 0.6299851536750793
0.571611762046814 0.0029359781183302402 0.629982590675354
0.5721280574798584 0.01592881791293621 0.6401436924934387
0.5692023634910583 0.020974785089492798 0.6417386531829834
0.5675883293151855 0.021837878972291946 0.641173779964447
0.5654929876327515 0.03241205960512161 0.6475514769554138
0.5642049908638 0.03453594073653221 0.6481801867485046
0.5605417490005493 0.04016628861427307 0.6496599316596985
0.5597714781761169 0.041065167635679245 0.6497563719749451
0.5563651323318481 0.03997015953063965 0.6463707089424133
0.5517558455467224 0.046314310282468796 0.6476756930351257
0.5470380187034607 0.05409941449761391 0.6499829292297363
0.5459908843040466 0.05472301319241524 0.6496641039848328
0.5396466851234436 0.05280379205942154 0.6434485912322998
0.5360214710235596 0.05840671807527542 0.644936203956604
0.5323070287704468 0.059910327196121216 0.6432732939720154
0.5240564942359924 0.05516847223043442 0.6335007548332214
0.5236184000968933 0.0556066557765007 0.6335007548332214
0.5709443092346191 0.004022140521556139 0.6293947100639343
0.5733810067176819 0.012494761496782303 0.6376236081123352
0.5725038647651672 0.0163413118571043 0.6398634314537048
0.5708510279655457 0.020093785598874092 0.6414472460746765
0.5651219487190247 0.026358215138316154 0.6418509483337402
0.5642058849334717 0.028068413957953453 0.6424501538276672
0.566329836845398 0.03152571618556976 0.6466600894927979
0.5660385489463806 0.03209676593542099 0.6468711495399475
0.5647487640380859 0.03422277048230171 0.6475017070770264
0.5637524127960205 0.03577420860528946 0.647920548915863
0.5620715618133545 0.03832058236002922 0.6485733985900879
0.5569299459457397 0.039684344083070755 0.6457237005233765
0.5565518736839294 0.040151216089725494 0.6457908153533936
0.5557537078857422 0.04103843495249748 0.6458580493927002
0.5545796751976013 0.042392387986183167 0.6459935307502747
0.5523175597190857 0.04688435047864914 0.6476755738258362
0.5524120926856995 0.047826871275901794 0.648457944393158
0.5524656772613525 0.048722848296165466 0.649174153804779
0.5520932078361511 0.05001872032880783 0.6498706340789795
0.5517212748527527 0.0504767931997776 0.6499355435371399
0.5499204993247986 0.051995765417814255 0.6497230529785156
0.5494580268859863 0.052364129573106766 0.6496520042419434
0.5476242303848267 0.05385732650756836 0.6493952870368958
0.538432776927948 0.05415116995573044 0.6426836848258972
0.5373806357383728 0.05643950775265694 0.6436160802841187
0.534358024597168 0.05935303494334221 0.6435337662696838
0.5319146513938904 0.059600360691547394 0.641877293586731
0.5721540451049805 0.018766876310110092 0.640558123588562
0.5686858296394348 0.021152613684535027 0.6397392153739929
0.5676620602607727 0.021799543872475624 0.639454185962677
0.5671955943107605 0.022181114181876183 0.6393899917602539
0.5665584802627563 0.024265741929411888 0.6404848694801331
0.5668767690658569 0.031209370121359825 0.6459782123565674
0.5640062093734741 0.03602816164493561 0.6474518179893494
0.563696026802063 0.03656863421201706 0.6476259231567383
0.553931713104248 0.043422143906354904 0.6454243063926697
0.5531118512153625 0.04428461566567421 0.6454563140869141
0.5500316023826599 0.05210836976766586 0.6490445137023926
0.5446469783782959 0.05590687319636345 0.6478448510169983
0.5402138233184814 0.05254390835762024 0.6419475078582764
0.539594829082489 0.05278739705681801 0.6416636109352112
0.533110499382019 0.05908222496509552 0.6415200233459473
0.5299607515335083 0.05873197317123413 0.6388725638389587
0.5737065076828003 0.014769889414310455 0.6378304362297058
0.5726770758628845 0.018385566771030426 0.6397923827171326
0.5709326863288879 0.0200513768941164 0.6397326588630676
0.5668399930000305 0.0320361852645874 0.6457194685935974
0.5629333853721619 0.03834124654531479 0.6475389003753662
0.5618613958358765 0.03979110345244408 0.6478255391120911
0.5614857077598572 0.0402526818215847 0.6478906869888306
0.5581386685371399 0.03919654339551926 0.6445505619049072
0.5477516055107117 0.053996242582798004 0.6478978395462036
0.5472274422645569 0.0543084479868412 0.6477370858192444
0.5392729043960571 0.05414870008826256 0.6415818929672241
0.5386413931846619 0.05601441115140915 0.6425181031227112
0.5375913977622986 0.05829146131873131 0.6434487700462341
0.5347775220870972 0.0589837022125721 0.6418394446372986
0.5325291156768799 0.05860151723027229 0.6398438811302185
0.5307378172874451 0.05863910913467407 0.6385135650634766
0.5747207403182983 0.0015384177677333355 0.6276560425758362
0.5738115906715393 0.002394513925537467 0.6276155114173889
0.5748369097709656 0.01215385366231203 0.6358195543289185
0.5715653896331787 0.019813204184174538 0.6391574144363403
0.5687512159347534 0.021098563447594643 0.6379945874214172
0.5680620670318604 0.02216920256614685 0.6382846832275391
0.5674172043800354 0.024249466136097908 0.6393765211105347
0.5662609934806824 0.026631921529769897 0.6403093338012695
0.5680999755859375 0.03072815015912056 0.6448242664337158
0.5658019781112671 0.0344182625412941 0.6458833813667297
0.5582491755485535 0.03929261118173599 0.643845796585083
0.5578703880310059 0.03976040333509445 0.6439135670661926
0.5574916005134583 0.04022786021232605 0.6439809799194336
0.5540764927864075 0.04526978358626366 0.6452186107635498
0.5541876554489136 0.04624112322926521 0.6460419297218323
0.5538817048072815 0.04847078397870064 0.6475054025650024
0.5525212287902832 0.05044322833418846 0.6479708552360535
0.5515961050987244 0.051180269569158554 0.6478279232978821
0.5502543449401855 0.0523340068757534 0.6476847529411316
0.5497907400131226 0.05270323157310486 0.6476131081581116
0.574489951133728 0.0021714235190302134 0.6270535588264465
0.5688169002532959 0.02208319492638111 0.6379156112670898
0.566805899143219 0.026293737813830376 0.6395936608314514
0.5663474798202515 0.03410452604293823 0.6452022790908813
0.5651129484176636 0.03628862649202347 0.645926833152771
0.5622267723083496 0.04013989120721817 0.6466630101203918
0.5610198378562927 0.039677198976278305 0.6453893184661865
0.556067705154419 0.04217283055186272 0.6435153484344482
0.5556572079658508 0.04260499030351639 0.6435319185256958
0.5547066926956177 0.04677088186144829 0.6459847688674927
0.5543378591537476 0.04808783903717995 0.6467080116271973
0.5425520539283752 0.051486577838659286 0.6403099298477173
0.5414156913757324 0.05206656828522682 0.6398855447769165
0.540113627910614 0.05414609983563423 0.6404784917831421
0.5394793152809143 0.056012775748968124 0.6414186954498291
0.5383077263832092 0.058183394372463226 0.6421807408332825
0.537503719329834 0.05826239660382271 0.6416277289390564
0.5340734720230103 0.058417029678821564 0.6391290426254272
0.5327189564704895 0.05802471190690994 0.6377964019775391
0.5270195007324219 0.053816474974155426 0.6302381753921509
0.526580274105072 0.054255809634923935 0.6302381753921509
0.57437664270401 0.018396321684122086 0.6384683847427368
0.5722408294677734 0.019552838057279587 0.6377192139625549
0.5716488361358643 0.019769901409745216 0.637432336807251
0.5706265568733215 0.020416492596268654 0.6371449828147888
0.5682734251022339 0.024229124188423157 0.6382614374160767
0.5691986083984375 0.03009290061891079 0.6434552073478699
0.5639307498931885 0.03848053514957428 0.6458417177200317
0.562237560749054 0.04012211412191391 0.6458023190498352
0.5582457780838013 0.040123000741004944 0.6427493095397949
0.5549757480621338 0.04446735978126526 0.6435709595680237
0.5494095683097839 0.053162869065999985 0.645965039730072
0.547943115234375 0.054205454885959625 0.6456408500671387
0.542481541633606 0.05143028870224953 0.6393396854400635
0.5381842851638794 0.05809565633535385 0.6411512494087219
0.5363088250160217 0.05801916867494583 0.6396579146385193
0.5334939956665039 0.057932235300540924 0.6374381184577942
0.527681291103363 0.05360467731952667 0.6296806931495667
0.5759458541870117 0.014394215308129787 0.6357237100601196
0.5749018788337708 0.018014458939433098 0.6376999616622925
0.5685755014419556 0.024541443213820457 0.6378539204597473
0.5697489380836487 0.029774673283100128 0.6427690386772156
0.5681530237197876 0.03248607739806175 0.6436248421669006
0.5678600072860718 0.03305654972791672 0.6438376903533936
0.5644831657409668 0.03818163275718689 0.6451787352561951
0.5603741407394409 0.03800908103585243 0.6418941617012024
0.5599942207336426 0.03847796842455864 0.641962468624115
0.5553002953529358 0.048218149691820145 0.6458336114883423
0.5537404417991638 0.0499931275844574 0.6459987163543701
0.5533241033554077 0.0504094734787941 0.6459987163543701
0.5519341230392456 0.05151734873652458 0.6457824110984802
0.5510454773902893 0.05229563266038895 0.6456975340843201
0.5480073690414429 0.05427548289299011 0.6448858976364136
0.5411673784255981 0.05434228852391243 0.6396897435188293
0.5403181314468384 0.056011080741882324 0.6403183937072754
0.5379308462142944 0.05789024755358696 0.6399285793304443
0.5342685580253601 0.05783995985984802 0.6370804309844971
0.5329102873802185 0.05744398757815361 0.6357347965240479
0.5778397917747498 0.008673489093780518 0.6318937540054321
0.5760104656219482 0.0164080411195755 0.6364368796348572
0.5723262429237366 0.01950897090137005 0.6359881162643433
0.5717326998710632 0.019726475700736046 0.6356989741325378
0.5707070827484131 0.02037351205945015 0.6354077458381653
0.5700095891952515 0.022414032369852066 0.6364409327507019
0.568373441696167 0.02614106610417366 0.6380495429039001
0.5700050592422485 0.03003080189228058 0.6422971487045288
0.5675268173217773 0.03444591164588928 0.6437872648239136
0.5661145448684692 0.03642617166042328 0.6442243456840515
0.5615406036376953 0.03839166462421417 0.6422175168991089
0.5589948892593384 0.04001084715127945 0.64150470495224
0.5577993392944336 0.041352543979883194 0.6416171789169312
0.556966245174408 0.04220706969499588 0.6416336297988892
0.5564058423042297 0.044221181422472 0.6427519917488098
0.5561308860778809 0.04651599004864693 0.6443058848381042
0.5561213493347168 0.04821237176656723 0.6456037163734436
0.5430493950843811 0.05116044729948044 0.6378150582313538
0.5423381924629211 0.052150215953588486 0.6380293965339661
0.5406317710876465 0.05632053688168526 0.6399247646331787
0.5386128425598145 0.0577230267226696 0.6394507884979248
0.5367350578308105 0.0576448068022728 0.6379459500312805
0.5775929093360901 0.01237165741622448 0.6336601972579956
0.5765390396118164 0.016023028641939163 0.635664165019989
0.5705521106719971 0.02205927111208439 0.63570237159729
0.570977509021759 0.029291123151779175 0.6416097283363342
0.5702610015869141 0.030286800116300583 0.6418251991271973
0.5680771470069885 0.03413590416312218 0.6431098580360413
0.5666696429252625 0.036125365644693375 0.6435588002204895
0.5655900239944458 0.037582878023386 0.6438503265380859
0.5652596950531006 0.038101669400930405 0.6439958810806274
0.5631851553916931 0.038425132632255554 0.6426448822021484
0.5611327886581421 0.03790205344557762 0.640657901763916
0.5565915107727051 0.04612923786044121 0.6435015797615051
0.5501313805580139 0.053057149052619934 0.6438624262809753
0.5496061444282532 0.053370099514722824 0.6436986923217773
0.5486624240875244 0.05410199984908104 0.6435352563858032
0.5444027781486511 0.05079886317253113 0.637700617313385
0.5430796146392822 0.05203598365187645 0.6376340985298157
0.5420089364051819 0.054339781403541565 0.6385857462882996
0.534895122051239 0.05682874843478203 0.6350175142288208
0.5288935899734497 0.05311056226491928 0.6275189518928528
0.5782765746116638 0.010116898454725742 0.631553590297699
0.5773826837539673 0.014033027924597263 0.6338918209075928
0.5758861303329468 0.01806962676346302 0.6358570456504822
0.5699713826179504 0.024166999384760857 0.6359984278678894
0.5699266791343689 0.03168916702270508 0.6417834162712097
0.5696320533752441 0.03226098418235779 0.6419978737831116
0.562125563621521 0.037191085517406464 0.6400045156478882
0.5574150085449219 0.04439530894160271 0.6419337391853333
0.5540834665298462 0.05032816156744957 0.6439464092254639
0.5536662936210632 0.050745390355587006 0.6439464092254639
0.5425374507904053 0.05402639880776405 0.6378748416900635
0.5394691824913025 0.05692286044359207 0.6377418637275696
0.5781877040863037 0.01401798240840435 0.6336145401000977
0.573081910610199 0.01926722377538681 0.6337259411811829
0.5723029971122742 0.02023451402783394 0.6338719725608826
0.5720692873001099 0.02091807685792446 0.6342210173606873
0.5706974864006042 0.024046797305345535 0.6355839967727661
0.5688657164573669 0.034059833735227585 0.6419313549995422
0.5660228729248047 0.038004472851753235 0.6427863836288452
0.5626966953277588 0.03690209239721298 0.639350414276123
0.561892569065094 0.037794824689626694 0.6394190788269043
0.5615116357803345 0.03826462849974632 0.6394881010055542
0.5599226951599121 0.040067579597234726 0.6396541595458984
0.5578670501708984 0.04224115237593651 0.6397457718849182
0.5569327473640442 0.048174817115068436 0.6436244249343872
0.555589497089386 0.04933067411184311 0.6434789299964905
0.5443594455718994 0.05077289417386055 0.6358850598335266
0.5401532053947449 0.05675536021590233 0.637263298034668
0.5377885699272156 0.057043612003326416 0.6356522440910339
0.5306611061096191 0.05224492773413658 0.6263995170593262
0.5790411829948425 0.012013155966997147 0.6318279504776001
0.5760093331336975 0.018060583621263504 0.6341741681098938
0.5753719210624695 0.018213558942079544 0.6337971687316895
0.5719652771949768 0.02169177308678627 0.6338528990745544
0.5723397135734558 0.02890876866877079 0.6397592425346375
0.5704376697540283 0.032200392335653305 0.6408404111862183
0.5676741600036621 0.03626292943954468 0.6418511271476746
0.560100257396698 0.040236830711364746 0.6390501260757446
0.5586445331573486 0.042182326316833496 0.6394312381744385
0.5583231449127197 0.04358953982591629 0.6402760744094849
0.5583997964859009 0.04454406350851059 0.6410783529281616
0.5584784150123596 0.04636034741997719 0.6425526738166809
0.5518002510070801 0.05221876874566078 0.6419147253036499
0.5460439324378967 0.04988938197493553 0.6356239318847656
0.5442395806312561 0.05234464630484581 0.6361303925514221
0.5423027873039246 0.056309301406145096 0.6377081274986267
0.5389652848243713 0.056503742933273315 0.635262668132782
0.5372225642204285 0.05655260384082794 0.6339448690414429
0.535873532295227 0.056149907410144806 0.6325820684432983
0.5808312296867371 0.006029938347637653 0.6276609301567078
0.5783200263977051 0.016043847426772118 0.6335145235061646
0.5771368145942688 0.017474092543125153 0.6337072849273682
0.57607102394104 0.01805609092116356 0.6333298683166504
0.5723055601119995 0.022054795175790787 0.6335117220878601
0.5720019340515137 0.030316127464175224 0.639720618724823
0.5715809464454651 0.03073718212544918 0.639720618724823
0.5663889646530151 0.038349054753780365 0.6416086554527283
0.5649418234825134 0.03758683428168297 0.639884889125824
0.5622726678848267 0.03815767168998718 0.6382476687431335
0.5548924207687378 0.05029399320483208 0.6419585943222046
0.5539641976356506 0.05103655904531479 0.6418136358261108
0.545975923538208 0.049827542155981064 0.6346378922462463
0.5447714328765869 0.05202874913811684 0.6354153156280518
0.5405886769294739 0.05637761950492859 0.6355449557304382
0.5384264588356018 0.05603127181529999 0.633587658405304
0.5748953223228455 0.018412994220852852 0.6317980289459229
0.5738711953163147 0.027846090495586395 0.6383771896362305
0.5712442994117737 0.03213958814740181 0.6396813988685608
0.5684559941291809 0.03618117421865463 0.6406618356704712
0.564031720161438 0.036504074931144714 0.6374529600143433
0.5636496543884277 0.036974985152482986 0.6375223398208618
0.5624626278877258 0.038339193910360336 0.6376611590385437
0.561673641204834 0.039249833673238754 0.6377562880516052
0.5608555674552917 0.040127161890268326 0.6378026008605957
0.559606671333313 0.04141842946410179 0.6378358006477356
0.5594424605369568 0.04649137333035469 0.6416764855384827
0.5577468872070312 0.048136595636606216 0.6416369676589966
0.5559370517730713 0.0496649332344532 0.641416609287262
0.5524615049362183 0.0520421639084816 0.640557587146759
0.5461697578430176 0.05002259835600853 0.6340546607971191
0.5442249774932861 0.0540212020277977 0.6356614828109741
0.5426302552223206 0.05582699552178383 0.6358267068862915
0.5422046184539795 0.05625268444418907 0.6358267068862915
0.5392001271247864 0.055939603596925735 0.6332308053970337
0.5378608107566833 0.055534519255161285 0.6318660378456116
0.5800011157989502 0.014072516933083534 0.6315032839775085
0.5798150897026062 0.014841802418231964 0.6319608092308044
0.5761950612068176 0.01804698444902897 0.6316353678703308
0.5741791129112244 0.02038038708269596 0.6318844556808472
