ply
format ascii 1.0
element vertex 817
property float x
property float y
property float z
end_header
0.5395687222480774 -0.13497935235500336 0.6418716311454773
0.5418410897254944 -0.13627834618091583 0.6423129439353943
0.49551329016685486 -0.11900056153535843 0.6399453282356262
0.49559131264686584 -0.12048505991697311 0.6411370038986206
0.4992922842502594 -0.12836304306983948 0.6465656161308289
0.5011348724365234 -0.13059505820274353 0.6478870511054993
0.5067434310913086 -0.1324661523103714 0.6478883624076843
0.510033369064331 -0.13316120207309723 0.6475603580474854
0.5117301940917969 -0.13412657380104065 0.6478869318962097
0.5117471814155579 -0.13831990957260132 0.6513081192970276
0.5165785551071167 -0.14014612138271332 0.651484489440918
0.5222824811935425 -0.13773655891418457 0.6479625701904297
0.5243399143218994 -0.13802286982536316 0.6476361155509949
0.5261853337287903 -0.13869240880012512 0.6476805806159973
0.533096969127655 -0.14089301228523254 0.6475962400436401
0.5405663251876831 -0.13600079715251923 0.6415650844573975
0.5422402024269104 -0.1370195895433426 0.6419414281845093
0.5441232919692993 -0.13520872592926025 0.6399495005607605
0.5006729364395142 -0.12230513989925385 0.640369713306427
0.4987322986125946 -0.12809725105762482 0.645645022392273
0.5020509958267212 -0.13179519772529602 0.6477687358856201
0.5045876502990723 -0.1340077668428421 0.6488886475563049
0.5121129155158997 -0.13491061329841614 0.6475731730461121
0.5114795565605164 -0.13754872977733612 0.6499075889587402
0.5151703357696533 -0.1401810199022293 0.6510562300682068
0.5214222073554993 -0.1380818784236908 0.6476290822029114
0.5221217274665833 -0.1381496638059616 0.6474934220314026
0.5269105434417725 -0.14015118777751923 0.6478255391120911
0.5280370116233826 -0.14205381274223328 0.6490769386291504
0.5355521440505981 -0.1406811624765396 0.6458998322486877
0.5397577881813049 -0.136214941740036 0.6410918831825256
0.5439808964729309 -0.13558484613895416 0.6394223570823669
0.4953148663043976 -0.11623959243297577 0.6359816193580627
0.4950718283653259 -0.1184849888086319 0.63789302110672
0.49788832664489746 -0.1220567375421524 0.6400561928749084
0.4985898435115814 -0.12212695181369781 0.639922022819519
0.5004987120628357 -0.12277044355869293 0.6399277448654175
0.4999944567680359 -0.13013166189193726 0.6461141109466553
0.501266598701477 -0.1320207118988037 0.6473175883293152
0.5023477077484131 -0.13277481496334076 0.647641122341156
0.5038085579872131 -0.13422434031963348 0.6484318971633911
0.5054162740707397 -0.13388890027999878 0.6477161645889282
0.5097076296806335 -0.13401585817337036 0.646645188331604
0.5112320780754089 -0.1381361186504364 0.6496129035949707
0.5138115882873535 -0.1401246339082718 0.650540292263031
0.5273164510726929 -0.14215144515037537 0.6485070586204529
0.5301517844200134 -0.14236842095851898 0.6479086875915527
0.5444779396057129 -0.13617384433746338 0.6388953924179077
0.49496912956237793 -0.12046748399734497 0.6386767029762268
0.4956851005554199 -0.12215615808963776 0.6398711204528809
0.4963255226612091 -0.12235897034406662 0.6398627161979675
0.4998299777507782 -0.1305716335773468 0.6456666588783264
0.50313800573349 -0.1342180222272873 0.6477624773979187
0.5042745471000671 -0.13484302163124084 0.6479653120040894
0.5073674321174622 -0.13297639787197113 0.6455780267715454
0.5085060596466064 -0.13361287117004395 0.6457895636558533
0.5124745965003967 -0.14002741873264313 0.6499847769737244
0.5186160802841187 -0.14210234582424164 0.6500076055526733
0.5253432393074036 -0.13925057649612427 0.645810604095459
0.5256595611572266 -0.14000125229358673 0.6463419198989868
0.5285444259643555 -0.1427144855260849 0.6477852463722229
0.5326204299926758 -0.1421017348766327 0.6461609601974487
0.5341758728027344 -0.14200089871883392 0.6456506252288818
0.5388727188110352 -0.1366972029209137 0.6399909257888794
0.5417404770851135 -0.13826419413089752 0.6404942870140076
0.5436965823173523 -0.13633649051189423 0.6383689045906067
0.5000722408294678 -0.13168078660964966 0.6456608772277832
0.506178081035614 -0.134011372923851 0.6459048390388489
0.5083437561988831 -0.13404037058353424 0.6453325748443604
0.511626660823822 -0.1361808478832245 0.6461968421936035
0.5117002129554749 -0.14023692905902863 0.6495279669761658
0.5140802264213562 -0.1412091702222824 0.6496756076812744
0.5165748000144958 -0.14196430146694183 0.649612545967102
0.5172078609466553 -0.14213626086711884 0.6495802402496338
0.5184561014175415 -0.14251333475112915 0.6495479941368103
0.5223507881164551 -0.1394360512495041 0.6459327340126038
0.5254846811294556 -0.1404368132352829 0.6458967328071594
0.5266832709312439 -0.14222566783428192 0.6470444202423096
0.5324617028236389 -0.1425042599439621 0.6456830501556396
0.5404272675514221 -0.13805460929870605 0.6398129463195801
0.5435543060302734 -0.13671207427978516 0.6378423571586609
0.5441934466362 -0.1369251310825348 0.6378423571586609
0.4965572953224182 -0.11015289276838303 0.6279398202896118
0.49460726976394653 -0.12144322693347931 0.6378334164619446
0.49997764825820923 -0.12416350841522217 0.6386039853096008
0.4980698525905609 -0.1298757940530777 0.6438636183738708
0.4999079704284668 -0.13211902976036072 0.6452145576477051
0.5003201961517334 -0.13277137279510498 0.6456413269042969
0.5018613338470459 -0.1340693086385727 0.6462911367416382
0.5102982521057129 -0.1360378861427307 0.6455920338630676
0.515150785446167 -0.14203140139579773 0.649217963218689
0.5207817554473877 -0.13973118364810944 0.6457568407058716
0.5235342383384705 -0.1400860697031021 0.6452905535697937
0.5313764214515686 -0.14321298897266388 0.6457156538963318
0.5379980206489563 -0.13716258108615875 0.6388735771179199
0.5397046208381653 -0.13812892138957977 0.6392030119895935
0.49452468752861023 -0.11835316568613052 0.6344127655029297
0.499310702085495 -0.12410371750593185 0.6378651261329651
0.4979046881198883 -0.1303195357322693 0.6434193253517151
0.49830517172813416 -0.131011962890625 0.6438836455345154
0.5016993880271912 -0.13450030982494354 0.6458420753479004
0.5038175582885742 -0.13606934249401093 0.6465588808059692
0.504854142665863 -0.13542789220809937 0.6457391381263733
0.5095918774604797 -0.1361026167869568 0.6449875235557556
0.5137608647346497 -0.1420365273952484 0.648763120174408
0.5206218361854553 -0.14014272391796112 0.645289421081543
0.525427520275116 -0.14209304749965668 0.6455789804458618
0.5260485410690308 -0.14230003952980042 0.6455789804458618
0.5272441506385803 -0.14407296478748322 0.6467209458351135
0.528687059879303 -0.14413322508335114 0.6463712453842163
0.4941643178462982 -0.12093589454889297 0.6357803344726562
0.49424606561660767 -0.122416652739048 0.636991560459137
0.49572017788887024 -0.12403330206871033 0.6379290819168091
0.4964201748371124 -0.12410137057304382 0.6377912759780884
0.4991736114025116 -0.1323278695344925 0.6438809037208557
0.50250244140625 -0.1359119564294815 0.645942747592926
0.5067194700241089 -0.1346868872642517 0.6437506675720215
0.5247011780738831 -0.14089292287826538 0.6439274549484253
0.5279091000556946 -0.14433030784130096 0.6459007263183594
0.5285282731056213 -0.14453670382499695 0.6459007263183594
0.5301818251609802 -0.14424487948417664 0.6451982259750366
0.5335387587547302 -0.14361228048801422 0.6437387466430664
0.537651538848877 -0.13801908493041992 0.6379360556602478
0.5437672734260559 -0.13805103302001953 0.6362643837928772
0.4941312074661255 -0.11940614134073257 0.6336315870285034
0.4939834475517273 -0.12142466753721237 0.6353591680526733
0.49983587861061096 -0.13406720757484436 0.6442927718162537
0.5023437142372131 -0.13633473217487335 0.6454886794090271
0.5045732855796814 -0.13619622588157654 0.6447519063949585
0.5056139230728149 -0.13555364310741425 0.6439251899719238
0.5082082748413086 -0.13617263734340668 0.6437201499938965
0.5098956227302551 -0.14136871695518494 0.6475915312767029
0.5104770660400391 -0.14163732528686523 0.6476539373397827
0.5116794109344482 -0.14209744334220886 0.6477035880088806
0.5122673511505127 -0.14235258102416992 0.6477531790733337
0.514061450958252 -0.1430576741695404 0.6478423476219177
0.5165711045265198 -0.14377795159816742 0.6477451324462891
0.5178176164627075 -0.14415466785430908 0.6477127075195312
0.5224334001541138 -0.14110738039016724 0.6438812613487244
0.5318281650543213 -0.1441117376089096 0.6437748074531555
0.5324504971504211 -0.14431919157505035 0.6437748074531555
0.5380058288574219 -0.13883733749389648 0.6376473903656006
0.5402886271476746 -0.14010089635849 0.6380671858787537
0.5410388112068176 -0.14012359082698822 0.6378774046897888
0.5429865121841431 -0.13821321725845337 0.6357386112213135
0.4958460032939911 -0.11209752410650253 0.6261436939239502
0.49650296568870544 -0.11231639981269836 0.6261436939239502
0.4939345419406891 -0.11993138492107391 0.6332412362098694
0.49388569593429565 -0.12338805198669434 0.6361513733863831
0.49928492307662964 -0.12601520121097565 0.6368444561958313
0.4978142976760864 -0.1323293298482895 0.642545759677887
0.4996744692325592 -0.13449856638908386 0.6438438296318054
0.5016742944717407 -0.13632835447788239 0.6448186635971069
0.5075330138206482 -0.13617326319217682 0.6430520415306091
0.5102747082710266 -0.13793468475341797 0.6437625288963318
0.510818600654602 -0.13829153776168823 0.6439095139503479
0.5157805681228638 -0.14401578903198242 0.6473199129104614
0.5201430916786194 -0.1413760483264923 0.6438896656036377
0.5246193408966064 -0.14259670674800873 0.6436624526977539
0.5258243083953857 -0.14436401426792145 0.644806444644928
0.539567232131958 -0.14017541706562042 0.6374585628509521
0.4937383532524109 -0.12045630067586899 0.6328520178794861
0.49362215399742126 -0.12240035086870193 0.6345181465148926
0.4939177632331848 -0.1250431090593338 0.6366555690765381
0.4986937344074249 -0.12579330801963806 0.6359484791755676
0.4972449839115143 -0.13209062814712524 0.6416453719139099
0.5005941987037659 -0.13567893207073212 0.643722414970398
0.5042929649353027 -0.1369638592004776 0.6437659859657288
0.5094924569129944 -0.13814935088157654 0.6433057188987732
0.5095726847648621 -0.14220888912677765 0.6466941237449646
0.5199837684631348 -0.14178656041622162 0.6434235572814941
0.5227367877960205 -0.14213241636753082 0.6429429054260254
0.5253613591194153 -0.1440131813287735 0.64378821849823
0.5297030210494995 -0.14545679092407227 0.6437851190567017
0.49352601170539856 -0.12435759603977203 0.6353131532669067
0.49580782651901245 -0.125788152217865 0.6358776092529297
0.4965059161186218 -0.12585985660552979 0.6357418298721313
0.49784013628959656 -0.12614314258098602 0.635606050491333
0.49853983521461487 -0.12621495127677917 0.6354700326919556
0.49811097979545593 -0.13341356813907623 0.6416556239128113
0.5004329681396484 -0.13610875606536865 0.6432746052742004
0.5060736536979675 -0.13639229536056519 0.6419291496276855
0.5129648447036743 -0.14409974217414856 0.6464877128601074
0.5198243856430054 -0.1421968787908554 0.642957866191864
0.5205210447311401 -0.14226633310317993 0.6428207755088806
0.5264537930488586 -0.1460856795310974 0.6443725228309631
0.5287176966667175 -0.14600466191768646 0.643668532371521
0.5329033732414246 -0.1452196091413498 0.6418314576148987
0.5374899506568909 -0.14011289179325104 0.6362404227256775
0.49326151609420776 -0.12337415665388107 0.6336787939071655
0.49425143003463745 -0.12608815729618073 0.6356930136680603
0.4983561038970947 -0.13451515138149261 0.6416571736335754
0.49965205788612366 -0.13633163273334503 0.6428268551826477
0.5017103552818298 -0.13802239298820496 0.6436758637428284
0.5023622512817383 -0.138158917427063 0.6436077356338501
0.5050508379936218 -0.13709305226802826 0.6419497728347778
0.5092571377754211 -0.14303424954414368 0.6457850933074951
0.5104319453239441 -0.14354360103607178 0.6458843350410461
0.5116326212882996 -0.1440027356147766 0.6459344625473022
0.5122194886207581 -0.1442570984363556 0.6459839940071106
0.514674186706543 -0.14507146179676056 0.6459804177284241
0.5165677070617676 -0.1455870270729065 0.6458830237388611
0.5231595039367676 -0.14294427633285522 0.6417936086654663
0.5256011486053467 -0.14641538262367249 0.6440385580062866
0.5262961387634277 -0.1464875489473343 0.6439039707183838
0.5302731394767761 -0.14601632952690125 0.6423854231834412
0.5311961770057678 -0.14571519196033478 0.6418712735176086
0.5367875099182129 -0.14015507698059082 0.6355986595153809
0.5385030508041382 -0.14109592139720917 0.6359103918075562
0.5404772162437439 -0.14161039888858795 0.6357890367507935
0.5424767136573792 -0.1396198719739914 0.6335442066192627
0.4931512773036957 -0.122026726603508 0.6316865086555481
0.49346718192100525 -0.12629319727420807 0.6352119445800781
0.49716198444366455 -0.1340809166431427 0.6407669186592102
0.5073996186256409 -0.13829688727855682 0.6414476037025452
0.5084663033485413 -0.1390564888715744 0.6417900919914246
0.5099911689758301 -0.14032910764217377 0.6424378156661987
0.5170221924781799 -0.14619997143745422 0.6454260349273682
0.5202021598815918 -0.14308638870716095 0.6418901085853577
0.5239337682723999 -0.1443106085062027 0.6418731808662415
0.5251396298408508 -0.14606869220733643 0.6430225372314453
0.5301159024238586 -0.14641578495502472 0.641910970211029
0.5325976610183716 -0.14600272476673126 0.6408599615097046
0.5394304990768433 -0.14221403002738953 0.635720431804657
0.5430355072021484 -0.1401071697473526 0.6329171061515808
0.4929017722606659 -0.12434576451778412 0.6328411102294922
0.49842265248298645 -0.12832003831863403 0.6346541047096252
0.4965885877609253 -0.13385385274887085 0.6398754119873047
0.49843713641166687 -0.13604824244976044 0.6412161588668823
0.5037327408790588 -0.13849680125713348 0.6417967677116394
0.5094701647758484 -0.1400395929813385 0.6414828896522522
0.509529173374176 -0.14411328732967377 0.6449273228645325
0.5149890184402466 -0.14606018364429474 0.6450352072715759
0.5193472504615784 -0.14342591166496277 0.6415625810623169
0.5290661454200745 -0.14706936478614807 0.6419055461883545
0.5401968955993652 -0.14235296845436096 0.6347461342811584
0.4923510253429413 -0.12063026428222656 0.6289492845535278
0.4928092658519745 -0.12629002332687378 0.6336416006088257
0.4951972961425781 -0.12747038900852203 0.6339688897132874
0.4965917468070984 -0.12761494517326355 0.6336959004402161
0.4964258074760437 -0.13429132103919983 0.639431357383728
0.5002483129501343 -0.13836264610290527 0.6418145298957825
0.5046292543411255 -0.13824555277824402 0.640470564365387
0.5135705471038818 -0.1461246758699417 0.6446443200111389
0.521942138671875 -0.14417238533496857 0.6406036019325256
0.5245055556297302 -0.14614684879779816 0.6415578722953796
0.532294750213623 -0.1467808485031128 0.639885663986206
0.5373569130897522 -0.14215199649333954 0.6345042586326599
0.5422374606132507 -0.140443816781044 0.631662905216217
0.4964388608932495 -0.12803511321544647 0.6332194209098816
0.49807873368263245 -0.1292392909526825 0.6337810754776001
0.49770453572273254 -0.13625866174697876 0.639884889125824
0.49901002645492554 -0.13804669678211212 0.6410406827926636
0.5044888854026794 -0.13862915337085724 0.6399779319763184
0.5064035654067993 -0.13914600014686584 0.6398741006851196
0.5079856514930725 -0.14031781256198883 0.6404247879981995
0.5086272358894348 -0.14468201994895935 0.6439706683158875
0.5190296173095703 -0.1442440152168274 0.6406341195106506
0.5225228071212769 -0.1445757895708084 0.6399226188659668
0.5237162113189697 -0.14636661112308502 0.6411128640174866
0.5249189138412476 -0.14811165630817413 0.6422610878944397
0.5264853239059448 -0.14795100688934326 0.6416779160499573
0.5271027088165283 -0.1481568068265915 0.6416779160499573
0.5305657982826233 -0.14731483161449432 0.6399723291397095
0.5360985398292542 -0.1418582946062088 0.6337346434593201
0.5366365313529968 -0.1422264277935028 0.6338961124420166
0.5399165153503418 -0.1430952548980713 0.6337041854858398
0.4919600486755371 -0.1216806024312973 0.6281744241714478
0.49237194657325745 -0.12411130964756012 0.6301392316818237
0.4935009777545929 -0.12816710770130157 0.6332915425300598
0.49419695138931274 -0.12823760509490967 0.6331532001495361
0.500921368598938 -0.14012491703033447 0.6414171457290649
0.5022841691970825 -0.14027290046215057 0.6411545872688293
0.5072813034057617 -0.14038263261318207 0.6398217678070068
0.5091080069541931 -0.1424718201160431 0.6410899758338928
0.5102555155754089 -0.1458050012588501 0.6436179280281067
0.5108415484428406 -0.1460588127374649 0.6436678767204285
0.5120142102241516 -0.1465640813112259 0.6437659859657288
0.5145152807235718 -0.1472831666469574 0.6436677575111389
0.5163876414299011 -0.1478310078382492 0.6436023712158203
0.5202721357345581 -0.14477378129959106 0.6398739218711853
0.5247488617897034 -0.1485348790884018 0.6418176889419556
0.5285897254943848 -0.1482759565114975 0.6404991745948792
0.5359265208244324 -0.14228330552577972 0.633269727230072
0.49176469445228577 -0.12220495194196701 0.6277876496315002
0.49240756034851074 -0.12241924554109573 0.6277876496315002
0.49217769503593445 -0.12463071942329407 0.6297535300254822
0.4921843707561493 -0.12628301978111267 0.6311708688735962
0.49773547053337097 -0.1301567703485489 0.63290935754776
0.49593865871429443 -0.13560163974761963 0.6381018161773682
0.4982290267944336 -0.1383647620677948 0.639819860458374
0.5031738877296448 -0.1400267481803894 0.6398313641548157
0.5082094073295593 -0.141511470079422 0.6396649479866028
0.5094857215881348 -0.1460115909576416 0.6431657671928406
0.5156171917915344 -0.14803412556648254 0.6431472897529602
0.5162293910980225 -0.14823821187019348 0.6431472897529602
0.5187124013900757 -0.14506100118160248 0.6397066116333008
0.5230802893638611 -0.1464451551437378 0.6396450996398926
0.529331386089325 -0.14840957522392273 0.6395426392555237
0.5302510857582092 -0.14811302721500397 0.6390243768692017
0.5385751724243164 -0.14431974291801453 0.6333815455436707
0.541998028755188 -0.14126858115196228 0.6297802329063416
0.5426369309425354 -0.14148154854774475 0.6297802329063416
0.4919835031032562 -0.1251497119665146 0.6293684244155884
0.4920954704284668 -0.12821412086486816 0.6319763660430908
0.4952840209007263 -0.12922124564647675 0.6319282054901123
0.4966141879558563 -0.12950541079044342 0.6317912936210632
0.49577632546424866 -0.13603778183460236 0.6376592516899109
0.4976245164871216 -0.13821858167648315 0.6390073895454407
0.49960657954216003 -0.14007066190242767 0.6400338411331177
0.5053009390830994 -0.1402083784341812 0.6385173201560974
0.5086684823036194 -0.14213669300079346 0.6392115950584412
0.527449905872345 -0.14921918511390686 0.6399195194244385
0.5316900610923767 -0.14833471179008484 0.637939989566803
0.5373074412345886 -0.14404824376106262 0.6326340436935425
0.4918268322944641 -0.12724873423576355 0.6303387880325317
0.4919174015522003 -0.12869387865066528 0.6315609812736511
0.4971311688423157 -0.13005639612674713 0.6312368512153625
0.4960255026817322 -0.1371324211359024 0.637668251991272
0.4994465112686157 -0.14049670100212097 0.6395895481109619
0.501250684261322 -0.14120981097221375 0.6396859288215637
0.5046272873878479 -0.14021049439907074 0.637850284576416
0.5078897476196289 -0.14234888553619385 0.6387579441070557
0.5084492564201355 -0.14407043159008026 0.6400843858718872
0.5079992413520813 -0.14632487297058105 0.64216148853302
0.5127847194671631 -0.14816078543663025 0.6423693895339966
0.521149754524231 -0.1462053507566452 0.6382713317871094
0.52303546667099 -0.1480664610862732 0.6393359899520874
0.5258551836013794 -0.14955365657806396 0.6398089528083801
0.5354114770889282 -0.14355657994747162 0.6318762302398682
0.5393565893173218 -0.14457792043685913 0.6316226124763489
0.5424774289131165 -0.14203186333179474 0.6285244226455688
0.49159637093544006 -0.12618550658226013 0.6285996437072754
0.49497973918914795 -0.1300588846206665 0.6309781670570374
0.49689289927482605 -0.1384298950433731 0.6376772522926331
0.5037878155708313 -0.14054520428180695 0.6375186443328857
0.5061125755310059 -0.14167921245098114 0.6378298401832581
0.5082303285598755 -0.1446017473936081 0.6397501230239868
0.5078422427177429 -0.14673487842082977 0.6417098641395569
0.5084283947944641 -0.1469881683588028 0.6417602300643921
0.5102108716964722 -0.1476983278989792 0.6418604254722595
0.5113878846168518 -0.14819161593914032 0.641947865486145
0.5120163559913635 -0.14836332201957703 0.6419153213500977
0.5145142674446106 -0.14908206462860107 0.6418166160583496
0.5182373523712158 -0.14628444612026215 0.6383183002471924
0.5203723311424255 -0.14640465378761292 0.6378058195114136
0.5222724676132202 -0.14695028960704803 0.6377297043800354
0.5240750908851624 -0.15021410584449768 0.640036404132843
0.5248809456825256 -0.15009213984012604 0.639698326587677
0.5263141989707947 -0.1501590460538864 0.6393421292304993
0.5297795534133911 -0.14930877089500427 0.6376049518585205
0.5357860326766968 -0.14433269202709198 0.6315597891807556
0.5363352298736572 -0.14467845857143402 0.6317006945610046
0.5417583584785461 -0.14209410548210144 0.6278960704803467
0.5423975586891174 -0.14230716228485107 0.6278960704803467
0.4909864664077759 -0.12429532408714294 0.6262454986572266
0.49146994948387146 -0.12821227312088013 0.6295080184936523
0.4921127259731293 -0.13004685938358307 0.6309157013893127
0.49570173025131226 -0.13800102472305298 0.6367858052253723
0.4975898265838623 -0.14007438719272614 0.6380404233932495
0.5001351237297058 -0.142219677567482 0.6391670107841492
0.5059521198272705 -0.14210063219070435 0.6373792886734009
0.5064838528633118 -0.14247892796993256 0.637553870677948
0.508188784122467 -0.1433912217617035 0.6378524899482727
0.5180791020393372 -0.14669160544872284 0.6378556489944458
0.5223997831344604 -0.148146852850914 0.6378687620162964
0.52391117811203 -0.15062613785266876 0.6395848989486694
0.5287052392959595 -0.15000030398368835 0.6376529335975647
0.4912099540233612 -0.12721873819828033 0.6278326511383057
0.4913847744464874 -0.13013041019439697 0.6303182244300842
0.4953707754611969 -0.13096889853477478 0.6298913359642029
0.4960036873817444 -0.13117986917495728 0.6298913359642029
0.4947192966938019 -0.13711480796337128 0.6354339718818665
0.4974304139614105 -0.14050094783306122 0.6375964283943176
0.49850788712501526 -0.1412406861782074 0.6379278302192688
0.49946826696395874 -0.14221525192260742 0.638498067855835
0.5077932476997375 -0.14566189050674438 0.6390830278396606
0.5086999535560608 -0.14805997908115387 0.6409085392951965
0.5166109800338745 -0.1468214988708496 0.6375327706336975
0.5276389718055725 -0.15068228542804718 0.6376936435699463
0.530085563659668 -0.15031111240386963 0.6366601586341858
0.5310865640640259 -0.1498854011297226 0.6359986066818237
0.5371752977371216 -0.1460733860731125 0.6309102177619934
0.4912075102329254 -0.13060808181762695 0.6299046874046326
0.49244269728660583 -0.13109257817268372 0.6299682259559631
0.49496757984161377 -0.13821300864219666 0.6354527473449707
0.49880728125572205 -0.14219807088375092 0.6378155946731567
0.5006963014602661 -0.1427306979894638 0.6377306580543518
0.5023375153541565 -0.142316073179245 0.6368906497955322
0.507252037525177 -0.1440201699733734 0.6369484066963196
0.507575273513794 -0.1461908370256424 0.6387501955032349
0.507958173751831 -0.14821599423885345 0.6404075026512146
0.5134139657020569 -0.15012754499912262 0.6404889225959778
0.5140422582626343 -0.15029944479465485 0.6404560804367065
0.5217624306678772 -0.14822736382484436 0.6363981366157532
0.5252266526222229 -0.151152104139328 0.6379445195198059
0.5309358835220337 -0.15027235448360443 0.6355136036872864
0.53879714012146 -0.1460585743188858 0.6295440196990967
0.49084219336509705 -0.12820926308631897 0.6270273327827454
0.49569886922836304 -0.13201546669006348 0.6289433240890503
0.496275931596756 -0.13234645128250122 0.6290646195411682
0.4962460994720459 -0.1401606649160385 0.6359177231788635
0.5032283663749695 -0.14207464456558228 0.6355555057525635
0.5043408870697021 -0.14273889362812042 0.635812520980835
0.5072163939476013 -0.14837193489074707 0.6399068236351013
0.5190065503120422 -0.1480269879102707 0.6361624598503113
0.519741415977478 -0.14802557229995728 0.6359466314315796
0.5203601121902466 -0.14823178946971893 0.6359466314315796
0.522187352180481 -0.15018388628959656 0.6371230483055115
0.5291526317596436 -0.15089966356754303 0.635716438293457
0.5345584750175476 -0.1456674039363861 0.6295552253723145
0.5351077318191528 -0.14601224660873413 0.6296969056129456
0.5362873077392578 -0.14656703174114227 0.6298384070396423
0.4907588064670563 -0.13013340532779694 0.6278519034385681
0.4928334653377533 -0.13200028240680695 0.6288843154907227
0.4974132180213928 -0.14231063425540924 0.6365987658500671
0.5058479309082031 -0.14415018260478973 0.6357449889183044
0.5063912272453308 -0.14450225234031677 0.635895311832428
0.5082299709320068 -0.14928561449050903 0.6395581364631653
0.5100092887878418 -0.14999361336231232 0.6396591067314148
0.5106074213981628 -0.15021973848342896 0.6396825313568115
0.5124726295471191 -0.15076619386672974 0.6396163702011108
0.5161391496658325 -0.14804045855998993 0.6361491680145264
0.5232849717140198 -0.1522217094898224 0.6377293467521667
0.5240980982780457 -0.15208597481250763 0.6373722553253174
0.5263457894325256 -0.1520186960697174 0.6366550326347351
0.4906768798828125 -0.13203851878643036 0.6286667585372925
0.49476251006126404 -0.13263922929763794 0.6279964447021484
0.49407097697257996 -0.1388595551252365 0.6336777806282043
0.49489521980285645 -0.1401667445898056 0.6345871090888977
0.4967937171459198 -0.1422039121389389 0.6358239054679871
0.49935171008110046 -0.14430665969848633 0.636924684047699
0.5008974075317383 -0.14407485723495483 0.6362670660018921
0.5019204616546631 -0.14345817267894745 0.6354235410690308
0.5069233179092407 -0.1477731168270111 0.6377551555633545
0.5092681050300598 -0.1501491367816925 0.6391592025756836
0.5159819722175598 -0.14844632148742676 0.6356885433197021
0.5165989398956299 -0.14865197241306305 0.6356885433197021
0.5215520262718201 -0.1502663940191269 0.6356563568115234
0.5218491554260254 -0.15102846920490265 0.6362403035163879
0.5270131230354309 -0.15227213501930237 0.6358197927474976
0.5279249548912048 -0.1519831418991089 0.6352972388267517
0.5370436906814575 -0.1480911672115326 0.6291925311088562
0.5383785963058472 -0.14716747403144836 0.6279873847961426
0.4925277829170227 -0.13284163177013397 0.627947211265564
0.4939100742340088 -0.13929346203804016 0.6332382559776306
0.50014328956604 -0.144248828291893 0.6357794404029846
0.5067066550254822 -0.14829884469509125 0.6374242901802063
0.5079173445701599 -0.1501011699438095 0.6386592984199524
0.5222959518432617 -0.15165551006793976 0.6357995271682739
0.5286834836006165 -0.15209025144577026 0.6343029737472534
0.5303340554237366 -0.1518189162015915 0.6335774064064026
0.49035024642944336 -0.13293024897575378 0.6277831792831421
0.49555879831314087 -0.13424843549728394 0.6274130940437317
0.4941619336605072 -0.14037944376468658 0.6332547664642334
0.49801963567733765 -0.14429955184459686 0.6355876922607422
0.5026673078536987 -0.14360666275024414 0.6336021423339844
0.5031877160072327 -0.14400926232337952 0.6338051557540894
0.5037019848823547 -0.14442236721515656 0.634019136428833
0.5064573884010315 -0.14610250294208527 0.6346936225891113
0.5126307010650635 -0.15215089917182922 0.6382277607917786
0.5204652547836304 -0.14984814822673798 0.6338756680488586
0.5221267938613892 -0.1520768702030182 0.6353586912155151
0.5244432091712952 -0.15314455330371857 0.6356205344200134
0.5285272002220154 -0.15248657763004303 0.6338324546813965
0.5301837921142578 -0.15220484137535095 0.6330939531326294
0.5338826775550842 -0.1473434418439865 0.6276969909667969
0.5344314575195312 -0.14768706262111664 0.627839207649231
0.5349798798561096 -0.14803048968315125 0.6279813647270203
0.4935883581638336 -0.14016003906726837 0.63236004114151
0.4954404830932617 -0.14231620728969574 0.6337262988090515
0.4958559274673462 -0.1429469883441925 0.6341636776924133
0.4967779517173767 -0.1440068930387497 0.6348319053649902
0.5014882683753967 -0.14463013410568237 0.6339912414550781
0.5041405558586121 -0.14508773386478424 0.6336124539375305
0.5057405233383179 -0.14619889855384827 0.6341256499290466
0.5064365863800049 -0.1504119336605072 0.6376606225967407
0.5082145929336548 -0.15111888945102692 0.6377620100975037
0.510611355304718 -0.1520087867975235 0.6378427743911743
0.5124742984771729 -0.1525547057390213 0.6377763152122498
0.5175088047981262 -0.15001250803470612 0.6340284943580627
0.518222451210022 -0.1500457227230072 0.6338468790054321
0.5203075408935547 -0.15025192499160767 0.6334127187728882
0.521342933177948 -0.15229305624961853 0.6349190473556519
0.5274578332901001 -0.15317019820213318 0.6338877081871033
0.5365351438522339 -0.14934305846691132 0.6278021335601807
0.49134376645088196 -0.1341063529253006 0.6267642974853516
0.4920274019241333 -0.13419675827026367 0.6266418695449829
0.4934276342391968 -0.14059272408485413 0.6319212913513184
0.5050181746482849 -0.14630617201328278 0.6335687637329102
0.5061060786247253 -0.14699962735176086 0.633863091468811
0.5059624910354614 -0.1500559151172638 0.636627197265625
0.5092252492904663 -0.15202869474887848 0.6374154686927795
0.5153418779373169 -0.15009020268917084 0.6338739991188049
0.5166500806808472 -0.1503639966249466 0.6337294578552246
0.5225069522857666 -0.15420669317245483 0.6354128122329712
0.5247449278831482 -0.15414470434188843 0.6346932053565979
0.5335456132888794 -0.14817973971366882 0.6267698407173157
0.48987114429473877 -0.1342434585094452 0.6264386773109436
0.4960006773471832 -0.14432504773139954 0.633616030216217
0.49856632947921753 -0.14639674127101898 0.634702205657959
0.4995492398738861 -0.1458490937948227 0.6339203715324402
0.5001641511917114 -0.14605405926704407 0.6339203715324402
0.5037819743156433 -0.14600473642349243 0.6327999234199524
0.5206827521324158 -0.1524210274219513 0.6334986686706543
0.5218948125839233 -0.15412981808185577 0.6346636414527893
0.5254033207893372 -0.15440839529037476 0.6338682174682617
0.5262378454208374 -0.15424536168575287 0.6334743499755859
0.529733419418335 -0.15336191654205322 0.6316452026367188
0.5361969470977783 -0.15017616748809814 0.6268770694732666
0.4935198128223419 -0.14210624992847443 0.631503164768219
0.494549036026001 -0.14295971393585205 0.6319599747657776
0.49538081884384155 -0.1442197561264038 0.6328399777412415
0.4979066550731659 -0.14638318121433258 0.6340233683586121
0.4993945062160492 -0.14626194536685944 0.6334705948829651
0.5019580125808716 -0.1454341858625412 0.631964385509491
0.5063655972480774 -0.14811056852340698 0.6330451965332031
0.5071371793746948 -0.15213516354560852 0.6364182829856873
0.5238181948661804 -0.15473392605781555 0.6337667107582092
0.5279031991958618 -0.15406975150108337 0.6319531202316284
0.5285208225250244 -0.15427564084529877 0.6319531202316284
0.5354638695716858 -0.15027886629104614 0.6263025403022766
0.4947983920574188 -0.14403437077999115 0.6319798231124878
0.49724113941192627 -0.14638033509254456 0.6333550810813904
0.5022941827774048 -0.14630389213562012 0.6317741274833679
0.5050292015075684 -0.1480124145746231 0.6324893832206726
0.5052347779273987 -0.15178009867668152 0.6358104944229126
0.5058146715164185 -0.15203876793384552 0.6358691453933716
0.5063982009887695 -0.1522899866104126 0.6359201669692993
0.5118498206138611 -0.1541672796010971 0.6359741687774658
0.5124759078025818 -0.1543387770652771 0.6359407901763916
0.5182532072067261 -0.15179073810577393 0.6319243907928467
0.5199969410896301 -0.15259265899658203 0.6321223974227905
0.5205921530723572 -0.15410856902599335 0.6333051919937134
0.4959867298603058 -0.14611992239952087 0.6326308846473694
0.5007390975952148 -0.146639883518219 0.631672739982605
0.5043081045150757 -0.14811958372592926 0.6319339871406555
0.508017361164093 -0.15340067446231842 0.6355750560760498
0.5098346471786499 -0.15402407944202423 0.6355910897254944
0.5152428150177002 -0.15207134187221527 0.632210373878479
0.5166246891021729 -0.15220941603183746 0.6319199800491333
0.5180728435516357 -0.1522349715232849 0.6315084099769592
0.4926286041736603 -0.1427461802959442 0.6297286152839661
0.4934515357017517 -0.14404259622097015 0.6306514739990234
0.49536845088005066 -0.14601612091064453 0.6318559050559998
0.4979371130466461 -0.14806872606277466 0.6329359412193298
0.5035874843597412 -0.14822649955749512 0.631378173828125
0.5144498348236084 -0.152309387922287 0.6317954063415527
0.5199015140533447 -0.1542922705411911 0.6319448351860046
0.5217320322990417 -0.1561841368675232 0.6331018805503845
0.5225399732589722 -0.15605449676513672 0.6327417492866516
0.5256190896034241 -0.15581956505775452 0.6316030025482178
0.5291016101837158 -0.15495537221431732 0.6297751665115356
0.4962848126888275 -0.1471673548221588 0.6317529082298279
0.49877581000328064 -0.147910937666893 0.6316742300987244
0.4993896186351776 -0.14811554551124573 0.6316742300987244
0.5055221915245056 -0.15017163753509521 0.6316851377487183
0.5077056884765625 -0.15421073138713837 0.634682297706604
0.5231947302818298 -0.15631945431232452 0.6319177150726318
0.5246207118034363 -0.1563929319381714 0.6315538883209229
0.4927200376987457 -0.14425678551197052 0.6293211579322815
0.4966203570365906 -0.14803940057754517 0.6315743923187256
0.5010461807250977 -0.1477678418159485 0.6299892663955688
0.5015621185302734 -0.14817209541797638 0.6301997303962708
0.5204258561134338 -0.1561749130487442 0.6317563056945801
0.5262163281440735 -0.15632468461990356 0.6301404237747192
0.5271254181861877 -0.1560431271791458 0.629610002040863
0.4918224811553955 -0.14320142567157745 0.6277589201927185
0.49399852752685547 -0.14617414772510529 0.6298043727874756
0.49596908688545227 -0.14800874888896942 0.6308761835098267
0.5001057386398315 -0.14831514656543732 0.6298999786376953
0.5035587549209595 -0.15000857412815094 0.6303938031196594
0.504632830619812 -0.15210242569446564 0.6319734454154968
0.5044630765914917 -0.15380343794822693 0.6335731744766235
0.50504070520401 -0.15406404435634613 0.6336349844932556
0.5062048435211182 -0.15456682443618774 0.6337394118309021
0.5085905194282532 -0.155460387468338 0.6338289380073547
0.5104470252990723 -0.156005397439003 0.6337618231773376
0.5124088525772095 -0.15636178851127625 0.6334909200668335
0.5166221261024475 -0.15400931239128113 0.630071759223938
0.5173536539077759 -0.15400759875774384 0.629848301410675
0.5187016725540161 -0.15421107411384583 0.6296247243881226
0.5196189880371094 -0.15643499791622162 0.6313702464103699
0.5285907983779907 -0.1562100350856781 0.628443717956543
0.49199178814888 -0.14446276426315308 0.6279810070991516
0.49427688121795654 -0.1471777856349945 0.6297634243965149
0.49993962049484253 -0.14874939620494843 0.629474937915802
0.5022488832473755 -0.14986447989940643 0.6297903656959534
0.5027732849121094 -0.15024518966674805 0.6299781203269958
0.5035775899887085 -0.15286552906036377 0.6321246027946472
0.5090603232383728 -0.15603269636631012 0.6333471536636353
0.5150082111358643 -0.15441060066223145 0.6300575733184814
0.5156978368759155 -0.15447962284088135 0.6299107074737549
0.5250020027160645 -0.15739014744758606 0.6297365427017212
0.4945809543132782 -0.14812245965003967 0.6296637058258057
0.4971533417701721 -0.15015171468257904 0.6307356953620911
0.5014117956161499 -0.15020447969436646 0.6294852495193481
0.5037359595298767 -0.15404574573040009 0.6322911381721497
0.5076655745506287 -0.15607744455337524 0.6329517364501953
0.5189860463142395 -0.15652219951152802 0.629905641078949
0.5202092528343201 -0.15819014608860016 0.6310588717460632
0.5231854319572449 -0.1581050306558609 0.6300731897354126
0.5239963531494141 -0.1579761803150177 0.6297078728675842
0.5282509326934814 -0.15704485774040222 0.6275577545166016
0.4920825660228729 -0.1459711641073227 0.6275824308395386
0.4939624071121216 -0.14802007377147675 0.628887414932251
0.49795955419540405 -0.15005816519260406 0.6295351386070251
0.49857208132743835 -0.15026234090328217 0.6295351386070251
0.5196651816368103 -0.15800070762634277 0.6301841139793396
0.5216096043586731 -0.15842373669147491 0.629977285861969
0.5224176645278931 -0.15829549729824066 0.6296127438545227
0.5246941447257996 -0.15817391872406006 0.6288049817085266
0.5265260934829712 -0.15758197009563446 0.6277012825012207
0.49192339181900024 -0.1463988721370697 0.6271483898162842
0.492335706949234 -0.14703786373138428 0.6276099681854248
0.49584171175956726 -0.1501176953315735 0.6293687224388123
0.5026636719703674 -0.15217964351177216 0.6291733384132385
0.502708911895752 -0.15486624836921692 0.6316314339637756
0.504424512386322 -0.1556769460439682 0.6318509578704834
0.5055854320526123 -0.15618202090263367 0.6319597363471985
0.5061922073364258 -0.15638428926467896 0.6319597363471985
0.5098274350166321 -0.1576080173254013 0.6319707036018372
0.5104663968086243 -0.15775176882743835 0.6319069862365723
0.5124268531799316 -0.15810734033584595 0.6316329836845398
0.5150197148323059 -0.15605807304382324 0.6289523839950562
0.5164545178413391 -0.1560957282781601 0.6285468339920044
0.5188671946525574 -0.15824788808822632 0.6297872066497803
0.525443434715271 -0.15828865766525269 0.6278078556060791
0.5269936323165894 -0.1581694483757019 0.6272225975990295
0.49320200085639954 -0.14830540120601654 0.6276376843452454
0.4992281198501587 -0.1505800187587738 0.6278830766677856
0.5013570785522461 -0.15203741192817688 0.6285727024078369
0.5096727609634399 -0.15800809860229492 0.631523847579956
0.510319709777832 -0.15813681483268738 0.6314436197280884
0.5176047086715698 -0.1567647010087967 0.6279374957084656
0.503540575504303 -0.15622203052043915 0.6308984160423279
0.5138998627662659 -0.15700550377368927 0.6284289956092834
0.5159825682640076 -0.15717828273773193 0.6279464960098267
0.5233736038208008 -0.15955530107021332 0.6278663873672485
0.49634960293769836 -0.15227335691452026 0.6285940408706665
0.4992839992046356 -0.15210016071796417 0.6275261044502258
0.500307023525238 -0.1529058814048767 0.6279571652412415
0.5025634765625 -0.15408620238304138 0.6283542513847351
0.5068897604942322 -0.15809105336666107 0.6307314038276672
0.5177500247955322 -0.1580389142036438 0.6273252367973328
0.5180583000183105 -0.15876992046833038 0.6279078125953674
0.5194036960601807 -0.16021716594696045 0.6288343667984009
0.5201945900917053 -0.1601114422082901 0.6284917593002319
0.521797776222229 -0.1598719209432602 0.6277740001678467
0.5224093794822693 -0.16007579863071442 0.6277740001678467
0.49567458033561707 -0.15229889750480652 0.6279563307762146
0.49704766273498535 -0.1523968130350113 0.6276218295097351
0.5017922520637512 -0.15430206060409546 0.6279230713844299
0.5020580887794495 -0.15655088424682617 0.6299320459365845
0.5105488300323486 -0.1593795120716095 0.6299305558204651
0.5134313106536865 -0.15808682143688202 0.6278343796730042
0.5141201019287109 -0.1581512689590454 0.6276811361312866
0.5208372473716736 -0.16039131581783295 0.6276818513870239
0.49982672929763794 -0.15406090021133423 0.6274371147155762
0.5017884373664856 -0.15580233931541443 0.6284514665603638
0.5019063949584961 -0.15695072710514069 0.629485547542572
0.50423264503479 -0.15794581174850464 0.6296904683113098
0.504813551902771 -0.15819469094276428 0.6297419667243958
0.5065825581550598 -0.15888993442058563 0.6298403739929199
0.5084328651428223 -0.15943394601345062 0.6297726631164551
0.511627197265625 -0.16014590859413147 0.6294437050819397
0.5179488062858582 -0.1604737937450409 0.6277843713760376
0.5185582637786865 -0.1606769561767578 0.6277843713760376
0.5035036206245422 -0.158087819814682 0.6291841268539429
0.5095880031585693 -0.16005805134773254 0.629129946231842
0.5010167956352234 -0.15612918138504028 0.627257764339447
0.5075199007987976 -0.16002915799617767 0.628882110118866
0.515383243560791 -0.1601359248161316 0.6265245676040649
0.5014517307281494 -0.15814867615699768 0.62814861536026
0.512387216091156 -0.16043873131275177 0.626874566078186
0.5179341435432434 -0.1621343493461609 0.6267302632331848
0.5186474323272705 -0.16215793788433075 0.6265289783477783
0.5007306933403015 -0.1582765430212021 0.6276270747184753
0.5024751424789429 -0.15901979804039001 0.6277795433998108
0.5041980147361755 -0.1597999781370163 0.6279736161231995
0.5048028826713562 -0.16000162065029144 0.6279736161231995
0.5053826570510864 -0.16025002300739288 0.6280257105827332
0.5072130560874939 -0.16082529723644257 0.6279928088188171
0.5084766149520874 -0.16113033890724182 0.62788325548172
0.5103759169578552 -0.16158419847488403 0.6277144551277161
0.5108200907707214 -0.16219523549079895 0.6272829174995422
0.5027408003807068 -0.16008621454238892 0.6269670128822327
0.5087888836860657 -0.1620997041463852 0.6269643902778625
0.5122456550598145 -0.1623396873474121 0.6260997653007507
0.5073681473731995 -0.16220009326934814 0.6266400814056396
0.5053598284721375 -0.16207237541675568 0.6262863278388977
0.5247716307640076 -0.10798511654138565 0.6827569603919983
0.5286011695861816 -0.10984255373477936 0.6828207969665527
0.5265957713127136 -0.10803616046905518 0.6818876266479492
0.5260953903198242 -0.10753574222326279 0.6818876266479492
0.5304464101791382 -0.10984383523464203 0.6819891929626465
0.5298498868942261 -0.10950374603271484 0.6818704009056091
0.5182161331176758 -0.10201088339090347 0.6799551248550415
0.517713189125061 -0.10150779783725739 0.6799551248550415
0.5147778391838074 -0.09961692988872528 0.6794718503952026
0.5328665971755981 -0.11133765429258347 0.6815763711929321
0.5319966077804565 -0.11012843996286392 0.6817339062690735
0.5285143256187439 -0.10792826116085052 0.6811391115188599
0.5357958078384399 -0.08622481673955917 0.6945886611938477
0.5191872119903564 -0.10196082293987274 0.67958003282547
0.5324035882949829 -0.11231010407209396 0.6800656914710999
0.5323551297187805 -0.10973390191793442 0.6812422275543213
0.5230728983879089 -0.10379189252853394 0.6796875596046448
0.520156741142273 -0.10191083699464798 0.6792055368423462
0.5166224241256714 -0.09967610985040665 0.6786006093025208
0.51368248462677 -0.09778089076280594 0.6781143546104431
0.531937301158905 -0.11328956484794617 0.6785441040992737
0.5304277539253235 -0.10782065987586975 0.6803926229476929
0.5385940074920654 -0.08580634742975235 0.6944851279258728
0.5240370631217957 -0.10374090820550919 0.6793137192726135
0.5163804292678833 -0.09893323481082916 0.6779833436012268
0.5158767104148865 -0.09842975437641144 0.6779833436012268
0.5146592855453491 -0.0977335199713707 0.6777399778366089
0.5314674377441406 -0.11427593976259232 0.6770113110542297
0.5309631824493408 -0.11377159506082535 0.6770113110542297
0.5312856435775757 -0.10792572796344757 0.6799004077911377
0.5401436686515808 -0.08595800399780273 0.6943392753601074
0.5375580787658691 -0.08394888788461685 0.6940693259239197
0.528125524520874 -0.12142538279294968 0.6712275147438049
0.5334287881851196 -0.10855133086442947 0.6797680854797363
0.5322394967079163 -0.10787194967269897 0.6795286536216736
0.5400699377059937 -0.08502089232206345 0.6939449310302734
0.5395044684410095 -0.0846971645951271 0.6938311457633972
0.5395106077194214 -0.11185929924249649 0.6802307963371277
0.5420103669166565 -0.08576660603284836 0.6937076449394226
0.5387131571769714 -0.0836765244603157 0.6931383013725281
0.5327430963516235 -0.07965017110109329 0.6922223567962646
0.5404534935951233 -0.11180324852466583 0.6798604130744934
0.5364181399345398 -0.10927977412939072 0.6791457533836365
0.5341429710388184 -0.10776468366384506 0.6787861585617065
0.5401853322982788 -0.08395253121852875 0.6929016709327698
0.536880612373352 -0.08185679465532303 0.6923301815986633
0.5335609316825867 -0.07975157350301743 0.6917558312416077
0.5307994484901428 -0.07796593010425568 0.6912943720817566
0.5443755388259888 -0.08599025011062622 0.6931201219558716
0.5377897024154663 -0.08181002736091614 0.6919793486595154
0.5344743728637695 -0.07970628887414932 0.6914046406745911
0.5422443151473999 -0.11185023188591003 0.6790022253990173
0.5388073921203613 -0.1096673384308815 0.6784055829048157
0.5408653020858765 -0.08320914208889008 0.6919726133346558
0.5397353172302246 -0.0825604572892189 0.6917436122894287
0.5386970639228821 -0.08176328986883163 0.6916289925575256
0.5326319932937622 -0.0778774842619896 0.6905921697616577
0.5292941927909851 -0.07575816661119461 0.6900123953819275
0.5271274447441101 -0.0754137635231018 0.6891452670097351
0.540340006351471 -0.10995056480169296 0.6781561374664307
0.5391623973846436 -0.10927475988864899 0.6779167652130127
0.5374857187271118 -0.10810128599405289 0.6776766777038574
0.536894679069519 -0.10776237398386002 0.6775562763214111
0.5439286231994629 -0.08460269123315811 0.6919660568237305
0.5428037047386169 -0.0839567482471466 0.6917375326156616
0.5368651151657104 -0.07994208484888077 0.6908192038536072
0.5318329334259033 -0.07684843987226486 0.6898941397666931
0.5302130579948425 -0.07571545988321304 0.6896617412567139
0.5125601291656494 -0.0918603166937828 0.6735320687294006
0.544122040271759 -0.11173834651708603 0.6782653331756592
0.5423645973205566 -0.11072873324155807 0.6779071688652039
0.5418689846992493 -0.11023324728012085 0.6779071688652039
0.5412817597389221 -0.10989586263895035 0.6777874231338501
0.5478742122650146 -0.08700551837682724 0.6919018626213074
0.5469796061515808 -0.08599061518907547 0.6919593214988708
0.5458594560623169 -0.08534709364175797 0.6917312145233154
0.5404158234596252 -0.0818176120519638 0.6908147931098938
0.5349333882331848 -0.07826288044452667 0.689892053604126
0.53445965051651 -0.07778921723365784 0.689892053604126
0.5338898301124573 -0.07746147364377975 0.6897762417793274
0.5099761486053467 -0.08955210447311401 0.6725396513938904
0.5450306534767151 -0.1117323711514473 0.6778598427772522
0.5422223806381226 -0.10984119027853012 0.6774196028709412
0.5393753051757812 -0.10799407213926315 0.6769393086433411
0.5446049571037292 -0.08386096358299255 0.6910398006439209
0.5385871529579163 -0.07999806106090546 0.6900048851966858
0.5380206108093262 -0.07967197149991989 0.6898894906044006
0.5375480055809021 -0.07919926941394806 0.6898894906044006
0.5320466160774231 -0.07563017308712006 0.6889615654945374
0.5108500123023987 -0.08966269344091415 0.6720436811447144
0.5487695932388306 -0.08589243143796921 0.6912631988525391
0.5422230958938599 -0.08172467350959778 0.6901175379753113
0.5410953164100647 -0.08107537031173706 0.6898868680000305
0.5361866354942322 -0.07784733921289444 0.6890771389007568
0.5301016569137573 -0.07393942028284073 0.6880286931991577
0.5290525555610657 -0.07313349097967148 0.687911331653595
0.5130515098571777 -0.09032613784074783 0.6719217896461487
0.5124411582946777 -0.08997388184070587 0.6717975735664368
0.5118297934532166 -0.08962142467498779 0.6716727614402771
0.5468401312828064 -0.11172933131456375 0.6770440340042114
0.544009268283844 -0.10988985747098923 0.6765648126602173
0.5405800342559814 -0.10770653933286667 0.6759626269340515
0.5464012026786804 -0.083765409886837 0.690343976020813
0.5447195768356323 -0.08279648423194885 0.6899996399879456
0.543687105178833 -0.08200231194496155 0.689884603023529
0.5431249141693115 -0.08167831599712372 0.6897695064544678
0.5403990149497986 -0.07990767806768417 0.6893078088760376
0.5321632027626038 -0.07455757260322571 0.6879133582115173
0.5315913558006287 -0.07422791421413422 0.6877964735031128
0.5310189723968506 -0.07389799505472183 0.6876793503761292
0.509826123714447 -0.08770530670881271 0.6707670092582703
0.5437765121459961 -0.10916157811880112 0.6759576797485352
0.5421086549758911 -0.10799134522676468 0.6757164001464844
0.5504671931266785 -0.0859423577785492 0.6904550790786743
0.547767162322998 -0.08418725430965424 0.6899968981742859
0.5472078919410706 -0.08386502414941788 0.6898820996284485
0.5440253615379333 -0.08163195103406906 0.6894219517707825
0.5380045771598816 -0.07775982469320297 0.6883804798126221
0.5352605581283569 -0.07597626000642776 0.6879147887229919
0.5285954475402832 -0.0717276856303215 0.6867436766624451
0.5276439785957336 -0.0719413012266159 0.6861789226531982
0.5114495754241943 -0.08797594904899597 0.6705573201179504
0.5464892983436584 -0.11420852690935135 0.6739742159843445
0.5470678210258484 -0.11179278045892715 0.6754302382469177
0.5458821654319763 -0.1097809374332428 0.6758319139480591
0.5508022904396057 -0.08557260036468506 0.6899943351745605
