ply
format ascii 1.0
element vertex 815
property float x
property float y
property float z
end_header
0.6716849207878113 -0.07307320088148117 0.6719027161598206
0.6642508506774902 -0.06457853317260742 0.6726375818252563
0.6584045886993408 -0.06145225465297699 0.6707529425621033
0.6580039262771606 -0.059267040342092514 0.6719894409179688
0.6559963226318359 -0.05895405262708664 0.6708152890205383
0.654320240020752 -0.059231389313936234 0.6694617867469788
0.6536579728126526 -0.059646207839250565 0.6687155961990356
0.649876594543457 -0.061347804963588715 0.6649166941642761
0.6480861306190491 -0.06179194524884224 0.6633685827255249
0.645991861820221 -0.06309609860181808 0.6610141396522522
0.6441552042961121 -0.06355610489845276 0.6594228744506836
0.6434406638145447 -0.06399921327829361 0.6586208343505859
0.6359397172927856 -0.067289799451828 0.6511440277099609
0.6843690276145935 -0.09317977726459503 0.6659523248672485
0.6839317679405212 -0.09290466457605362 0.6658396124839783
0.6821654438972473 -0.09186818450689316 0.6653324365615845
0.6764222383499146 -0.07701035588979721 0.671665370464325
0.6742397546768188 -0.07571785151958466 0.6710470914840698
0.6721371412277222 -0.06788219511508942 0.6750304698944092
0.6701401472091675 -0.06591898947954178 0.6750069856643677
0.6652917265892029 -0.06327671557664871 0.673474133014679
0.6641893982887268 -0.06545771658420563 0.6711927652359009
0.6601285934448242 -0.06331895291805267 0.6698572039604187
0.6596676111221313 -0.06310535967350006 0.6696855425834656
0.652951180934906 -0.059023816138505936 0.6678547859191895
0.651872456073761 -0.05903151258826256 0.6670998930931091
0.6479740142822266 -0.060967348515987396 0.6630461812019348
0.6466606855392456 -0.06159200891852379 0.6616995930671692
0.6455410122871399 -0.061607152223587036 0.6609110832214355
0.6422701478004456 -0.06293810158967972 0.657713770866394
0.6415470838546753 -0.0633816346526146 0.656903088092804
0.6360137462615967 -0.06591617316007614 0.6512972712516785
0.6819782257080078 -0.08164507895708084 0.6715136170387268
0.6683135628700256 -0.0639866292476654 0.6742966175079346
0.6661938428878784 -0.06246918812394142 0.6738768815994263
0.6621307134628296 -0.06421614438295364 0.6698285937309265
0.6592553853988647 -0.06152205169200897 0.6697022318840027
0.6582082509994507 -0.05797857791185379 0.6714415550231934
0.6560701131820679 -0.058099329471588135 0.6698678135871887
0.6556653380393982 -0.057694438844919205 0.6698678135871887
0.6534454226493835 -0.0579901821911335 0.6681147813796997
0.6524664163589478 -0.057693831622600555 0.6676391959190369
0.6518336534500122 -0.05799059197306633 0.6669914126396179
0.644094705581665 -0.061406128108501434 0.659218966960907
0.6436744928359985 -0.06098584458231926 0.659218966960907
0.6422421336174011 -0.0618581622838974 0.6576132774353027
0.6407938599586487 -0.06274019181728363 0.655989408493042
0.6381786465644836 -0.06689300388097763 0.6512736082077026
0.6349723935127258 -0.06762710213661194 0.6485280394554138
0.6822609305381775 -0.08121216297149658 0.671220064163208
0.6816012859344482 -0.07971040904521942 0.6718084812164307
0.6805292367935181 -0.07788199186325073 0.672336995601654
0.6783790588378906 -0.07654862105846405 0.6717662215232849
0.6758646368980408 -0.07677732408046722 0.6698493957519531
0.6741544604301453 -0.06923584640026093 0.6739240884780884
0.6697783470153809 -0.0648316890001297 0.6739438772201538
0.6685417890548706 -0.0637972503900528 0.6738024950027466
0.6645833253860474 -0.06532222032546997 0.6699708700180054
0.6579750180244446 -0.057581979781389236 0.67076176404953
0.6569107174873352 -0.057630520313978195 0.6699840426445007
0.6483022570610046 -0.061001814901828766 0.6616129279136658
0.646583616733551 -0.05949946120381355 0.6614617109298706
0.6454774141311646 -0.0594768151640892 0.6607046127319336
0.6447726488113403 -0.05990538001060486 0.6599127054214478
0.643644392490387 -0.0599164143204689 0.6591164469718933
0.6414926648139954 -0.0612175427377224 0.6567037105560303
0.6403430700302124 -0.06123173609375954 0.6558905839920044
0.6837178468704224 -0.09205688536167145 0.6638469696044922
0.6833055019378662 -0.09164462983608246 0.6638469696044922
0.683858335018158 -0.08386900275945663 0.6696833372116089
0.6807963252067566 -0.07752575725317001 0.6719827055931091
0.6769814491271973 -0.07705741375684738 0.6696376204490662
0.675749659538269 -0.07593487948179245 0.6695609092712402
0.6742221117019653 -0.07394048571586609 0.6698881983757019
0.6738482713699341 -0.07341109216213226 0.6699971556663513
0.6736460328102112 -0.06800400465726852 0.6736445426940918
0.6732462644577026 -0.0676126778125763 0.6736385822296143
0.6716487407684326 -0.06604048609733582 0.6736207604408264
0.6712488532066345 -0.06564909219741821 0.6736149191856384
0.6662160158157349 -0.06371595710515976 0.6714427471160889
0.662567138671875 -0.06392250210046768 0.6687409281730652
0.6605124473571777 -0.06199737265706062 0.6686501502990723
0.6540600657463074 -0.05711137875914574 0.6675525307655334
0.650097131729126 -0.06108182668685913 0.6619930863380432
0.6427751779556274 -0.05964449420571327 0.657869279384613
0.6415408849716187 -0.05992469564080238 0.6568077802658081
0.6381285786628723 -0.06634019315242767 0.6499207615852356
0.6376262307167053 -0.06610502302646637 0.6497336030006409
0.6371234059333801 -0.06586943566799164 0.6495463848114014
0.6865546703338623 -0.0936654731631279 0.6638951301574707
0.6857498288154602 -0.09274624288082123 0.663975715637207
0.6841409206390381 -0.08343328535556793 0.6693897843360901
0.6824721097946167 -0.07971048355102539 0.67083340883255
0.6782271862030029 -0.07674301415681839 0.669935405254364
0.6760029792785645 -0.07565335929393768 0.6691383123397827
0.6661615371704102 -0.06458986550569534 0.6699970364570618
0.6614609956741333 -0.06294333189725876 0.6678507328033447
0.6602794528007507 -0.0597953274846077 0.6692327260971069
0.6592727899551392 -0.05788953974843025 0.6698645949363708
0.6522451043128967 -0.05659909546375275 0.6658326387405396
0.6463580131530762 -0.05785936862230301 0.6608095169067383
0.645287811756134 -0.057727813720703125 0.6601500511169434
0.6846286058425903 -0.0919775515794754 0.6629128456115723
0.6838131546974182 -0.08120850473642349 0.6699278354644775
0.6820659041404724 -0.0779259130358696 0.6710098385810852
0.6745172142982483 -0.06796161830425262 0.6727123856544495
0.6725196838378906 -0.06599783152341843 0.6726884841918945
0.6700652241706848 -0.06386522948741913 0.672461748123169
0.663920521736145 -0.06405450403690338 0.6679977178573608
0.6634624600410461 -0.06384166330099106 0.6678248047828674
0.6561812162399292 -0.056509848684072495 0.6678606271743774
0.6489226222038269 -0.060665760189294815 0.6598160266876221
0.648167610168457 -0.05959422513842583 0.6600390076637268
0.6460328102111816 -0.05766969546675682 0.6598908305168152
0.6456161141395569 -0.05725318565964699 0.6598908305168152
0.641431987285614 -0.059557460248470306 0.6553178429603577
0.6380784511566162 -0.06578543037176132 0.6485651731491089
0.6843996644020081 -0.0816684290766716 0.6692201495170593
0.683343768119812 -0.0797104686498642 0.6698578000068665
0.6800559759140015 -0.07684750854969025 0.6695575714111328
0.6706924438476562 -0.06407442688941956 0.6719673871994019
0.6702937483787537 -0.06367580592632294 0.6719673871994019
0.6698746681213379 -0.06335756927728653 0.6718960404396057
0.6659137606620789 -0.06494926661252975 0.6679716110229492
0.6641390919685364 -0.06390761584043503 0.6674534678459167
0.6617053151130676 -0.06148961931467056 0.6674423813819885
0.6606529951095581 -0.05791151151061058 0.6692274808883667
0.6533119082450867 -0.055999185889959335 0.6653904914855957
0.6505945920944214 -0.06113365292549133 0.6598411798477173
0.6488085389137268 -0.05984416976571083 0.6594902873039246
0.6476377844810486 -0.058357588946819305 0.6597133278846741
0.6445119380950928 -0.057695455849170685 0.6579721570014954
0.6383047699928284 -0.06562545150518417 0.6479803919792175
0.6877831816673279 -0.09564942121505737 0.6609102487564087
0.6855397820472717 -0.09189808368682861 0.6619790196418762
0.6856021285057068 -0.08392495661973953 0.6676744818687439
0.6787905693054199 -0.07678941637277603 0.6679040789604187
0.677918553352356 -0.07627437263727188 0.6676509380340576
0.6775142550468445 -0.07587030529975891 0.6676509380340576
0.6760129928588867 -0.07374943047761917 0.6680901646614075
0.6761592626571655 -0.06882704049348831 0.6716825366020203
0.6757899522781372 -0.06830388307571411 0.6717918515205383
0.6753901243209839 -0.06791238486766815 0.671785831451416
0.6737923622131348 -0.06633994728326797 0.6717678904533386
0.6733925938606262 -0.06594838201999664 0.6717620491981506
0.6670932173728943 -0.06503558158874512 0.6679441928863525
0.6620447635650635 -0.06091296300292015 0.6672878861427307
0.6589776873588562 -0.057102348655462265 0.6678147912025452
0.6555028557777405 -0.05637455731630325 0.6658677458763123
0.6545655727386475 -0.0559585839509964 0.6654984354972839
0.6431310176849365 -0.05890975147485733 0.655302107334137
0.687531054019928 -0.09279130399227142 0.6619404554367065
0.6862203478813171 -0.09196262061595917 0.6615979075431824
0.6862879991531372 -0.083892822265625 0.6673818230628967
0.6842156052589417 -0.07971068471670151 0.6688815355300903
0.6832015514373779 -0.07756932079792023 0.6696828007698059
0.6781715750694275 -0.07599270343780518 0.6672282814979553
0.6766411066055298 -0.07399793714284897 0.6675583124160767
0.6758628487586975 -0.07306510955095291 0.6676680445671082
0.6685269474983215 -0.06412772089242935 0.6688065528869629
0.6681251525878906 -0.06372595578432083 0.6688065528869629
0.6627925038337708 -0.06257691979408264 0.6658326983451843
0.6622102856636047 -0.05911983177065849 0.667876124382019
0.6618070006370544 -0.05871674045920372 0.667876124382019
0.6605699062347412 -0.05760282650589943 0.6677885055541992
0.6567479372024536 -0.056333333253860474 0.6659742593765259
0.6521345973014832 -0.06081546097993851 0.6595091819763184
0.648164689540863 -0.05778694152832031 0.6588398218154907
0.6440642476081848 -0.05833224207162857 0.6555377244949341
0.6418703198432922 -0.05973852053284645 0.6529787182807922
0.6886299252510071 -0.09322039783000946 0.6615992188453674
0.6855498552322388 -0.08126243203878403 0.6679273247718811
0.6806227564811707 -0.07689395546913147 0.667529284954071
0.6762632727622986 -0.06786323338747025 0.6708590984344482
0.6742656230926514 -0.06589900702238083 0.6708351969718933
0.6684809327125549 -0.06500429660081863 0.6673495769500732
0.6652532815933228 -0.06367990374565125 0.6659929156303406
0.6544108390808105 -0.05583026260137558 0.6638596057891846
0.6511504054069519 -0.06101115420460701 0.657842218875885
0.6468384265899658 -0.05727100372314453 0.6574346423149109
0.6449612975120544 -0.05785009264945984 0.6556838154792786
0.6432358026504517 -0.05957874655723572 0.653221607208252
0.6861382126808167 -0.08172272145748138 0.6672175526618958
0.6840711236000061 -0.07756885141134262 0.6687091588973999
0.6724450588226318 -0.06395312398672104 0.6701314449310303
0.6716076135635376 -0.06331627815961838 0.6699880957603455
0.6672460436820984 -0.0645759105682373 0.6659698486328125
0.6634117364883423 -0.061629679054021835 0.6653349995613098
0.662408709526062 -0.05783264338970184 0.6673323512077332
0.6590859293937683 -0.05671597644686699 0.6657551527023315
0.6560704112052917 -0.05619732663035393 0.6639702916145325
0.6555402278900146 -0.056188248097896576 0.663597822189331
0.6506182551383972 -0.05977245047688484 0.6575172543525696
0.6498622894287109 -0.058701757341623306 0.6577421426773071
0.6490683555603027 -0.057750776410102844 0.6578543782234192
0.6441723108291626 -0.05899754911661148 0.6534631252288818
0.6402159929275513 -0.06545722484588623 0.6460173726081848
0.686911940574646 -0.09153014421463013 0.6599381566047668
0.6857560873031616 -0.07975456118583679 0.6675512790679932
0.682563066482544 -0.07644181698560715 0.6676369905471802
0.6800732612609863 -0.07668634504079819 0.6656768321990967
0.679682195186615 -0.0762203261256218 0.6657305359840393
0.6793076992034912 -0.07567884027957916 0.6658502221107483
0.677935004234314 -0.06860367953777313 0.669938325881958
0.6771369576454163 -0.06781399250030518 0.6699323058128357
0.675937294960022 -0.06663933396339417 0.6699143648147583
0.6751391291618347 -0.06584954261779785 0.6699082851409912
0.6739092469215393 -0.06479838490486145 0.6697803139686584
0.6726740002632141 -0.06376366317272186 0.6696366667747498
0.6687775254249573 -0.06526369601488113 0.6657678484916687
0.666148841381073 -0.06359907239675522 0.6650768518447876
0.6635720133781433 -0.059832070022821426 0.6659300327301025
0.6606819033622742 -0.05721849203109741 0.6657318472862244
0.6532383561134338 -0.060690779238939285 0.6579064130783081
0.6470708847045898 -0.057583265006542206 0.6557128429412842
0.6413772106170654 -0.06596596539020538 0.6456218361854553
0.6902032494544983 -0.09328705817461014 0.6602175831794739
0.6889024972915649 -0.09242457896471024 0.6599026918411255
0.6880334615707397 -0.08394880592823029 0.6653711795806885
0.6877220869064331 -0.08304938673973083 0.6657938957214355
0.6860218048095703 -0.07939685136079788 0.6671974658966064
0.6849411129951477 -0.07756850123405457 0.6677350401878357
0.6784044504165649 -0.07393276691436768 0.6656493544578552
0.6785624623298645 -0.06881639361381531 0.6694412231445312
0.6704810857772827 -0.06326694786548615 0.6676210761070251
0.6649942994117737 -0.06281767785549164 0.6639994978904724
0.6642662882804871 -0.06169978529214859 0.6642796993255615
0.6623605489730835 -0.05741211026906967 0.6659920811653137
0.6584396958351135 -0.0565127357840538 0.6638200283050537
0.6544203758239746 -0.060947153717279434 0.6577425599098206
0.650010883808136 -0.057596493512392044 0.656981348991394
0.6460317373275757 -0.05784326791763306 0.6539431214332581
0.6442810297012329 -0.059667930006980896 0.6513728499412537
0.6907739639282227 -0.0939735472202301 0.6593117713928223
0.6882361173629761 -0.09186329692602158 0.6590034365653992
0.6876916289329529 -0.08171917498111725 0.6659243106842041
0.682426929473877 -0.07662659138441086 0.665800154209137
0.6801907420158386 -0.07564657926559448 0.6648946404457092
0.6780105829238892 -0.06776470690965652 0.669005274772644
0.6760125160217285 -0.0658000111579895 0.6689810752868652
0.6704421043395996 -0.06413843482732773 0.6661630868911743
0.6669935584068298 -0.06371032446622849 0.6639853715896606
0.6644235253334045 -0.05990088731050491 0.6648789644241333
0.6529681086540222 -0.06092187017202377 0.6558840870857239
0.6522037982940674 -0.05986739322543144 0.6560933589935303
0.6487497687339783 -0.0569012425839901 0.6557414531707764
0.6460891366004944 -0.058174245059490204 0.6529056429862976
0.6423326730728149 -0.06588181108236313 0.6446404457092285
0.6911521553993225 -0.09580518305301666 0.6574358940124512
0.6862126588821411 -0.07796885073184967 0.6667603850364685
0.6741982102394104 -0.06383166462182999 0.6682952642440796
0.672516942024231 -0.0625857412815094 0.6679803729057312
0.6704025864601135 -0.0650172084569931 0.6646938323974609
0.6685799360275269 -0.06420199573040009 0.6639654040336609
0.6681251525878906 -0.0639893040060997 0.6637901663780212
0.6653448939323425 -0.0609501451253891 0.6639775037765503
0.664148211479187 -0.05781594663858414 0.6653783917427063
0.6612886190414429 -0.05692944675683975 0.6639519333839417
0.6584143042564392 -0.05598791316151619 0.6625545024871826
0.6578879356384277 -0.055978573858737946 0.6621805429458618
0.6573599576950073 -0.05596921220421791 0.6618056297302246
0.656790018081665 -0.056093569844961166 0.6613038182258606
0.6524670720100403 -0.05958166718482971 0.6556563377380371
0.6516717076301575 -0.05862978473305702 0.6557694673538208
0.6509150266647339 -0.05756029859185219 0.6559956669807434
0.6481473445892334 -0.05755452811717987 0.6539987921714783
0.6461470127105713 -0.05850614234805107 0.6518645286560059
0.6420034766197205 -0.06565143913030624 0.6437026858329773
0.641569972038269 -0.06521788984537125 0.6437026858329773
0.6885620355606079 -0.08174624294042587 0.6649215817451477
0.6875019669532776 -0.0797547847032547 0.6655970215797424
0.6847562789916992 -0.07660319656133652 0.6658912897109985
0.6822876930236816 -0.0768221914768219 0.6639425754547119
0.6818503141403198 -0.07657762616872787 0.6638028621673584
0.6810740828514099 -0.07561428844928741 0.6639383435249329
0.6756620407104492 -0.06467722356319427 0.6679443717002869
0.6744276285171509 -0.06364215165376663 0.6677998900413513
0.6714193224906921 -0.06370685994625092 0.6655718684196472
0.6705610752105713 -0.06511521339416504 0.6639283299446106
0.6652758717536926 -0.05996999517083168 0.6638270020484924
0.6624770760536194 -0.05702721327543259 0.6639313101768494
0.6590123176574707 -0.056335821747779846 0.6619204878807068
0.6586052775382996 -0.055928800255060196 0.6619204878807068
0.6549291014671326 -0.060998860746622086 0.6555790305137634
0.6453292369842529 -0.05975736305117607 0.6495188474655151
0.6902757883071899 -0.09205728769302368 0.6578621864318848
0.6898278594017029 -0.09184852242469788 0.6576882600784302
0.6894674897193909 -0.08310476690530777 0.6637837290763855
0.6870837211608887 -0.07796848565340042 0.6657853722572327
0.6801960468292236 -0.0737416073679924 0.6638506054878235
0.6797924041748047 -0.07333794981241226 0.6638506054878235
0.6799195408821106 -0.06828491389751434 0.6676172018051147
0.6795196533203125 -0.06789343804121017 0.6676110625267029
0.6779212951660156 -0.06632018089294434 0.6675928831100464
0.6775214672088623 -0.06592841446399689 0.6675868630409241
0.6661990284919739 -0.06101979687809944 0.662923276424408
0.666015088558197 -0.05979923903942108 0.6636770367622375
0.6640654802322388 -0.05752836540341377 0.6639105677604675
0.6462631821632385 -0.059174083173274994 0.6497699022293091
0.6922598481178284 -0.09294998645782471 0.657829761505127
0.6905074715614319 -0.09191320091485977 0.6573082208633423
0.6904656887054443 -0.08397252857685089 0.6630676984786987
0.6894333958625793 -0.08177352696657181 0.6639184951782227
0.6883755922317505 -0.07975488156080246 0.6646190881729126
0.682361900806427 -0.0759861096739769 0.6629821062088013
0.6805567145347595 -0.06845622509717941 0.6671562790870667
0.6727961301803589 -0.06367776542901993 0.66498202085495
0.668330192565918 -0.06333502382040024 0.6619755029678345
0.6678740978240967 -0.06312155723571777 0.6617985367774963
0.6609655022621155 -0.05624455586075783 0.661775529384613
0.6564603447914124 -0.06068088486790657 0.6552556157112122
0.6540154814720154 -0.05979565531015396 0.6541184782981873
0.6524609923362732 -0.057773225009441376 0.6544597148895264
0.6484771370887756 -0.05810564383864403 0.6513123512268066
0.6853405237197876 -0.07661344110965729 0.6638882756233215
0.6803938150405884 -0.06784427165985107 0.6666833162307739
0.6783953309059143 -0.06587900966405869 0.6666591167449951
0.6727652549743652 -0.06455188989639282 0.6635125279426575
0.6703208088874817 -0.0642327219247818 0.6619585156440735
0.6670540571212769 -0.06108948215842247 0.661868155002594
0.6625939607620239 -0.05664043128490448 0.6618601679801941
0.6586523652076721 -0.055740684270858765 0.6596357822418213
0.6560372710227966 -0.06087392941117287 0.6539701223373413
0.6554563045501709 -0.0609993115067482 0.6534534096717834
0.654278576374054 -0.05950983613729477 0.6536813974380493
0.6538990139961243 -0.05897427350282669 0.6537954807281494
0.6511969566345215 -0.05710431933403015 0.6531869173049927
0.6493459343910217 -0.057682570070028305 0.6514106392860413
0.644472062587738 -0.06555384397506714 0.642090916633606
0.6439664363861084 -0.06533588469028473 0.6418806910514832
0.6936975717544556 -0.09550495445728302 0.6553526520729065
0.6903049945831299 -0.08180063217878342 0.6629144549369812
0.6893075704574585 -0.07944079488515854 0.6639134287834167
0.6882201433181763 -0.07761143147945404 0.6644574999809265
0.6860448122024536 -0.07647784054279327 0.6636935472488403
0.6836152672767639 -0.0765305757522583 0.6618733406066895
0.6765806078910828 -0.06391947716474533 0.6659626960754395
0.6757448315620422 -0.06328241527080536 0.6658169031143188
0.6701364517211914 -0.06368067860603333 0.6614120602607727
0.6665744781494141 -0.05781929939985275 0.6630984544754028
0.660304069519043 -0.05610804632306099 0.6597551703453064
0.6597790122032166 -0.056098852306604385 0.659376859664917
0.6533661484718323 -0.05773716792464256 0.653472900390625
0.6501854658126831 -0.05733967944979668 0.6514320969581604
0.6486018896102905 -0.05877023935317993 0.6492217183113098
0.647737443447113 -0.059686943888664246 0.6479154825210571
0.6447005867958069 -0.06539381295442581 0.6415036916732788
0.6937217712402344 -0.09369876235723495 0.6558645367622375
0.691650927066803 -0.09168963879346848 0.6558191180229187
0.6916192770004272 -0.08356433361768723 0.6617709994316101
0.6888273358345032 -0.07796777784824371 0.6638335585594177
0.6842895150184631 -0.07656947523355484 0.6615248918533325
0.6834986805915833 -0.07567207515239716 0.6616030931472778
0.681960940361023 -0.0736764594912529 0.6619397401809692
0.6820666790008545 -0.06858509033918381 0.6657617688179016
0.6816682815551758 -0.06818655878305435 0.6657617688179016
0.6812682151794434 -0.06779487431049347 0.6657557487487793
0.6796698570251465 -0.06622125208377838 0.6657373905181885
0.6792697906494141 -0.06582960486412048 0.6657312512397766
0.6776454448699951 -0.06436654180288315 0.665612518787384
0.6729730367660522 -0.06521431356668472 0.6615530848503113
0.6677212119102478 -0.05993759259581566 0.6615715026855469
0.66536945104599 -0.057240791618824005 0.6618252992630005
0.6540453433990479 -0.05786808580160141 0.6530365347862244
0.6944712996482849 -0.09332346171140671 0.6558614373207092
0.6922957897186279 -0.09195782244205475 0.6552640199661255
0.6911771893501282 -0.08182784914970398 0.6619096398353577
0.6901813745498657 -0.07944093644618988 0.6629355549812317
0.6841270327568054 -0.07593661546707153 0.6610550880432129
0.6825912594795227 -0.07392525672912598 0.6614057421684265
0.6747391223907471 -0.06281860172748566 0.6638058423995972
0.6696687340736389 -0.06295933574438095 0.6599627733230591
0.668433427810669 -0.06180760636925697 0.6599012017250061
0.6682430505752563 -0.06058232858777046 0.6606643795967102
0.668053925037384 -0.05936242267489433 0.6614246368408203
0.6665491461753845 -0.05733799934387207 0.6618078351020813
0.6631818413734436 -0.056432534009218216 0.6599923372268677
0.661212682723999 -0.055998802185058594 0.6588600873947144
0.660128653049469 -0.0561002753674984 0.657985508441925
0.6597197651863098 -0.05569158494472504 0.657985508441925
0.6522746682167053 -0.05707516521215439 0.6514747142791748
0.6504281163215637 -0.05765373632311821 0.649686336517334
0.6487277746200562 -0.059439677745103836 0.647115170955658
0.6460899710655212 -0.06574271619319916 0.6405217051506042
0.6924940347671509 -0.08359222114086151 0.6607633829116821
0.6866284608840942 -0.07651025056838989 0.6616629362106323
0.6821428537368774 -0.06774567067623138 0.6648276448249817
0.680144190788269 -0.06577996909618378 0.6648032069206238
0.6781052350997925 -0.06398763507604599 0.6646208763122559
0.6716586351394653 -0.06385809183120728 0.6599488258361816
0.668104887008667 -0.05792451277375221 0.6617089509963989
0.6624492406845093 -0.05595814436674118 0.6589804887771606
0.6608818173408508 -0.05592995136976242 0.657842218875885
0.6589182019233704 -0.06082966551184654 0.6527665853500366
0.657311201095581 -0.06079292297363281 0.6516051888465881
0.6565085649490356 -0.059854891151189804 0.6517053246498108
0.6557111144065857 -0.05890224874019623 0.6518200635910034
0.6463190913200378 -0.06558268517255783 0.6399337649345398
0.6458858251571655 -0.06514930725097656 0.6399337649345398
0.6921361684799194 -0.0813632383942604 0.6613327860832214
0.6910555362701416 -0.07944095134735107 0.6619570851325989
0.6882398724555969 -0.07663939893245697 0.6619465947151184
0.6857928037643433 -0.07685516774654388 0.6599717140197754
0.6775003671646118 -0.0631607323884964 0.6639781594276428
0.6746911406517029 -0.06456413865089417 0.6608538031578064
0.6736422181129456 -0.06475421786308289 0.659934937953949
0.6723329424858093 -0.0639241635799408 0.6595796942710876
0.6654934883117676 -0.056854765862226486 0.6597500443458557
0.6621214151382446 -0.05588935315608978 0.6579651236534119
0.6580849885940552 -0.06060662120580673 0.6514731049537659
0.6552135944366455 -0.05754633620381355 0.6516131162643433
0.652522087097168 -0.057387251406908035 0.6497350335121155
0.6505720615386963 -0.05827911198139191 0.6476273536682129
0.6938866376876831 -0.09194311499595642 0.6539496779441833
0.6933695673942566 -0.08362012356519699 0.6597553491592407
0.690629243850708 -0.07765496522188187 0.6621537208557129
0.6865032315254211 -0.07670537382364273 0.6597913503646851
0.6852657794952393 -0.07561606913805008 0.6596811413764954
0.6838160753250122 -0.0684867799282074 0.6639053225517273
0.6830161213874817 -0.06770311295986176 0.6638932228088379
0.681817352771759 -0.06652095913887024 0.6638810038566589
0.6810171604156494 -0.06573735177516937 0.6638686060905457
0.6797984838485718 -0.06464393436908722 0.6637753844261169
0.6785654425621033 -0.06360845267772675 0.6636284589767456
0.6756870746612549 -0.06325713545084 0.6617489457130432
0.6747576594352722 -0.06506586074829102 0.6597124338150024
0.6700299978256226 -0.061704788357019424 0.658696174621582
0.6666759252548218 -0.05695280060172081 0.6597356796264648
0.6632433533668518 -0.05624666064977646 0.6577080488204956
0.6514876484870911 -0.05770282819867134 0.6478819847106934
0.649782121181488 -0.05952877923846245 0.6452553272247314
0.69621342420578 -0.0936649888753891 0.6535639762878418
0.695866584777832 -0.09283659607172012 0.6539232134819031
0.6941196322441101 -0.09179888665676117 0.6533941030502319
0.6908931732177734 -0.07729867845773697 0.6618024706840515
0.6843836307525635 -0.07373399287462234 0.6596062183380127
0.6839797496795654 -0.0733301118016243 0.6596062183380127
0.6840535998344421 -0.06826625764369965 0.663438081741333
0.6766672134399414 -0.06199099123477936 0.662609338760376
0.6710065007209778 -0.06259289383888245 0.6579383611679077
0.6701663136482239 -0.05990472435951233 0.6593166589736938
0.6697618365287781 -0.05950044468045235 0.6593166589736938
0.6682584285736084 -0.05745413154363632 0.6597216129302979
0.6644746661186218 -0.05620575323700905 0.657830536365509
0.6600273847579956 -0.0607047975063324 0.6511578559875488
0.656119167804718 -0.05751020088791847 0.6506257653236389
0.6541846990585327 -0.056705113500356674 0.6497833728790283
0.6527706980705261 -0.0577012374997139 0.6479858756065369
0.6507053375244141 -0.058946121484041214 0.6455168128013611
0.6480024456977844 -0.06557444483041763 0.6385572552680969
0.6942456364631653 -0.08364806324243546 0.6587464809417725
0.6936045289039612 -0.08185137808322906 0.6596108078956604
0.6925413608551025 -0.07979924976825714 0.6603503823280334
0.6888332962989807 -0.07664590328931808 0.6599355936050415
0.6865534782409668 -0.07599682360887527 0.6587158441543579
0.6770578622817993 -0.06322867423295975 0.6611635088920593
0.6729980111122131 -0.06348307430744171 0.6579367518424988
0.6708885431289673 -0.061775077134370804 0.6576364636421204
0.666107177734375 -0.056569986045360565 0.6579533219337463
0.6596086025238037 -0.06091506779193878 0.6498429775238037
0.6583228707313538 -0.0597832128405571 0.6497277617454529
0.6579411625862122 -0.05924706533551216 0.6498433351516724
0.6520466208457947 -0.05878860130906105 0.6457772254943848
0.6482321619987488 -0.06541435420513153 0.6379687190055847
0.693207323551178 -0.07984304428100586 0.6599987149238586
0.6845285892486572 -0.06782528012990952 0.6625032424926758
0.6825295090675354 -0.06585900485515594 0.6624786257743835
0.6800726652145386 -0.06375685334205627 0.662212610244751
0.6784184575080872 -0.062413450330495834 0.661979615688324
0.6770424842834473 -0.06410036236047745 0.6596820950508118
0.6766397356987 -0.06369774788618088 0.6596820950508118
0.6749810576438904 -0.06438034772872925 0.6579259037971497
0.6741245985031128 -0.06376238167285919 0.6577469110488892
0.670112669467926 -0.05758720263838768 0.6593694686889648
0.6638259887695312 -0.05606896057724953 0.6557930111885071
0.6634180545806885 -0.05566095560789108 0.6557930111885071
0.6603766083717346 -0.060738734900951385 0.6497031450271606
0.6570252180099487 -0.057473957538604736 0.6496379971504211
0.6529597640037537 -0.058210402727127075 0.6460363268852234
0.6952650547027588 -0.09157513082027435 0.6519028544425964
0.6955269575119019 -0.08408058434724808 0.6577368378639221
0.6944782733917236 -0.08187861740589142 0.6586044430732727
0.6923749446868896 -0.07765406370162964 0.6602001190185547
0.6907278895378113 -0.07628170400857925 0.6599932909011841
0.6878098845481873 -0.07654384523630142 0.6576012969017029
0.6874369978904724 -0.07597329467535019 0.6577500104904175
0.6819521188735962 -0.06492152810096741 0.6619372963905334
0.6807200908660889 -0.06388581544160843 0.6617895364761353
0.6760994791984558 -0.06467778235673904 0.6577184796333313
0.6688757538795471 -0.05716588348150253 0.6579351425170898
0.6650586128234863 -0.056028127670288086 0.6559197902679443
0.6545635461807251 -0.05717236176133156 0.647165060043335
0.6521855592727661 -0.05945851281285286 0.6436566114425659
0.6517614722251892 -0.05903443694114685 0.6436566114425659
0.6972444653511047 -0.0924697294831276 0.6518791913986206
0.6958035826683044 -0.08364396542310715 0.6574497222900391
0.6940831542015076 -0.07984330505132675 0.659018874168396
0.6926383972167969 -0.07729750126600266 0.659849226474762
0.6894223093986511 -0.07669196277856827 0.6578801870346069
0.6861509680747986 -0.07366868853569031 0.6576930284500122
0.6857717633247375 -0.0731387585401535 0.657806932926178
0.6862026453018188 -0.06856647878885269 0.6615806221961975
0.685804009437561 -0.06816783547401428 0.6615806221961975
0.6854038834571838 -0.06777585297822952 0.6615745425224304
0.6838049292564392 -0.06620141118764877 0.6615561246871948
0.6834047436714172 -0.06580955535173416 0.6615496873855591
0.6780129075050354 -0.06366873532533646 0.6590974926948547
0.6727490425109863 -0.06264638155698776 0.6558980941772461
0.6720778942108154 -0.06126652657985687 0.6564328074455261
0.6716690063476562 -0.05886683985590935 0.6579344272613525
0.6700512170791626 -0.057263292372226715 0.6579235792160034
0.6662864089012146 -0.05598754435777664 0.6560461521148682
0.6657706499099731 -0.05597821623086929 0.6556641459465027
0.6583480834960938 -0.0578543096780777 0.6486501693725586
0.6539413332939148 -0.057965319603681564 0.6452421545982361
0.6987044811248779 -0.09363134950399399 0.6512633562088013
0.6965900659561157 -0.09190820902585983 0.6509672999382019
0.6960799694061279 -0.08320783078670502 0.6571627855300903
0.6953529119491577 -0.08190589398145676 0.6575977206230164
0.6901277303695679 -0.07654263824224472 0.6577021479606628
0.6883208155632019 -0.075949527323246 0.6567839980125427
0.6860417723655701 -0.06794726848602295 0.6611131429672241
0.6840424537658691 -0.06598068028688431 0.661088228225708
0.6780003309249878 -0.06454543024301529 0.6576036810874939
0.6743392944335938 -0.06310746818780899 0.6559218764305115
0.672608494758606 -0.061915796250104904 0.655514121055603
0.672206699848175 -0.059467606246471405 0.6570620536804199
0.6674023866653442 -0.05634356290102005 0.6557910442352295
0.6664817929267883 -0.05592827871441841 0.6554089188575745
0.6644108295440674 -0.0558905154466629 0.6538709998130798
0.662074089050293 -0.06043782830238342 0.6486635804176331
0.6609386205673218 -0.06066536530852318 0.6476324200630188
0.6601383090019226 -0.05971137806773186 0.6477488875389099
0.659756064414978 -0.05917518213391304 0.6478652358055115
0.656638503074646 -0.05690827593207359 0.6472217440605164
0.6548179388046265 -0.057485997676849365 0.6454077363014221
0.6540139317512512 -0.058297257870435715 0.6441858410835266
0.6505791544914246 -0.06567929685115814 0.6360035538673401
0.6496206521987915 -0.06510039418935776 0.6357164978981018
0.6960322260856628 -0.08187493681907654 0.6573112607002258
0.6822454929351807 -0.06395398080348969 0.6604474186897278
0.6763214468955994 -0.06400589644908905 0.6559140682220459
0.6722766160964966 -0.057911209762096405 0.6574690341949463
0.6686030626296997 -0.056373901665210724 0.6558486819267273
0.662250280380249 -0.06045468524098396 0.6479341387748718
0.6592546105384827 -0.05781811103224754 0.6476617455482483
0.656069278717041 -0.057562798261642456 0.6454389095306396
0.6540871262550354 -0.05863024294376373 0.643125593662262
0.6532453894615173 -0.05954767391085625 0.6417911052703857
0.6508097052574158 -0.06551916152238846 0.6354137659072876
0.6970580816268921 -0.091619573533535 0.6498530507087708
0.6952223777770996 -0.0794849693775177 0.6576874256134033
0.6941223740577698 -0.0776531919836998 0.6582440137863159
0.6924266815185547 -0.07655797898769379 0.6577872633934021
0.6900140643119812 -0.07673823088407516 0.6558149456977844
0.6896093487739563 -0.0763334184885025 0.6558149456977844
0.6892049312591553 -0.07592575252056122 0.655817449092865
0.682875394821167 -0.06416335701942444 0.6599502563476562
0.6824763417243958 -0.06376422941684723 0.6599502563476562
0.6816431879997253 -0.06312669813632965 0.6598013639450073
0.6782902479171753 -0.06493403762578964 0.6558761596679688
0.6765442490577698 -0.06385897845029831 0.6553657054901123
0.6701865792274475 -0.056877557188272476 0.6558400988578796
0.6663577556610107 -0.05580008402466774 0.6537470817565918
0.698623776435852 -0.0921022817492485 0.6498324275016785
0.6981804966926575 -0.09189341217279434 0.6496536731719971
0.6975581645965576 -0.08369985222816467 0.655429482460022
0.6947867274284363 -0.07769765704870224 0.6578938961029053
0.6879193186759949 -0.07360346615314484 0.6557785868644714
0.6879356503486633 -0.06856217980384827 0.6596367359161377
0.687153697013855 -0.06768403947353363 0.6597100496292114
0.6859545111656189 -0.06650126725435257 0.6596975922584534
0.6851540803909302 -0.06571725010871887 0.6596850156784058
0.680623471736908 -0.06197480484843254 0.6590837240219116
0.6799477338790894 -0.0628080815076828 0.6579326391220093
0.6742042303085327 -0.061812784522771835 0.6543104648590088
0.67338627576828 -0.058977868407964706 0.6558492183685303
0.6679909825325012 -0.05616666376590729 0.6538779139518738
0.6641828417778015 -0.060552991926670074 0.647626519203186
0.6601616740226746 -0.057781901210546494 0.6466730237007141
0.6563221216201782 -0.05789691209793091 0.6436561346054077
0.655901312828064 -0.05747611075639725 0.6436561346054077
0.6542342305183411 -0.05930015444755554 0.6409928798675537
0.7004554867744446 -0.09397383034229279 0.6489556431770325
0.698566198348999 -0.08457005023956299 0.6547040939331055
0.6960987448692322 -0.07948511838912964 0.6567067503929138
0.6900896430015564 -0.07590220123529434 0.6548504829406738
0.6885757446289062 -0.07372615486383438 0.655357301235199
0.688191831111908 -0.0682474747300148 0.6592547297477722
0.676088273525238 -0.06313756853342056 0.6539044976234436
0.6756821274757385 -0.06273147463798523 0.6539044976234436
0.6729355454444885 -0.0574764721095562 0.6558233499526978
0.6687005758285522 -0.056116487830877304 0.6536239981651306
0.6627655625343323 -0.06056051328778267 0.6456839442253113
0.661989152431488 -0.05952034145593643 0.645885705947876
0.658545970916748 -0.05653839558362961 0.6455329060554504
0.6563994288444519 -0.05822838470339775 0.6425977945327759
0.6524927020072937 -0.06551091372966766 0.6340380311012268
0.6519980430603027 -0.06527475267648697 0.6338402628898621
0.7008743286132812 -0.09585859626531601 0.6469823718070984
0.6984365582466125 -0.08372784405946732 0.6544183492660522
0.6977825164794922 -0.08192948251962662 0.6552962064743042
0.6930323243141174 -0.0765502005815506 0.6557789444923401
0.6880296468734741 -0.06763479858636856 0.6587806344032288
0.686029851436615 -0.06566756218671799 0.6587557196617126
0.6813127398490906 -0.06278014183044434 0.6573520302772522
0.6781131625175476 -0.06384410709142685 0.6540812849998474
0.6750656962394714 -0.061883099377155304 0.6532475352287292
0.6746504902839661 -0.05943780392408371 0.6548051238059998
0.674005389213562 -0.05796658620238304 0.6554387211799622
0.670322835445404 -0.05648969113826752 0.6537466049194336
0.6669467091560364 -0.05562137812376022 0.6518228054046631
0.6626352667808533 -0.059770528227090836 0.6453321576118469
0.6610689163208008 -0.057745665311813354 0.645683765411377
0.6564767956733704 -0.05856112390756607 0.6415354609489441
0.652724027633667 -0.0653507262468338 0.6334477066993713
0.6988842487335205 -0.09146036207675934 0.6479808688163757
0.6980569958686829 -0.08149517327547073 0.6550110578536987
0.6973780989646912 -0.0798875018954277 0.6557254195213318
0.6913793683052063 -0.07628337293863297 0.6538833379745483
0.6842162609100342 -0.06372319906949997 0.658035397529602
0.6838000416755676 -0.06340430676937103 0.6579605340957642
0.6813123226165771 -0.06364957243204117 0.6558579802513123
0.6800767779350281 -0.06478535383939743 0.6540336608886719
0.6796352863311768 -0.06454562395811081 0.6538783311843872
0.6783367395401001 -0.06369712948799133 0.653532087802887
0.6690948009490967 -0.05599832907319069 0.6523450613021851
0.6685820817947388 -0.05598899722099304 0.651957631111145
0.6647174954414368 -0.06060372292995453 0.6454343795776367
0.6588099002838135 -0.05684922635555267 0.6437779664993286
0.6573792695999146 -0.057983312755823135 0.6418049335479736
0.6552977561950684 -0.05938917398452759 0.639121949672699
0.7016595005989075 -0.09335601329803467 0.6478086709976196
0.7000049352645874 -0.09173444658517838 0.6477831602096558
0.6993907690048218 -0.08325925469398499 0.6538478136062622
0.6965355277061462 -0.07769676297903061 0.6559366583824158
0.6961853504180908 -0.07698407024145126 0.6562162041664124
0.6949111223220825 -0.07620025426149368 0.6558376550674438
0.6925279498100281 -0.07632031291723251 0.6539067625999451
0.6916344165802002 -0.07598613202571869 0.6534750461578369
0.6900935173034668 -0.07394235581159592 0.6538628935813904
0.6897127032279968 -0.07341210544109344 0.6539782881736755
0.6893059015274048 -0.06797762215137482 0.6578571200370789
0.6877064108848572 -0.06640239804983139 0.6578384041786194
0.6869058012962341 -0.06561809033155441 0.6578258872032166
0.6856949925422668 -0.06448926776647568 0.6577626466751099
0.6848636269569397 -0.0638522282242775 0.657612681388855
0.6803029179573059 -0.06462830305099487 0.6534953713417053
0.6755087375640869 -0.059503886848688126 0.6537503004074097
0.673078179359436 -0.05709138140082359 0.6537361741065979
0.6703143119812012 -0.0559573620557785 0.6524789333343506
0.6600498557090759 -0.056926436722278595 0.6438121795654297
0.658248782157898 -0.05750460922718048 0.641976535320282
0.6566329002380371 -0.05923008918762207 0.6393988132476807
0.6982554197311401 -0.07988763600587845 0.6547438502311707
0.690342366695404 -0.06855151802301407 0.657392144203186
0.6899434924125671 -0.06815257668495178 0.657392144203186
0.682277262210846 -0.06321880966424942 0.6552780866622925
0.677430272102356 -0.062774159014225 0.6518721580505371
0.6762537956237793 -0.061374008655548096 0.6520451903343201
0.6742475032806396 -0.05718892812728882 0.6537309885025024
0.6709185838699341 -0.056304726749658585 0.651839554309845
0.6705121994018555 -0.055898211896419525 0.651839554309845
0.6662302613258362 -0.06028624251484871 0.6451320052146912
0.6650633215904236 -0.06068264693021774 0.6439224481582642
0.6641907691955566 -0.05998494476079941 0.643787145614624
0.6638065576553345 -0.059448275715112686 0.6439050436019897
0.6626556515693665 -0.0578407347202301 0.6442583799362183
0.6539130806922913 -0.06510625034570694 0.6318734288215637
0.7002688050270081 -0.08328705281019211 0.6528370380401611
0.6995348334312439 -0.08198408782482147 0.6532784700393677
0.6943367123603821 -0.07642612606287003 0.653557538986206
0.6925197243690491 -0.07596246153116226 0.6525077223777771
0.6901822686195374 -0.06792831420898438 0.6569273471832275
0.6881822347640991 -0.06596069782972336 0.6569020748138428
0.6822800636291504 -0.06409303843975067 0.6537719964981079
0.6794134974479675 -0.0636613741517067 0.6518829464912415
0.6765786409378052 -0.060795869678258896 0.6519066691398621
0.6763672828674316 -0.05957308039069176 0.6526913046836853
0.6721240282058716 -0.05629797652363777 0.6519402265548706
0.6686607003211975 -0.05580085143446922 0.6496389508247375
0.6629178524017334 -0.05755488574504852 0.6438226103782654
0.6584397554397583 -0.05806984007358551 0.6399486660957336
0.6550720930099487 -0.06561590731143951 0.6314813494682312
0.7002676725387573 -0.09109155088663101 0.6459271311759949
0.7002124786376953 -0.08195307850837708 0.6529943346977234
0.6991332173347473 -0.0798877701163292 0.6537615060806274
0.693150520324707 -0.07623615860939026 0.6519479155540466
0.6863897442817688 -0.06392032653093338 0.6562697887420654
0.6847257018089294 -0.06264444440603256 0.6559678912162781
0.6809815764427185 -0.06415673345327377 0.6518781781196594
0.6805345416069031 -0.06394073367118835 0.6516985297203064
0.6764345169067383 -0.0579754076898098 0.6531496644020081
0.6665900349617004 -0.0603194385766983 0.6436667442321777
0.6604527235031128 -0.05739521607756615 0.6411666870117188
0.6576987504959106 -0.05931892246007919 0.6375274658203125
0.7022421360015869 -0.09198807179927826 0.6459124684333801
0.701147735118866 -0.08331488817930222 0.651825487613678
0.6982863545417786 -0.07769591361284256 0.6539769172668457
0.6966161727905273 -0.07647649943828583 0.6536252498626709
0.6942370533943176 -0.07662123441696167 0.6516562700271606
0.6934053301811218 -0.07593879848718643 0.6515395641326904
0.6918643712997437 -0.07387718558311462 0.6519458889961243
0.6914575695991516 -0.0682779997587204 0.6559972167015076
0.6910574436187744 -0.06788583099842072 0.6559909582138062
0.6898579001426697 -0.06670239567756653 0.6559783816337585
0.6890572309494019 -0.06591794639825821 0.6559656262397766
0.6878512501716614 -0.064767025411129 0.6559225916862488
0.686621367931366 -0.06373058259487152 0.6557718515396118
0.6841053366661072 -0.06190470606088638 0.6552332639694214
0.6832466721534729 -0.06366001814603806 0.6531937718391418
0.6824948787689209 -0.06488445401191711 0.6516520380973816
0.6772266030311584 -0.059642136096954346 0.6516315340995789
0.6748735904693604 -0.056900203227996826 0.6519352793693542
0.6715142726898193 -0.056127578020095825 0.6499170064926147
0.6711071133613586 -0.055720314383506775 0.6499170064926147
0.6594197154045105 -0.05782472714781761 0.6391564011573792
0.6586029529571533 -0.058736588805913925 0.6378076076507568
0.6560294032096863 -0.06553162634372711 0.6304982900619507
0.7041522860527039 -0.09332225471735 0.6455072164535522
0.7037713527679443 -0.09267386049032211 0.6457165479660034
0.7010894417762756 -0.0819803774356842 0.6519848108291626
0.7000115513801575 -0.07988802343606949 0.6527785658836365
0.692116379737854 -0.0735955536365509 0.6515247225761414
0.6787716150283813 -0.06242125853896141 0.6498265266418457
0.6783863306045532 -0.0619208924472332 0.6499165892601013
0.6781694889068604 -0.06069377809762955 0.650706946849823
0.6764442920684814 -0.057401735335588455 0.6519327759742737
0.6722221970558167 -0.0560775063931942 0.6496655344963074
0.6664279699325562 -0.06033075228333473 0.6418040990829468
0.6660427451133728 -0.05979376658797264 0.6419230699539185
0.6644718050956726 -0.05776827782392502 0.6422785520553589
0.6620922088623047 -0.05671168118715286 0.6412435173988342
0.6607230305671692 -0.05770979821681976 0.6393912434577942
0.6562620401382446 -0.06537137180566788 0.6299064755439758
0.6557202339172363 -0.06529857218265533 0.6295396089553833
0.7020269632339478 -0.08334272354841232 0.650813102722168
0.6961351037025452 -0.07618309557437897 0.6518077850341797
0.6942912936210632 -0.07591511309146881 0.650571346282959
0.6923343539237976 -0.06822867691516876 0.6550670266151428
0.684211015701294 -0.0632280632853508 0.6526166200637817
0.6821025013923645 -0.06392570585012436 0.6504150629043579
0.6807593703269958 -0.06328582018613815 0.6498632431030273
0.6780867576599121 -0.059711575508117676 0.6505707502365112
0.6704826354980469 -0.05558150261640549 0.6478447318077087
0.6686955690383911 -0.060434866696596146 0.6426346302032471
0.6659200191497803 -0.05897096171975136 0.6416055560112
0.6647339463233948 -0.05748242512345314 0.6418427228927612
0.6608203649520874 -0.05800120159983635 0.6383650898933411
0.6587675213813782 -0.05940812826156616 0.6356505751609802
0.7008902430534363 -0.07988806068897247 0.6517954468727112
0.6921724677085876 -0.06761568039655685 0.6545922756195068
0.6901720762252808 -0.0656474307179451 0.6545669436454773
0.6881317496299744 -0.0638793334364891 0.6543526649475098
0.6860549449920654 -0.06227246671915054 0.6539830565452576
0.6851596832275391 -0.06193193420767784 0.6535466313362122
0.6842203736305237 -0.06410469114780426 0.6510979533195496
0.6827327609062195 -0.06418412923812866 0.649864673614502
0.682327151298523 -0.06377874314785004 0.649864673614502
0.6750214099884033 -0.056512754410505295 0.6498333811759949
0.673634946346283 -0.05597730353474617 0.6491638422012329
0.6721124649047852 -0.05594966188073158 0.6479876637458801
0.6688776016235352 -0.0604516826570034 0.6419001221656799
0.6623660922050476 -0.05702351778745651 0.6394740343093872
0.660906195640564 -0.05833347141742706 0.6372947692871094
0.6604838371276855 -0.05791100859642029 0.6372947692871094
0.7040671706199646 -0.09182900190353394 0.6440415978431702
0.7036267518997192 -0.0916198194026947 0.6438590884208679
0.7033118605613708 -0.08377553522586823 0.6498002409934998
0.7022392749786377 -0.08157287538051605 0.6506919860839844
0.7000865340232849 -0.07738294452428818 0.6522992849349976
0.6984077095985413 -0.07623607665300369 0.6518796682357788
0.6960455775260925 -0.07635270804166794 0.6499237418174744
0.6955828070640564 -0.07629665732383728 0.6496027708053589
0.6952053904533386 -0.07572560012340546 0.6497557163238525
0.6887789964675903 -0.06400827318429947 0.6539302468299866
0.6883639097213745 -0.06368951499462128 0.6538543701171875
0.6842826008796692 -0.06473580002784729 0.649808406829834
0.6784602999687195 -0.05758067965507507 0.650860071182251
0.6761907339096069 -0.05661142244935036 0.6498340964317322
0.674339771270752 -0.05592740327119827 0.6489134430885315
0.6660269498825073 -0.05798163264989853 0.6407333016395569
0.7059123516082764 -0.09366463124752045 0.6431891322135925
0.7043033242225647 -0.09168478846549988 0.6434824466705322
0.7007020711898804 -0.0777396559715271 0.6516669988632202
0.6942928433418274 -0.07393483817577362 0.6496064066886902
0.6939101815223694 -0.07340416312217712 0.6497235298156738
0.6934499144554138 -0.06795869022607803 0.6536680459976196
0.6918497085571289 -0.06638263165950775 0.6536489129066467
0.6914493441581726 -0.06599027663469315 0.653642475605011
0.6851861476898193 -0.0636710599064827 0.6505218148231506
0.6809774041175842 -0.06266240775585175 0.6479897499084473
0.6796730160713196 -0.05961448326706886 0.6493694186210632
0.6740350723266602 -0.05585889890789986 0.647879958152771
0.6686663627624512 -0.06067688763141632 0.6398198008537292
0.6678626537322998 -0.05972196161746979 0.6399393081665039
0.6644164323806763 -0.0567595548927784 0.6395565271377563
0.6626414060592651 -0.05733690410852432 0.6376951932907104
0.6610789895057678 -0.05900184065103531 0.6351415514945984
0.6581775546073914 -0.06520289182662964 0.627938985824585
0.6576809883117676 -0.06498303264379501 0.6277202367782593
0.704192578792572 -0.08380356431007385 0.6487866044044495
0.7031171917915344 -0.08160006999969482 0.6496816873550415
0.7024334073066711 -0.07993216067552567 0.6504624485969543
0.6960914731025696 -0.0757017657160759 0.6487870812416077
0.6865344643592834 -0.06276954710483551 0.6514652967453003
0.6821070313453674 -0.06290967017412186 0.6478409767150879
0.6804376244544983 -0.0614817850291729 0.6476494669914246
0.6802154183387756 -0.060255806893110275 0.648445725440979
0.6793212294578552 -0.057635530829429626 0.6498153805732727
0.6751472353935242 -0.056215688586235046 0.6476300358772278
0.6705639958381653 -0.060151174664497375 0.6408704519271851
0.668510913848877 -0.05997258052229881 0.6393831968307495
0.6669682264328003 -0.057826925069093704 0.6398617625236511
0.707207977771759 -0.09424959868192673 0.6420275568962097
