ply
format ascii 1.0
element vertex 818
property float x
property float y
property float z
end_header
0.614869236946106 -0.12016692012548447 0.6707873940467834
0.6162707805633545 -0.12051340192556381 0.6707065105438232
0.6036459803581238 -0.10989063233137131 0.6655591130256653
0.6038020849227905 -0.11080647259950638 0.6661379337310791
0.6078999042510986 -0.11643710732460022 0.6689942479133606
0.6098217368125916 -0.11826738715171814 0.6697911620140076
0.6123315691947937 -0.12038655579090118 0.6706502437591553
0.6151874661445618 -0.12204596400260925 0.6711242198944092
0.6165152192115784 -0.12247689068317413 0.6711165904998779
0.6032437086105347 -0.11061374843120575 0.6652696132659912
0.6037096381187439 -0.11223283410072327 0.6662529706954956
0.6053577065467834 -0.1144838035106659 0.6673964858055115
0.6100943088531494 -0.12023554742336273 0.6701996326446533
0.6125866770744324 -0.1223502904176712 0.6710625290870667
0.6160503625869751 -0.12426762282848358 0.6715749502182007
0.6030982136726379 -0.11211512982845306 0.6654489636421204
0.6056284308433533 -0.11650361120700836 0.6678378582000732
0.6062934994697571 -0.11672529578208923 0.6678378582000732
0.6073669195175171 -0.11857759207487106 0.6688452363014221
0.6087430119514465 -0.12002042680978775 0.669508159160614
0.6095246076583862 -0.12114636600017548 0.6700915694236755
0.61101233959198 -0.12242286652326584 0.6706174612045288
0.6130459904670715 -0.12404461950063705 0.6712534427642822
0.6145585179328918 -0.125264510512352 0.6717358827590942
0.6163333058357239 -0.126154825091362 0.6719371676445007
0.6016995310783386 -0.11080054938793182 0.6640118956565857
0.6033715009689331 -0.1141631081700325 0.66590815782547
0.6040396690368652 -0.11438583582639694 0.66590815782547
0.6062389612197876 -0.1180662214756012 0.6679002642631531
0.6079378724098206 -0.12017177045345306 0.6689406037330627
0.6093770265579224 -0.12257446348667145 0.670240581035614
0.6112673878669739 -0.12437552213668823 0.6710317134857178
0.6137456893920898 -0.1264532208442688 0.6718776822090149
0.614202082157135 -0.12691327929496765 0.672086238861084
0.6160315871238708 -0.1277259737253189 0.6722232103347778
0.616573691368103 -0.12807808816432953 0.6723390817642212
0.6012256145477295 -0.11049071699380875 0.6630421876907349
0.6055502891540527 -0.11806376278400421 0.6671989560127258
0.6082183718681335 -0.12212392687797546 0.6693490743637085
0.6099118590354919 -0.12418146431446075 0.6703609824180603
0.6135464310646057 -0.12790627777576447 0.6720651984214783
0.6141986846923828 -0.1281237006187439 0.6720651984214783
0.6174629330635071 -0.13020464777946472 0.6727384328842163
0.6181164383888245 -0.13041816651821136 0.6727355122566223
0.6009997129440308 -0.11210952699184418 0.6633256077766418
0.6037276983261108 -0.11626879870891571 0.6655356287956238
0.6040027737617493 -0.11700350046157837 0.6659728288650513
0.6058179140090942 -0.12006014585494995 0.667639970779419
0.6074275374412537 -0.12226016819477081 0.6687713861465454
0.6084966063499451 -0.12406202405691147 0.6697543263435364
0.6101641654968262 -0.12612903118133545 0.6707819104194641
0.6124241352081299 -0.12845562398433685 0.6718518733978271
0.6128653883934021 -0.12892907857894897 0.6720735430717468
0.6144437789916992 -0.13003286719322205 0.6724667549133301
0.6176972389221191 -0.13209983706474304 0.6731346845626831
0.5490338206291199 -0.12331651151180267 0.681918203830719
0.5494419932365417 -0.12388186901807785 0.6822108626365662
0.5500677824020386 -0.12409047037363052 0.6822108626365662
0.5528692007064819 -0.1244463175535202 0.6818170547485352
0.5550039410591125 -0.12346004694700241 0.6806588172912598
0.600409984588623 -0.11082391440868378 0.6617158055305481
0.6019426584243774 -0.11439207196235657 0.6638014912605286
0.6039923429489136 -0.11829326301813126 0.6659960746765137
0.6076869964599609 -0.12422475218772888 0.6692021489143372
0.6094104647636414 -0.12622441351413727 0.670174241065979
0.6110915541648865 -0.12824806571006775 0.6711723208427429
0.6129377484321594 -0.13004142045974731 0.6719757318496704
0.6133202910423279 -0.13058187067508698 0.6722572445869446
0.6153346300125122 -0.13214442133903503 0.6728652715682983
0.618040919303894 -0.1338508427143097 0.673413872718811
0.6185762882232666 -0.1341966688632965 0.6735280156135559
0.5474409461021423 -0.12359996140003204 0.68166583776474
0.5477216243743896 -0.1243765652179718 0.6821331977844238
0.5481922030448914 -0.12483761459589005 0.682341456413269
0.5504117608070374 -0.1261170208454132 0.6827104091644287
0.5523131489753723 -0.12668998539447784 0.682668924331665
0.5999928116798401 -0.11157169938087463 0.6614522933959961
0.6039817929267883 -0.11957737058401108 0.6660195589065552
0.6057595014572144 -0.12264364212751389 0.6677122116088867
0.6064177751541138 -0.12286306172609329 0.6677122116088867
0.6085989475250244 -0.1263921707868576 0.6696290373802185
0.609662652015686 -0.12815871834754944 0.6705952286720276
0.6113627552986145 -0.13013583421707153 0.6715600490570068
0.6135637164115906 -0.13247735798358917 0.6726599335670471
0.6031348705291748 -0.14599420130252838 0.6842859387397766
0.603754460811615 -0.1462007313966751 0.6842859387397766
0.6155739426612854 -0.1340256780385971 0.6732608675956726
0.6160144209861755 -0.1344836950302124 0.6734738945960999
0.6188052892684937 -0.1360643059015274 0.6739189028739929
0.5457887649536133 -0.12398803234100342 0.681501030921936
0.5464134812355042 -0.12419629096984863 0.681501030921936
0.5482043027877808 -0.12618586421012878 0.6824564933776855
0.5514726042747498 -0.12817677855491638 0.6830751895904541
0.5521097183227539 -0.1283581703901291 0.6830539107322693
0.5546116828918457 -0.12797434628009796 0.6822183132171631
0.5552346706390381 -0.128182053565979 0.6822183132171631
0.5996269583702087 -0.1122494488954544 0.6611308455467224
0.6016523838043213 -0.11625608056783676 0.6634170413017273
0.6025965809822083 -0.11721359938383102 0.6638579368591309
0.603698194026947 -0.12013186514377594 0.6656085252761841
0.6043599247932434 -0.12035244703292847 0.6656085252761841
0.606393039226532 -0.12413786351680756 0.6677412390708923
0.6072626709938049 -0.12618017196655273 0.6689437627792358
0.5949695706367493 -0.1484723538160324 0.6870529651641846
0.5966187715530396 -0.14835958182811737 0.6865982413291931
0.5981602668762207 -0.14838454127311707 0.6862627863883972
0.5990912318229675 -0.14820463955402374 0.6859264969825745
0.6000244617462158 -0.14802442491054535 0.6855894327163696
0.6009536981582642 -0.14785149693489075 0.685258150100708
0.6023935079574585 -0.1480134278535843 0.6850398778915405
0.6042945384979248 -0.14763019979000092 0.6843420267105103
0.6055151224136353 -0.1471223086118698 0.6837143898010254
0.606741189956665 -0.14661210775375366 0.6830837726593018
0.6085954904556274 -0.14630699157714844 0.6824502348899841
0.6102287769317627 -0.1453312635421753 0.6814071536064148
0.6185009479522705 -0.13757681846618652 0.6741935014724731
0.6196741461753845 -0.13813258707523346 0.6743068099021912
0.5448927879333496 -0.12436958402395248 0.6811603903770447
0.5468299388885498 -0.12612284719944 0.6819227933883667
0.5472967624664307 -0.12658536434173584 0.6821340322494507
0.5493137240409851 -0.12817499041557312 0.6827653646469116
0.5519079566001892 -0.13001467287540436 0.683436393737793
0.552543044090271 -0.13019511103630066 0.6834148168563843
0.5546900033950806 -0.13036127388477325 0.6830366253852844
0.5998573303222656 -0.11437752842903137 0.661672830581665
0.6005268096923828 -0.11460068821907043 0.661672830581665
0.6025892496109009 -0.11850424855947495 0.663886308670044
0.6058186292648315 -0.12400111556053162 0.6669288873672485
0.5903533697128296 -0.1495751142501831 0.6880790591239929
0.5910907983779907 -0.14961692690849304 0.6879386901855469
0.5925677418708801 -0.14970071613788605 0.6876576542854309
0.604832112789154 -0.14905297756195068 0.6843979358673096
0.606669008731842 -0.1487555205821991 0.683771550655365
0.6080047488212585 -0.14812231063842773 0.6830295920372009
0.6097135543823242 -0.14705845713615417 0.6819051504135132
0.612062394618988 -0.14619380235671997 0.6807711124420166
0.6138032078742981 -0.1451127827167511 0.6796277761459351
0.6154155731201172 -0.14418771862983704 0.6786211133003235
0.5439981818199158 -0.12475096434354782 0.6808207631111145
0.5454630255699158 -0.12604793906211853 0.6813793182373047
0.5479480028152466 -0.12810465693473816 0.6822271347045898
0.5529571175575256 -0.13204500079154968 0.6837949156761169
0.5542953014373779 -0.13229314982891083 0.6836579442024231
0.5565721392631531 -0.13109524548053741 0.6823073029518127
0.5987259745597839 -0.11270013451576233 0.6599077582359314
0.6013637185096741 -0.11810950189828873 0.6630351543426514
0.6040656566619873 -0.12217976152896881 0.665223240852356
0.5868834853172302 -0.15025079250335693 0.6885561943054199
0.588211715221405 -0.15050800144672394 0.6884282231330872
0.5900588631629944 -0.15107806026935577 0.6883965134620667
0.5921356678009033 -0.15136532485485077 0.6881169080734253
0.5928722023963928 -0.15140804648399353 0.6879769563674927
0.5944033861160278 -0.15142551064491272 0.6876365542411804
0.5968498587608337 -0.15127959847450256 0.6869729161262512
0.5985623598098755 -0.15109218657016754 0.6864494681358337
0.6008040308952332 -0.1512148231267929 0.6860182881355286
0.6016214489936829 -0.15117430686950684 0.6858022212982178
0.6024401187896729 -0.15113356709480286 0.685585618019104
0.6047694087028503 -0.15116998553276062 0.6850747466087341
0.611417829990387 -0.1480589210987091 0.6813971996307373
0.6144726872444153 -0.14639593660831451 0.6795462965965271
0.6160157322883606 -0.14555570483207703 0.6786110997200012
0.5439376831054688 -0.12623772025108337 0.68105548620224
0.5464218258857727 -0.1282976120710373 0.6819084286689758
0.548890233039856 -0.13034464418888092 0.6827563643455505
0.5513430237770081 -0.13237877190113068 0.6835986971855164
0.5528709888458252 -0.13349351286888123 0.6840177774429321
0.5540153384208679 -0.13403603434562683 0.6841292977333069
0.5547719597816467 -0.13402187824249268 0.683944821357727
0.5562477707862854 -0.13405601680278778 0.6836282014846802
0.5577303767204285 -0.13293813169002533 0.682511568069458
0.5975168943405151 -0.11224900186061859 0.6590030193328857
0.6001884341239929 -0.11653535813093185 0.6613543629646301
0.6022989749908447 -0.12034407258033752 0.6635044813156128
0.6035099029541016 -0.12201080471277237 0.6643792390823364
0.6043263077735901 -0.1241631954908371 0.6656808853149414
0.5841824412345886 -0.1509459763765335 0.6888755559921265
0.5886212587356567 -0.15208905935287476 0.6886424422264099
0.590498149394989 -0.15261416137218475 0.6885729432106018
0.5925696492195129 -0.1529022604227066 0.6882942914962769
0.5942215323448181 -0.15276804566383362 0.6878200769424438
0.596574068069458 -0.15273040533065796 0.6872510313987732
0.5981923341751099 -0.15265220403671265 0.6868234276771545
0.6004253029823303 -0.1527770608663559 0.6863943934440613
0.6020550727844238 -0.15269868075847626 0.6859639883041382
0.6043015122413635 -0.15282393991947174 0.6855320930480957
0.6069028973579407 -0.1516309529542923 0.6841057538986206
0.6090077757835388 -0.15103016793727875 0.6832037568092346
0.6105082631111145 -0.1502189338207245 0.6822957396507263
0.6120190024375916 -0.14940226078033447 0.6813817024230957
0.6141630411148071 -0.14878755807876587 0.6804611086845398
0.6178837418556213 -0.14639906585216522 0.6779486536979675
0.5416820049285889 -0.12515032291412354 0.6800157427787781
0.5450522303581238 -0.12823699414730072 0.6813792586326599
0.5475252270698547 -0.13028259575366974 0.6822270750999451
0.5499822497367859 -0.13231627643108368 0.6830710172653198
0.5524234175682068 -0.13433748483657837 0.68390953540802
0.5528780221939087 -0.13478976488113403 0.6841183304786682
0.5550544857978821 -0.13603202998638153 0.6844772696495056
0.5977880358695984 -0.11433570832014084 0.6595165133476257
0.598157525062561 -0.11496502161026001 0.6598678827285767
0.5988606214523315 -0.11626355350017548 0.660606861114502
0.6004414558410645 -0.11859609931707382 0.6618607640266418
0.6017087697982788 -0.12021318078041077 0.6626904606819153
0.6025674343109131 -0.12234213203191757 0.663970410823822
0.5821080207824707 -0.15182779729366302 0.6891845464706421
0.5834409594535828 -0.15206393599510193 0.6890400052070618
0.584043025970459 -0.15226463973522186 0.6890400052070618
0.5860413908958435 -0.15262453258037567 0.6888275146484375
0.5902162790298462 -0.15408357977867126 0.6888740658760071
0.5922690033912659 -0.15438662469387054 0.6886094212532043
0.5946059226989746 -0.15435191988945007 0.6880443692207336
0.5954086184501648 -0.1543142944574356 0.6878322958946228
0.5962127447128296 -0.1542767733335495 0.687620222568512
0.5984309911727905 -0.1544034779071808 0.6871947646141052
0.6000491380691528 -0.15432824194431305 0.6867676973342896
0.6025557518005371 -0.15413355827331543 0.6860523819923401
0.6063872575759888 -0.15333040058612823 0.6846073269844055
0.6085554361343384 -0.1526535600423813 0.683635413646698
0.6132373809814453 -0.1509464979171753 0.6813659071922302
0.6147595047950745 -0.1501312106847763 0.6804474592208862
0.6162921190261841 -0.14931021630764008 0.6795225143432617
0.5408589243888855 -0.12541647255420685 0.6795830130577087
0.5411353707313538 -0.12621033191680908 0.6800717115402222
0.5435311794281006 -0.12842833995819092 0.6810605525970459
0.5455417037010193 -0.1300169825553894 0.681700587272644
0.5460046529769897 -0.13047504425048828 0.6819121241569519
0.5504528284072876 -0.13407082855701447 0.6833838224411011
0.552885115146637 -0.13607949018478394 0.6842184066772461
0.5563232898712158 -0.13765615224838257 0.6845182776451111
0.558154284954071 -0.13714905083179474 0.6837399005889893
0.5848739147186279 -0.11052386462688446 0.6589891910552979
0.5863558053970337 -0.11194893717765808 0.6596377491950989
0.5866230130195618 -0.11274367570877075 0.6601292490959167
0.5957056283950806 -0.11280056089162827 0.6580597758293152
0.5979881286621094 -0.11649888008832932 0.6601060628890991
0.5997533798217773 -0.11858850717544556 0.6611517071723938
0.6010538339614868 -0.1201663389801979 0.6619489789009094
0.6019541025161743 -0.12224633246660233 0.6631886959075928
0.5796692967414856 -0.15221653878688812 0.689240038394928
0.5802696347236633 -0.1524166613817215 0.689240038394928
0.5864549875259399 -0.15419024229049683 0.6890392899513245
0.5882318019866943 -0.15482279658317566 0.6890672445297241
0.6009711027145386 -0.15434235334396362 0.6857746839523315
0.6026458144187927 -0.15421178936958313 0.6852948665618896
0.6058679223060608 -0.15320448577404022 0.683845043182373
0.6064807176589966 -0.15340875089168549 0.683845043182373
0.6108368039131165 -0.15204958617687225 0.6818867325782776
0.6158796548843384 -0.1508772075176239 0.6798992156982422
0.6165015697479248 -0.15108449757099152 0.6798992156982422
0.5402817726135254 -0.1265309900045395 0.6796866059303284
0.547104001045227 -0.13244543969631195 0.6822300553321838
0.5490953326225281 -0.13401097059249878 0.6828603148460388
0.5515317916870117 -0.13601873815059662 0.6836954951286316
0.5539529919624329 -0.1380140483379364 0.6845256090164185
0.5544037222862244 -0.13846012949943542 0.6847324371337891
0.5565420389175415 -0.13972248136997223 0.6851164102554321
0.5586882829666138 -0.1387423723936081 0.6839317679405212
0.5766253471374512 -0.11319740116596222 0.661906898021698
0.5776234269142151 -0.11411913484334946 0.6623184084892273
0.5782930850982666 -0.11551535129547119 0.663138210773468
0.578698992729187 -0.1161043718457222 0.6634548902511597
0.5800425410270691 -0.11650434881448746 0.6634215712547302
0.5821513533592224 -0.1169712245464325 0.6632568836212158
0.5838252305984497 -0.11805930733680725 0.6636271476745605
0.5845584273338318 -0.11817232519388199 0.6635352373123169
0.5860919952392578 -0.11830542236566544 0.6632711291313171
0.5889805555343628 -0.1176954135298729 0.6621720194816589
0.5903454422950745 -0.11694106459617615 0.6613271832466125
0.5923833847045898 -0.11640417575836182 0.6604774594306946
0.5937444567680359 -0.11567096412181854 0.6596481204032898
0.594593346118927 -0.11564499884843826 0.6594324707984924
0.5959525108337402 -0.11605733633041382 0.6594039797782898
0.5964311957359314 -0.11653532087802887 0.6596262454986572
0.5978196263313293 -0.11802349239587784 0.6603427529335022
0.5995804667472839 -0.12010183930397034 0.661384642124176
0.5778408050537109 -0.15280300378799438 0.6892951130867004
0.5806783437728882 -0.15400302410125732 0.6894727945327759
0.582568883895874 -0.15448108315467834 0.6893665194511414
0.5844866037368774 -0.15492725372314453 0.6892315149307251
0.5880387425422668 -0.15617771446704865 0.6892779469490051
0.5904373526573181 -0.15697316825389862 0.6892750859260559
0.592067539691925 -0.15684907138347626 0.6888086199760437
0.5941409468650818 -0.15619829297065735 0.6878711581230164
0.5989391207695007 -0.15508493781089783 0.6859759092330933
0.6098381876945496 -0.15246926248073578 0.6816100478172302
0.6188457012176514 -0.15046624839305878 0.6781128644943237
0.5394294261932373 -0.12685103714466095 0.679301917552948
0.5409409403800964 -0.12806262075901031 0.6797981262207031
0.5413849949836731 -0.1285637617111206 0.680045485496521
0.5427126288414001 -0.130061075091362 0.6807845830917358
0.5451288819313049 -0.13218064606189728 0.6817055940628052
0.5462048649787903 -0.13283994793891907 0.6819162368774414
0.5475831031799316 -0.13419874012470245 0.6825463175773621
0.5519938468933105 -0.13775081932544708 0.6840053200721741
0.5548545718193054 -0.140177384018898 0.68503737449646
0.5563569068908691 -0.14126364886760712 0.6854476928710938
0.5584519505500793 -0.14146247506141663 0.6850978136062622
0.5762463808059692 -0.1175011619925499 0.6641499400138855
0.5766692757606506 -0.11805988103151321 0.6644426584243774
0.5783390402793884 -0.11914107203483582 0.6648102402687073
0.5801395773887634 -0.12002572417259216 0.6650097966194153
0.582233726978302 -0.12048886716365814 0.6648451685905457
0.5843440890312195 -0.1209331527352333 0.6646633744239807
0.5867299437522888 -0.12099909782409668 0.6641524434089661
0.5876396894454956 -0.12086517363786697 0.6638460755348206
0.5882957577705383 -0.12108386307954788 0.6638460755348206
0.5902307033538818 -0.12066706269979477 0.6631019711494446
0.5916157364845276 -0.11989297717809677 0.6622360348701477
0.5929848551750183 -0.11914676427841187 0.6613932847976685
0.5949968695640564 -0.11865647882223129 0.6605796813964844
0.5776975154876709 -0.1541353315114975 0.6894828081130981
0.5782559514045715 -0.15438467264175415 0.6895270943641663
0.5837157964706421 -0.1560685932636261 0.6894317865371704
0.584304928779602 -0.15627817809581757 0.6894409656524658
0.5860802531242371 -0.15689632296562195 0.6894593834877014
0.5931844115257263 -0.15660305321216583 0.6875945925712585
0.5979703068733215 -0.15549415349960327 0.685699462890625
0.6028261184692383 -0.15436889231204987 0.6837767958641052
0.607752799987793 -0.15322725474834442 0.6818258762359619
0.6127521991729736 -0.15206877887248993 0.6798462271690369
0.613858699798584 -0.15172483026981354 0.6793469190597534
0.6178264021873474 -0.150892972946167 0.6778372526168823
0.6189503073692322 -0.150544211268425 0.6773301959037781
0.6200788021087646 -0.1501939445734024 0.6768213510513306
0.6212111711502075 -0.14984245598316193 0.6763105392456055
0.5394711494445801 -0.12817464768886566 0.6794144511222839
0.5418635606765747 -0.1303768903017044 0.6804013848304749
0.5438006520271301 -0.13206921517848969 0.6811372637748718
0.5486702919006348 -0.13614414632320404 0.6828604340553284
0.5510978102684021 -0.13813693821430206 0.683692455291748
0.5535104274749756 -0.14011722803115845 0.6845189332962036
0.5559081435203552 -0.1420852243900299 0.6853403449058533
0.5563544034957886 -0.14252425730228424 0.685544490814209
0.5580621957778931 -0.14328764379024506 0.6856808066368103
0.560345470905304 -0.14211897552013397 0.6843246817588806
0.5758017301559448 -0.12066473811864853 0.6656239628791809
0.5764523148536682 -0.12088161706924438 0.6656239628791809
0.5782802700996399 -0.12171058356761932 0.6657788753509521
0.5795391201972961 -0.1222035363316536 0.665830135345459
0.5801475644111633 -0.1224796324968338 0.6658816933631897
0.5821086168289185 -0.12311415374279022 0.6658682823181152
0.5842068791389465 -0.12355757504701614 0.6656884551048279
0.5863078236579895 -0.1240013837814331 0.665507972240448
0.5880132913589478 -0.12388230115175247 0.6650246977806091
0.590487003326416 -0.12383219599723816 0.6644101142883301
0.5928714871406555 -0.12281543761491776 0.6631364822387695
0.5942385792732239 -0.12208002060651779 0.6622995138168335
0.5955759286880493 -0.12139064818620682 0.6615015864372253
0.596235990524292 -0.12161067128181458 0.6615015864372253
0.5742630362510681 -0.15389679372310638 0.6893419623374939
0.574776291847229 -0.154204860329628 0.6894382238388062
0.5792638063430786 -0.15615525841712952 0.689757764339447
0.5805152058601379 -0.15647505223751068 0.6896894574165344
0.585307240486145 -0.15802866220474243 0.6896586418151855
0.5875234603881836 -0.15809664130210876 0.6891870498657227
0.5905970335006714 -0.15713106095790863 0.6877884268760681
0.5953506827354431 -0.15602903068065643 0.6859001517295837
0.6001732349395752 -0.15491099655628204 0.6839843988418579
0.6111298203468323 -0.15228353440761566 0.6795709133148193
0.6213181018829346 -0.14992013573646545 0.6755227446556091
0.6219460964202881 -0.15012945234775543 0.6755227446556091
0.6230849623680115 -0.14977692067623138 0.6750081181526184
0.6242284178733826 -0.14942307770252228 0.6744914650917053
0.5371625423431396 -0.1271904557943344 0.6784560084342957
0.5405734181404114 -0.13019528985023499 0.6797725558280945
0.5448813438415527 -0.13406378030776978 0.6814875602722168
0.5473187565803528 -0.13608418405056 0.6823391914367676
0.5497502684593201 -0.1380767524242401 0.6831722855567932
0.5515592694282532 -0.13985474407672882 0.6840006709098816
0.5573998093605042 -0.14441576600074768 0.6858434677124023
0.5578431487083435 -0.14485125243663788 0.6860463619232178
0.5585101246833801 -0.14495794475078583 0.685964822769165
0.5602286458015442 -0.1446148157119751 0.6853190660476685
0.5759088397026062 -0.12299340218305588 0.6663923263549805
0.5764539837837219 -0.12335728108882904 0.6665210127830505
0.5783131718635559 -0.1241220161318779 0.6666233539581299
0.5801296234130859 -0.12494464963674545 0.6667762994766235
0.5820351243019104 -0.12563906610012054 0.6668179631233215
0.5833560228347778 -0.12603160738945007 0.6667843461036682
0.5840708613395691 -0.12615230679512024 0.6667013764381409
0.5861601233482361 -0.12659530341625214 0.6665228605270386
0.5883820652961731 -0.12686237692832947 0.6661889553070068
0.5892833471298218 -0.12673600018024445 0.6658880710601807
0.5901901721954346 -0.12660488486289978 0.6655825972557068
0.5920136570930481 -0.12633579969406128 0.6649643778800964
0.5941131114959717 -0.12570951879024506 0.6640294194221497
0.5731326341629028 -0.15457001328468323 0.6893046498298645
0.5763015151023865 -0.15628226101398468 0.6897672414779663
0.5816018581390381 -0.15812353789806366 0.6898196935653687
0.5821876525878906 -0.15833184123039246 0.6898287534713745
0.5886223912239075 -0.15785536170005798 0.6879808902740479
0.5992001891136169 -0.1553216427564621 0.6837091445922852
0.6040809154510498 -0.15419147908687592 0.6817655563354492
0.605158805847168 -0.1538551300764084 0.6812750697135925
0.6090335249900818 -0.15304455161094666 0.6797931790351868
0.6140596270561218 -0.15188086032867432 0.6777920126914978
0.6191604733467102 -0.15069971978664398 0.6757606863975525
0.6220537424087524 -0.15020714700222015 0.6747334003448486
0.6243382096290588 -0.14950066804885864 0.6736987233161926
0.5364041328430176 -0.12735332548618317 0.6779412627220154
0.5374153256416321 -0.12815843522548676 0.6782719492912292
0.539110004901886 -0.1303052455186844 0.6793903708457947
0.5414942502975464 -0.13249073922634125 0.6803736090660095
0.5434243083000183 -0.13417071104049683 0.6811067461967468
0.5458146929740906 -0.13626912236213684 0.6820270419120789
0.5506675243377686 -0.14023736119270325 0.6836891174316406
0.5530714392662048 -0.14220304787158966 0.6845123767852783
0.5554608702659607 -0.14415624737739563 0.6853302121162415
0.5578338503837585 -0.14609992504119873 0.6861451864242554
0.5582693219184875 -0.1465415209531784 0.6863548159599304
0.5607442855834961 -0.14617176353931427 0.6855099201202393
0.5759773254394531 -0.12535406649112701 0.6672006249427795
0.5765184760093689 -0.12571671605110168 0.6673297882080078
0.5777027010917664 -0.12629327178001404 0.6674581170082092
0.5783047676086426 -0.12656696140766144 0.6675096750259399
0.5801529884338379 -0.12732629477977753 0.6676110625267029
0.5819964408874512 -0.12808972597122192 0.6677162051200867
0.5826534032821655 -0.1282850056886673 0.6676995754241943
0.5846104621887207 -0.1288902461528778 0.6676660776138306
0.5860142111778259 -0.1291600614786148 0.6675263047218323
0.5881023406982422 -0.12959124147891998 0.6673389673233032
0.5708998441696167 -0.15473581850528717 0.6891717314720154
0.5735418200492859 -0.15615899860858917 0.6895551681518555
0.5741351842880249 -0.1563567817211151 0.6895551681518555
0.5773101449012756 -0.1580382138490677 0.6899957656860352
0.5778640508651733 -0.15828485786914825 0.6900396347045898
0.578417956829071 -0.1585313081741333 0.6900834441184998
0.580261766910553 -0.15903837978839874 0.6900073885917664
0.5870801210403442 -0.1580568552017212 0.6877063512802124
0.5917901992797852 -0.15696562826633453 0.6858248114585876
0.592392086982727 -0.1571662575006485 0.6858248114585876
0.5965683460235596 -0.15585878491401672 0.6839162111282349
0.5971744656562805 -0.1560608595609665 0.6839162111282349
0.6014158129692078 -0.15473578870296478 0.6819796562194824
0.6020264625549316 -0.15493933856487274 0.6819796562194824
0.6130508184432983 -0.15230341255664825 0.6775177121162415
0.6163914799690247 -0.15126657485961914 0.6759973168373108
0.6215329766273499 -0.15007533133029938 0.6739432215690613
0.6221619248390198 -0.15028499066829681 0.6739432215690613
0.6233028769493103 -0.14993233978748322 0.6734249591827393
0.6267521381378174 -0.14886625111103058 0.6718582510948181
0.6285455822944641 -0.14871980249881744 0.6713322401046753
0.5356478095054626 -0.12751299142837524 0.6774237155914307
0.5359993577003479 -0.12818312644958496 0.6778156161308289
0.5402091145515442 -0.13231037557125092 0.6797474026679993
0.5445017218589783 -0.1361500471830368 0.681455671787262
0.5469029545783997 -0.13819940388202667 0.682341456413269
0.5493255257606506 -0.14017733931541443 0.6831713318824768
0.5517332553863525 -0.14214283227920532 0.6839960217475891
0.5565053224563599 -0.1460362821817398 0.6856290698051453
0.5593017935752869 -0.14840537309646606 0.6866480708122253
0.5766860842704773 -0.12790556252002716 0.6680011749267578
0.5772244334220886 -0.12826499342918396 0.6681289672851562
0.5782991647720337 -0.12898311018943787 0.6683842539787292
0.5801351070404053 -0.129741370677948 0.6684877276420593
0.5807338953018188 -0.13001172244548798 0.668537974357605
0.5825982093811035 -0.13072781264781952 0.6686052083969116
0.5845587849617004 -0.13131143152713776 0.668555498123169
0.5865095257759094 -0.13190941512584686 0.6685185432434082
0.5698118209838867 -0.15536223351955414 0.689096987247467
0.5714142322540283 -0.15619060397148132 0.68930584192276
0.5750492811203003 -0.1582394242286682 0.6898995041847229
0.5795117020606995 -0.1601553112268448 0.6902031898498535
0.5851230025291443 -0.15877579152584076 0.6878983974456787
0.588778555393219 -0.15801496803760529 0.686494767665863
0.5956026911735535 -0.15626679360866547 0.6836419701576233
0.6053442358970642 -0.1540127396583557 0.6797406673431396
0.6064282655715942 -0.15367509424686432 0.679245114326477
0.6103230714797974 -0.15286068618297577 0.6777470111846924
0.6142610907554626 -0.15203747153282166 0.6762323379516602
0.6153755784034729 -0.15169158577919006 0.6757235527038574
0.6257095336914062 -0.1493004411458969 0.6715849041938782
0.6298420429229736 -0.14841943979263306 0.6699833273887634
0.5360673666000366 -0.12946894764900208 0.6779054403305054
0.537114679813385 -0.13020023703575134 0.6781771779060364
0.538992702960968 -0.13201341032981873 0.6790215969085693
0.5406885743141174 -0.13409779965877533 0.6801022291183472
0.5430508255958557 -0.13625489175319672 0.6810762286186218
0.5454055070877075 -0.13838163018226624 0.6820306181907654
0.5478306412696838 -0.14035706222057343 0.6828606724739075
0.5517418384552002 -0.14339803159236908 0.6840962171554565
0.5526359677314758 -0.1442716270685196 0.6845055818557739
0.5550169944763184 -0.14621032774448395 0.6853201389312744
0.5573775768280029 -0.14814533293247223 0.6861366629600525
0.5597308874130249 -0.1500582993030548 0.6869394183158875
0.5603277087211609 -0.15025725960731506 0.6869394183158875
0.5623664855957031 -0.1494590789079666 0.6858883500099182
0.5767499804496765 -0.13021919131278992 0.6687935590744019
0.5784578323364258 -0.13114485144615173 0.6690471172332764
0.5801174640655518 -0.13213129341602325 0.6693552136421204
0.582556962966919 -0.13312654197216034 0.6694847941398621
0.5692731142044067 -0.15624643862247467 0.6890785694122314
0.5723807215690613 -0.1580135077238083 0.689598560333252
0.5749760270118713 -0.15946140885353088 0.69001305103302
0.5765652656555176 -0.1602819710969925 0.6902199387550354
0.5779967904090881 -0.16035372018814087 0.6899315118789673
0.578586757183075 -0.16055040061473846 0.6899315118789673
0.5888568162918091 -0.15809495747089386 0.6857501864433289
0.5898849368095398 -0.15777280926704407 0.6852773427963257
0.5935952663421631 -0.15700042247772217 0.6838483810424805
0.5984021425247192 -0.15589012205600739 0.6819189786911011
0.603279173374176 -0.1547636091709137 0.6799613833427429
0.6082284450531006 -0.15362043678760529 0.6779751181602478
0.6132506132125854 -0.152460515499115 0.6759592890739441
0.6143620610237122 -0.15211579203605652 0.6754505634307861
0.6183478236198425 -0.15128301084041595 0.6739132404327393
0.6235217452049255 -0.15008793771266937 0.6718365550041199
0.6311737895011902 -0.1480875313282013 0.6685996055603027
0.5336448550224304 -0.12739984691143036 0.6761977672576904
0.5357041358947754 -0.13022427260875702 0.6777229309082031
0.5363206267356873 -0.13042975962162018 0.6777229309082031
0.5398690700531006 -0.13437293469905853 0.6796920895576477
0.5402924418449402 -0.1348894238471985 0.6799600124359131
0.5417747497558594 -0.13607662916183472 0.6804541945457458
0.5441253781318665 -0.13821929693222046 0.6814239621162415
0.5489044189453125 -0.14226029813289642 0.6831700801849365
0.551303505897522 -0.14421126246452332 0.6839914321899414
0.5517504811286926 -0.14464712142944336 0.6841962933540344
0.5536878108978271 -0.14615049958229065 0.6848078370094299
0.5560585856437683 -0.14807607233524323 0.6856178045272827
0.5628721117973328 -0.1509895622730255 0.6860761642456055
0.5774481296539307 -0.13272199034690857 0.6695784330368042
0.5785128474235535 -0.13342943787574768 0.6698300242424011
0.5802093744277954 -0.13434700667858124 0.6700811982154846
0.5666358470916748 -0.15598298609256744 0.6887431740760803
0.5672273635864258 -0.15618015825748444 0.6887431740760803
0.570835530757904 -0.15826381742954254 0.6893717646598816
0.5739300847053528 -0.16002124547958374 0.6898893117904663
0.5744298696517944 -0.16033272445201874 0.6899929046630859
0.5755176544189453 -0.16083994507789612 0.6900959610939026
0.5806488990783691 -0.1600044220685959 0.6882798075675964
0.5816505551338196 -0.15968914330005646 0.6878167986869812
0.5826557278633118 -0.15937300026416779 0.6873522996902466
0.5862902402877808 -0.15861721336841583 0.6859487295150757
0.5968239903450012 -0.156096950173378 0.6816461086273193
0.6016842126846313 -0.154973104596138 0.6796884536743164
0.6066163182258606 -0.15383270382881165 0.6777023673057556
0.6072328090667725 -0.154038205742836 0.6777023673057556
0.6116212010383606 -0.15267549455165863 0.6756866574287415
0.6167007088661194 -0.1515008807182312 0.673640787601471
0.6218567490577698 -0.15030895173549652 0.6715646386146545
0.6259334087371826 -0.1494557112455368 0.6699866652488708
0.627090573310852 -0.14909878373146057 0.6694567203521729
0.6312977075576782 -0.14815770089626312 0.667785108089447
0.5329940915107727 -0.12866969406604767 0.6764500141143799
0.5368162393569946 -0.13222664594650269 0.678083062171936
0.542853832244873 -0.13804206252098083 0.6808041334152222
0.5451927185058594 -0.1401706039905548 0.6817693710327148
0.5456233620643616 -0.1406499296426773 0.6820095777511597
0.5475685000419617 -0.14220018684864044 0.6826549768447876
0.549971342086792 -0.14415106177330017 0.6834777593612671
0.5547327995300293 -0.14801721274852753 0.6851082444190979
0.557521402835846 -0.150372713804245 0.6861283779144287
0.5598312616348267 -0.1523185670375824 0.6869698166847229
0.5602579116821289 -0.15275360643863678 0.6871790885925293
0.5627427697181702 -0.15339265763759613 0.6870440244674683
0.5769774317741394 -0.13463863730430603 0.6702308058738708
0.5780377984046936 -0.13534127175807953 0.6704807281494141
0.5651430487632751 -0.15617108345031738 0.6884593367576599
0.5682017207145691 -0.1580045074224472 0.6890416741371155
0.5807204842567444 -0.16008485853672028 0.6875443458557129
0.5853488445281982 -0.15901650488376617 0.6856762170791626
0.5900434255599976 -0.15793317556381226 0.6837815642356873
0.5948057770729065 -0.15683411061763763 0.6818593740463257
0.5985754132270813 -0.15604983270168304 0.6803992390632629
0.5996377468109131 -0.1557186394929886 0.6799089312553406
0.6045407652854919 -0.15458661317825317 0.677929699420929
0.6095156073570251 -0.15343846380710602 0.675921618938446
0.6145645976066589 -0.15227298438549042 0.6738834977149963
0.6156825423240662 -0.15192680060863495 0.6733694672584534
0.6196890473365784 -0.15109018981456757 0.671815037727356
0.6326385736465454 -0.14782367646694183 0.6663895845413208
0.6332793831825256 -0.14803726971149445 0.6663895845413208
0.5322763919830322 -0.12876556813716888 0.675880491733551
0.5336856842041016 -0.13015800714492798 0.6765424013137817
0.5360252857208252 -0.13245438039302826 0.677630603313446
0.5373088717460632 -0.13401144742965698 0.6784411072731018
0.5395468473434448 -0.13639429211616516 0.6796156167984009
0.5401564836502075 -0.13659751415252686 0.6796156167984009
0.541412353515625 -0.13814055919647217 0.6804224252700806
0.5437518954277039 -0.14027215540409088 0.6813926696777344
0.5508772134780884 -0.14626291394233704 0.6839872002601624
0.5513226985931396 -0.14669525623321533 0.6841908693313599
0.5532531142234802 -0.14818768203258514 0.6848001480102539
0.5556156635284424 -0.15009906888008118 0.6856066584587097
0.556054413318634 -0.15052634477615356 0.6858081221580505
0.5579389333724976 -0.15203478932380676 0.6864399909973145
0.5606796145439148 -0.15438053011894226 0.687467634677887
0.562184751033783 -0.15534834563732147 0.6878021955490112
0.5631055235862732 -0.15610317885875702 0.6881234645843506
0.5666570067405701 -0.1582641899585724 0.6888247132301331
0.5697612762451172 -0.16000813245773315 0.6893336176872253
0.5702617764472961 -0.16031885147094727 0.6894369125366211
0.5782048106193542 -0.1605953872203827 0.6877354979515076
0.5828021764755249 -0.1595340073108673 0.6858740448951721
0.5874651074409485 -0.15845748782157898 0.6839863061904907
0.5880649089813232 -0.15865741670131683 0.6839863061904907
0.5901229381561279 -0.15801329910755157 0.6830316781997681
0.5938428640365601 -0.1572406142950058 0.6815874576568604
0.5986623764038086 -0.15612980723381042 0.679637610912323
0.6035524606704712 -0.15500247478485107 0.6776588559150696
0.6135512590408325 -0.152696892619133 0.6736123561859131
0.6220734715461731 -0.15046510100364685 0.6699725985527039
0.6273171901702881 -0.1492542177438736 0.6678493022918701
0.629123866558075 -0.14910243451595306 0.6673082113265991
0.6327638030052185 -0.1478939801454544 0.6655703783035278
0.6334050893783569 -0.14810776710510254 0.6655703783035278
0.6346297860145569 -0.1477019339799881 0.6649863123893738
0.5318580269813538 -0.12962836027145386 0.6757910251617432
0.5346211791038513 -0.13247713446617126 0.6771783828735352
0.5365203619003296 -0.13423769176006317 0.6779900193214417
0.5406172275543213 -0.1383812129497528 0.679989218711853
0.5448161959648132 -0.14220869541168213 0.6817366480827332
0.5456740856170654 -0.1431589126586914 0.6822147965431213
0.5471563935279846 -0.14426590502262115 0.682655930519104
0.5495506525039673 -0.14620251953601837 0.6834753155708313
0.5519301295280457 -0.14812731742858887 0.6842896938323975
0.5593720078468323 -0.15431557595729828 0.6869581937789917
0.5616896748542786 -0.15619270503520966 0.6877532601356506
0.5621447563171387 -0.15657617151737213 0.687920093536377
0.5645833611488342 -0.15825212001800537 0.6885411739349365
0.5676400661468506 -0.16005893051624298 0.6891081929206848
0.5718092322349548 -0.1623082458972931 0.6897268891334534
0.5727599263191223 -0.16203150153160095 0.6892997026443481
0.5762925744056702 -0.16130012273788452 0.6879257559776306
0.5818679332733154 -0.15993081033229828 0.685602605342865
0.5912376642227173 -0.1577703356742859 0.6817999482154846
0.5960249900817871 -0.15666592121124268 0.679856538772583
0.6008816361427307 -0.1555459201335907 0.6778852343559265
0.60580974817276 -0.15440939366817474 0.6758848428726196
0.6068984866142273 -0.15407118201255798 0.6753803491592407
0.6108108162879944 -0.15325608849525452 0.6738551259040833
0.6158865094184875 -0.15208542346954346 0.6717948317527771
0.6170102953910828 -0.15173791348934174 0.6712749600410461
0.621039092540741 -0.15089675784111023 0.6697031855583191
0.625782310962677 -0.14840932190418243 0.6667747497558594
0.6251136064529419 -0.15004581212997437 0.6681134104728699
0.6304552555084229 -0.14877191185951233 0.6659150123596191
0.6359878778457642 -0.14736466109752655 0.6635746955871582
0.5315276384353638 -0.13033638894557953 0.6755715608596802
0.5325512886047363 -0.13111211359500885 0.6758854985237122
0.533400297164917 -0.13218428194522858 0.6764549016952515
0.5357323288917542 -0.13446368277072906 0.6775389909744263
0.537621796131134 -0.1362122744321823 0.6783468723297119
0.5394442081451416 -0.13804244995117188 0.6792292594909668
0.54108065366745 -0.14014309644699097 0.6803519129753113
0.5433815717697144 -0.14230835437774658 0.6813613772392273
0.5456993579864502 -0.14440415799617767 0.6823164820671082
0.5504544973373413 -0.1482975035905838 0.6839826703071594
0.552821934223175 -0.1502082198858261 0.6847923398017883
0.5551761984825134 -0.15210570394992828 0.6855957508087158
0.5562029480934143 -0.1527329832315445 0.6858012676239014
0.5574875473976135 -0.15403273701667786 0.6864305138587952
0.5631489753723145 -0.15837080776691437 0.6881996989250183
0.5691946148872375 -0.16204753518104553 0.689399003982544
0.5743911266326904 -0.16200073063373566 0.6881150007247925
0.5753740072250366 -0.1616915762424469 0.6876550316810608
0.5799341797828674 -0.16064131259918213 0.6857998967170715
0.5809357166290283 -0.16032704710960388 0.6853320598602295
0.5845587849617004 -0.15957680344581604 0.6839185953140259
0.590282142162323 -0.158174529671669 0.6815292835235596
0.59505695104599 -0.15707458555698395 0.6795863509178162
0.5999017953872681 -0.15595819056034088 0.6776145696640015
0.6087067723274231 -0.15401744842529297 0.6740952134132385
0.609805703163147 -0.1536770910024643 0.6735849380493164
0.617742121219635 -0.15202589333057404 0.6704834699630737
0.6188725233078003 -0.1516771912574768 0.6699596643447876
0.6256259679794312 -0.1460355520248413 0.6642624139785767
0.6262110471725464 -0.1472286731004715 0.6649830341339111
0.6261547207832336 -0.14820298552513123 0.6656997799873352
0.6293675303459167 -0.14924435317516327 0.6656785011291504
0.6330149173736572 -0.14803479611873627 0.6639277338981628
0.5326269268989563 -0.1323840320110321 0.6759791374206543
0.5362263917922974 -0.13623352348804474 0.6778975129127502
0.540296733379364 -0.14036889374256134 0.6799089908599854
0.5444427132606506 -0.14423039555549622 0.681704044342041
0.5467491149902344 -0.14631256461143494 0.6826549768447876
0.54913330078125 -0.1482371985912323 0.6834731101989746
0.5515044331550598 -0.15014781057834625 0.684283971786499
0.5538612008094788 -0.15204694867134094 0.6850901246070862
0.5589166283607483 -0.15629637241363525 0.6869466304779053
0.5611960887908936 -0.15820154547691345 0.6877760291099548
0.5622040629386902 -0.15882278978824615 0.6879823207855225
0.5640292763710022 -0.16031408309936523 0.6886217594146729
0.5676678419113159 -0.1622905135154724 0.689174473285675
0.5728895664215088 -0.16219455003738403 0.6878448128700256
0.5738689303398132 -0.1618860960006714 0.6873851418495178
0.5744574069976807 -0.1620822548866272 0.6873851418495178
0.5774192810058594 -0.1611509919166565 0.6859962344169617
0.5820133686065674 -0.16009259223937988 0.6841211318969727
0.583022952079773 -0.15977589786052704 0.6836483478546143
0.5876976847648621 -0.1586989313364029 0.6817404627799988
0.5882988572120667 -0.15889930725097656 0.6817404627799988
0.5924400091171265 -0.15760625898838043 0.6798048615455627
0.5972514748573303 -0.1564975082874298 0.6778410077095032
0.5989238023757935 -0.15637032687664032 0.6773455739021301
0.6021344065666199 -0.1553715169429779 0.6758477687835693
0.6070879697799683 -0.15423010289669037 0.6738255620002747
0.6088031530380249 -0.15409699082374573 0.6733155250549316
0.6121155619621277 -0.15307138860225677 0.6717733144760132
0.6172183752059937 -0.15189547836780548 0.6696906685829163
0.6178464889526367 -0.15210486948490143 0.6696906685829163
0.6256885528564453 -0.14616751670837402 0.6634998321533203
0.6319187879562378 -0.14851035177707672 0.6636924743652344
0.5312770009040833 -0.13231447339057922 0.6754476428031921
0.5331170558929443 -0.1341949850320816 0.6763677000999451
0.535441517829895 -0.1364578902721405 0.6774483919143677
0.5373247861862183 -0.1381940096616745 0.678253173828125
0.5391430854797363 -0.14000800251960754 0.6791301965713501
0.5413545370101929 -0.14233148097991943 0.6802820563316345
0.5432009696960449 -0.14403241872787476 0.6810702085494995
0.5454968810081482 -0.14613980054855347 0.6820446252822876
0.5478125810623169 -0.14817677438259125 0.6829634308815002
0.5501872897148132 -0.15008753538131714 0.6837759613990784
0.5553314685821533 -0.15429352223873138 0.685585081577301
0.5576292276382446 -0.15621091425418854 0.6864209771156311
0.5599125623703003 -0.15811635553836823 0.6872519850730896
0.5621816515922546 -0.1600097268819809 0.6880775690078735
0.5650585293769836 -0.16203464567661285 0.6888514757156372
0.571977972984314 -0.1625836044549942 0.6875753998756409
0.581079363822937 -0.16048935055732727 0.6838517785072327
0.5820862650871277 -0.16017355024814606 0.6833788156509399
0.5857274532318115 -0.15942005813121796 0.6819503903388977
0.5914801955223083 -0.15801171958446503 0.6795353293418884
0.6000779867172241 -0.1561194211244583 0.6760802865028381
0.6011488437652588 -0.15578649938106537 0.675579309463501
0.6111059784889221 -0.15349408984184265 0.6715049743652344
0.6150727272033691 -0.15266920626163483 0.6699459552764893
0.6254612803459167 -0.14569588005542755 0.6623680591583252
0.6264169216156006 -0.1474052369594574 0.6633775234222412
0.6265724301338196 -0.14814868569374084 0.663879930973053
0.5323731303215027 -0.13434770703315735 0.6758541464805603
0.5365421175956726 -0.1384168416261673 0.6778054237365723
0.5399855971336365 -0.142330139875412 0.6798193454742432
0.5405884385108948 -0.1425311267375946 0.6798193454742432
0.5418121814727783 -0.14406746625900269 0.6806411147117615
0.5440722107887268 -0.14623630046844482 0.6816720366477966
0.5487194657325745 -0.15025514364242554 0.6834706664085388
0.551082193851471 -0.15215198695659637 0.6842784881591797
0.5534308552742004 -0.15403714776039124 0.6850811839103699
0.5607364773750305 -0.16015255451202393 0.6877613067626953
0.5636050701141357 -0.16218923032283783 0.6885483264923096
0.5695127248764038 -0.1630815714597702 0.6877638101577759
0.5740009546279907 -0.16204893589019775 0.6859222054481506
0.5755758285522461 -0.1619359254837036 0.685457706451416
0.5894871354103088 -0.15873923897743225 0.6797528266906738
0.5942580103874207 -0.1576433926820755 0.6777966618537903
0.5990986227989197 -0.156531423330307 0.675811767578125
0.6001667976379395 -0.15619967877864838 0.6753110885620117
0.6040104031562805 -0.15540289878845215 0.6737974882125854
0.6089961528778076 -0.15425649285316467 0.6717524528503418
0.6180564761161804 -0.15226341784000397 0.6681017875671387
0.6252331733703613 -0.14522245526313782 0.6612319350242615
0.6285250782966614 -0.14985834062099457 0.6638087034225464
0.6333932876586914 -0.14824669063091278 0.661453127861023
0.6340372562408447 -0.14846135675907135 0.661453127861023
0.531639814376831 -0.13448210060596466 0.675324559211731
0.5328478217124939 -0.13617047667503357 0.6762637495994568
0.5351529121398926 -0.13843710720539093 0.6773581504821777
0.5370298624038696 -0.14016090333461761 0.6781601905822754
0.543277382850647 -0.14648562669754028 0.6812585592269897
0.5451233983039856 -0.14813143014907837 0.6820111870765686
0.5474107265472412 -0.15018481016159058 0.6829541921615601
0.5497704744338989 -0.15209156274795532 0.6837723255157471
0.5502118468284607 -0.15251457691192627 0.6839739680290222
0.5548927783966064 -0.1562725156545639 0.6855791211128235
0.5563334822654724 -0.15732383728027344 0.6859961152076721
0.5571827292442322 -0.15817606449127197 0.6864117980003357
0.559458315372467 -0.16006754338741302 0.6872394680976868
0.561719536781311 -0.16194726526737213 0.6880616545677185
0.5645189881324768 -0.16404810547828674 0.6889145374298096
0.5666839480400085 -0.16407473385334015 0.6884069442749023
0.5676444172859192 -0.163771852850914 0.687951922416687
0.5730854868888855 -0.16243931651115417 0.6856540441513062
0.5776265859603882 -0.16139519214630127 0.6837858557701111
0.5786232352256775 -0.1610824018716812 0.6833146214485168
0.5822322368621826 -0.1603361815214157 0.6818909049034119
0.586903989315033 -0.15926215052604675 0.6799691319465637
0.5926862359046936 -0.15784797072410583 0.6775283217430115
0.5932930707931519 -0.15805014967918396 0.6775283217430115
0.5975620150566101 -0.15667708218097687 0.6754859685897827
0.6014124155044556 -0.15584857761859894 0.6739434599876404
0.6024843454360962 -0.15552033483982086 0.6734426021575928
0.6063434481620789 -0.15473449230194092 0.6719291806221008
0.61130291223526 -0.15365375578403473 0.6699324250221252
0.6124146580696106 -0.1533099114894867 0.6694105863571167
0.6164025664329529 -0.15248101949691772 0.6678343415260315
0.6181614995002747 -0.15234261751174927 0.6673048734664917
0.6252440214157104 -0.14633765816688538 0.6611944437026978
0.6268340349197388 -0.15008264780044556 0.6635428071022034
0.6310730576515198 -0.14912721514701843 0.6618129014968872
0.529887855052948 -0.13384951651096344 0.6744824051856995
0.5321213603019714 -0.13629703223705292 0.6757300496101379
0.533945620059967 -0.13815078139305115 0.6766424775123596
0.5362503528594971 -0.14038215577602386 0.6777142882347107
0.5402796268463135 -0.14447346329689026 0.6797273755073547
0.5414824485778809 -0.14602556824684143 0.680570662021637
0.5437251329421997 -0.14819443225860596 0.6816117763519287
0.5443216562271118 -0.14839327335357666 0.6816117763519287
0.5459954142570496 -0.15027779340744019 0.6825836300849915
0.5506633520126343 -0.1541399508714676 0.6842729449272156
0.5530037879943848 -0.15601137280464172 0.6850725412368774
0.5559005737304688 -0.15809085965156555 0.6858882904052734
0.5608636140823364 -0.16228199005126953 0.6877466440200806
0.5616984367370605 -0.1631191074848175 0.688156008720398
0.5631116032600403 -0.16414742171764374 0.6885643005371094
0.5667442679405212 -0.16415666043758392 0.6876839399337769
0.5711958408355713 -0.16313570737838745 0.685849130153656
0.5757109522819519 -0.16209940612316132 0.6839873790740967
0.581295907497406 -0.16073356568813324 0.6816232204437256
0.5859563946723938 -0.15966324508190155 0.6797012090682983
0.590683102607727 -0.15857824683189392 0.6777522563934326
0.5956968665122986 -0.15721726417541504 0.6755308508872986
0.5995388627052307 -0.1563814878463745 0.6739807724952698
0.600587785243988 -0.15607506036758423 0.6734998822212219
0.6054564714431763 -0.15502576529979706 0.6715426445007324
0.6094834208488464 -0.15408162772655487 0.6698676943778992
