ply
format ascii 1.0
element vertex 800
property float x
property float y
property float z
end_header
0.30330461263656616 -0.024724112823605537 0.6879238486289978
0.308765709400177 -0.023441044613718987 0.6859385371208191
0.3176663815975189 -0.024551795795559883 0.6847512722015381
0.31967219710350037 -0.026020094752311707 0.6852630376815796
0.33257681131362915 -0.029124131426215172 0.6844967603683472
0.33448755741119385 -0.028737563639879227 0.6838420629501343
0.3364190459251404 -0.028696341440081596 0.6834040284156799
0.33833959698677063 -0.028036104515194893 0.6825722455978394
0.34222516417503357 -0.027142805978655815 0.6811723709106445
0.34614086151123047 -0.02506190538406372 0.6790062189102173
0.3487875461578369 -0.024005824699997902 0.6777663826942444
0.3501202166080475 -0.022890087217092514 0.6767685413360596
0.3514632284641266 -0.021605156362056732 0.675660252571106
0.3541766107082367 -0.01957167685031891 0.6737809777259827
0.3569353520870209 -0.01701579988002777 0.6715577840805054
0.35834527015686035 -0.01500354427844286 0.6699701547622681
0.3604698181152344 -0.012806721031665802 0.6681119799613953
0.361958771944046 -0.009230130352079868 0.6655067205429077
0.3626548945903778 -0.00946216844022274 0.6655067205429077
0.3641839921474457 -0.005638457369059324 0.6627348065376282
0.3649573028087616 -0.003766446141526103 0.6613721251487732
0.365738183259964 -0.0018765967106446624 0.6599969863891602
0.366447776556015 -0.002113129012286663 0.6599969863891602
0.367241233587265 -0.00016122676606755704 0.6585792303085327
0.28971704840660095 -0.020440315827727318 0.6872677803039551
0.29303041100502014 -0.022307489067316055 0.6877572536468506
0.2975365221500397 -0.024000979959964752 0.6878799200057983
0.298188716173172 -0.024316130205988884 0.687942624092102
0.29884785413742065 -0.02469007670879364 0.6880417466163635
0.30199119448661804 -0.02527582459151745 0.6877450942993164
0.3074318766593933 -0.023979203775525093 0.685749351978302
0.31231677532196045 -0.022567708045244217 0.6837990880012512
0.3142516613006592 -0.023042073473334312 0.6836893558502197
0.31621912121772766 -0.023905262351036072 0.6838228106498718
0.3209630846977234 -0.028257908299565315 0.6856008768081665
0.3236094117164612 -0.030144009739160538 0.6862451434135437
0.3242690861225128 -0.030615314841270447 0.6864062547683716
0.3261832594871521 -0.030969126150012016 0.6862241625785828
0.32743439078330994 -0.03071780316531658 0.6857950687408447
0.32806164026260376 -0.030592206865549088 0.685580313205719
0.33059635758399963 -0.030428122729063034 0.6849327683448792
0.3325091004371643 -0.030389927327632904 0.6844993233680725
0.33441540598869324 -0.030007345601916313 0.683846116065979
0.3401939570903778 -0.028983790427446365 0.6819532513618469
0.34213659167289734 -0.028530074283480644 0.681246817111969
0.3440777063369751 -0.027254967018961906 0.6800134181976318
0.34472817182540894 -0.02677503414452076 0.6795663237571716
0.34604188799858093 -0.026490474119782448 0.679102897644043
0.35001006722450256 -0.02439364604651928 0.6769087314605713
0.3513484299182892 -0.023197229951620102 0.6758545637130737
0.35201773047447205 -0.02342032827436924 0.6758545637130737
0.3540528416633606 -0.021212682127952576 0.6740031242370605
0.3547382056713104 -0.020375721156597137 0.6733190417289734
0.35610711574554443 -0.019566044211387634 0.6725068688392639
0.3568015992641449 -0.01871728152036667 0.6718139052391052
0.35820406675338745 -0.016834311187267303 0.6703057289123535
0.3603173494338989 -0.014778499491512775 0.6685344576835632
0.36104482412338257 -0.01342000998556614 0.667507529258728
0.36248141527175903 -0.01186907384544611 0.666205108165741
0.36400535702705383 -0.007961748167872429 0.6633718013763428
0.3655511736869812 -0.004238950554281473 0.6606526374816895
0.3662574589252472 -0.004474420566111803 0.6606526374816895
0.3678625822067261 -9.940826566889882e-05 0.6575019359588623
0.2910301685333252 -0.02217264287173748 0.6872865557670593
0.29495272040367126 -0.024093616753816605 0.6876813769340515
0.3048669993877411 -0.02458762750029564 0.6858721375465393
0.30605027079582214 -0.024012882262468338 0.6852485537528992
0.3103347718715668 -0.023045020177960396 0.6837061047554016
0.31546327471733093 -0.024025892838835716 0.6832373142242432
0.31611311435699463 -0.024242499843239784 0.6832373142242432
0.32222533226013184 -0.030182719230651855 0.6857492327690125
0.32548779249191284 -0.032005082815885544 0.6862223148345947
0.3261302411556244 -0.03221926465630531 0.6862223148345947
0.3362659513950348 -0.031234411522746086 0.6834137439727783
0.33817923069000244 -0.03064686805009842 0.6826252341270447
0.34011027216911316 -0.030337974429130554 0.6820119619369507
0.34075140953063965 -0.03002024255692959 0.6816700100898743
0.3446332514286041 -0.028193170204758644 0.6796611547470093
0.34857580065727234 -0.027013028040528297 0.678055465221405
0.3492368459701538 -0.026438897475600243 0.6775444149971008
0.35257452726364136 -0.024324478581547737 0.6754671931266785
0.3546121418476105 -0.02208670787513256 0.6735898852348328
0.35666900873184204 -0.02037874609231949 0.672049343585968
0.3580647110939026 -0.01860494166612625 0.6706082224845886
0.3594527244567871 -0.017825590446591377 0.6698086261749268
0.3601675033569336 -0.016679247841238976 0.6689175367355347
0.36088788509368896 -0.015481548383831978 0.6679919958114624
0.36230963468551636 -0.014247608371078968 0.666892945766449
0.3630635738372803 -0.01232174038887024 0.6654917597770691
0.36382535099983215 -0.010363934561610222 0.6640679836273193
0.3645934462547302 -0.008431212976574898 0.6626592874526978
0.36536556482315063 -0.006580053828656673 0.6613021492958069
0.3660688102245331 -0.0068144709803164005 0.6613021492958069
0.36685165762901306 -0.004947097972035408 0.6599324941635132
0.36849653720855713 0.00022707895550411195 0.6562489867210388
0.28902631998062134 -0.022000592201948166 0.6867931485176086
0.29235216975212097 -0.024007199332118034 0.6873730421066284
0.29689547419548035 -0.026096560060977936 0.6877443194389343
0.29814407229423523 -0.026307785883545876 0.6876118779182434
0.30231592059135437 -0.02519266866147518 0.685994029045105
0.305906742811203 -0.023973632603883743 0.6844341158866882
0.3077462911605835 -0.023642564192414284 0.6838244199752808
0.30834701657295227 -0.023384952917695045 0.6835290789604187
0.3173952102661133 -0.02616269327700138 0.6833751201629639
0.3180968165397644 -0.027088288217782974 0.6838217973709106
0.3187966048717499 -0.028019728139042854 0.6842725872993469
0.3214874267578125 -0.03046373277902603 0.685271143913269
0.32412537932395935 -0.03235841542482376 0.6859269142150879
0.32732313871383667 -0.033219143748283386 0.6857945322990417
0.32857269048690796 -0.032972194254398346 0.6853662729263306
0.330470472574234 -0.03293835371732712 0.6849355697631836
0.3323744833469391 -0.03290441632270813 0.6845040321350098
0.3342719078063965 -0.03252970799803734 0.6838540434837341
0.336189866065979 -0.032494835555553436 0.6834184527397156
0.3387492299079895 -0.03215978667140007 0.6826516389846802
0.34260293841362 -0.030907148495316505 0.6810134649276733
0.34649789333343506 -0.02892124094069004 0.6788927912712097
0.3484705686569214 -0.02843410335481167 0.678153932094574
0.350455105304718 -0.026849640533328056 0.676703929901123
0.35653573274612427 -0.02213142067193985 0.6723490953445435
0.35723015666007996 -0.02119027078151703 0.6715919375419617
0.3586049973964691 -0.020564008504152298 0.6708917021751404
0.36001861095428467 -0.01856810227036476 0.6692990064620972
0.3614603877067566 -0.016091983765363693 0.667389988899231
0.3621472716331482 -0.01632094569504261 0.667389988899231
0.3644111156463623 -0.010815741494297981 0.6633484959602356
0.3651817739009857 -0.008900673128664494 0.6619462370872498
0.36825284361839294 -0.0032052723690867424 0.6576082110404968
0.3691532015800476 0.0010227650636807084 0.6546846628189087
0.2863644063472748 -0.02147950604557991 0.6862166523933411
0.2876759171485901 -0.022126900032162666 0.6863527297973633
0.2903801500797272 -0.024028094485402107 0.6870003938674927
0.2949352562427521 -0.026214351877570152 0.6874327659606934
0.3004184663295746 -0.02600778453052044 0.6861155033111572
0.3010009229183197 -0.025724157691001892 0.6858059167861938
0.3051717281341553 -0.02423725090920925 0.6839424967765808
0.3057679831981659 -0.023980984464287758 0.683647871017456
0.3064139187335968 -0.02419629693031311 0.683647871017456
0.31068819761276245 -0.023019276559352875 0.6819630861282349
0.31259652972221375 -0.023193787783384323 0.6816641688346863
0.31456074118614197 -0.023990558460354805 0.681755781173706
0.31871336698532104 -0.028652049601078033 0.6838785409927368
0.32272279262542725 -0.03204730898141861 0.6852115988731384
0.32536303997039795 -0.03411312401294708 0.6859797239303589
0.32600319385528564 -0.034326549619436264 0.6859797239303589
0.3266458809375763 -0.034583013504743576 0.6860069632530212
0.32851442694664 -0.034216877073049545 0.6853665709495544
0.3304080367088318 -0.03418514505028725 0.6849371194839478
0.33230772614479065 -0.03415299206972122 0.6845064163208008
0.34058207273483276 -0.032713882625103 0.6817880868911743
0.342513769865036 -0.03227677941322327 0.6810879111289978
0.3444446921348572 -0.03100726567208767 0.6798489689826965
0.34639859199523926 -0.030325204133987427 0.6789855360984802
0.34902337193489075 -0.029421912506222725 0.6778338551521301
0.350344717502594 -0.028332943096756935 0.676843523979187
0.35234034061431885 -0.02747173048555851 0.6758548021316528
0.3543635308742523 -0.02533142827451229 0.6740318536758423
0.3557150363922119 -0.024806411936879158 0.6734001636505127
0.3570958375930786 -0.02289552241563797 0.6718646287918091
0.3584669828414917 -0.02222750522196293 0.6711360216140747
0.35987183451652527 -0.020393284037709236 0.6696445941925049
0.3613027334213257 -0.018130291253328323 0.6678703427314758
0.36346885561943054 -0.015150287188589573 0.6654729247093201
0.3642289340496063 -0.013222084380686283 0.6640596985816956
0.3664705455303192 -0.009603677317500114 0.6612328290939331
0.3672519326210022 -0.007757252082228661 0.6598682403564453
0.36804088950157166 -0.005893413443118334 0.6584908962249756
0.370534747838974 0.0016049810219556093 0.6530963778495789
0.28568795323371887 -0.022040273994207382 0.6859130859375
0.28902867436408997 -0.024123234674334526 0.6865426301956177
0.29232916235923767 -0.0260169617831707 0.6870582699775696
0.2984708547592163 -0.02632373757660389 0.68592768907547
0.2996310293674469 -0.02575754001736641 0.685308575630188
0.3038465678691864 -0.024786468595266342 0.6837648749351501
0.3086966276168823 -0.02336861379444599 0.681793749332428
0.31444844603538513 -0.02425060234963894 0.6811211705207825
0.31649354100227356 -0.02608102560043335 0.6818674206733704
0.3179325461387634 -0.0283737201243639 0.6830452680587769
0.3199723958969116 -0.0304458849132061 0.6839494109153748
0.33412978053092957 -0.03502956032752991 0.6838616728782654
0.3360389173030853 -0.03499872237443924 0.683428168296814
0.3385879397392273 -0.034733328968286514 0.6827035546302795
0.3404979407787323 -0.03405081108212471 0.6818466186523438
0.344351202249527 -0.032399870455265045 0.679939866065979
0.34826168417930603 -0.03124481625854969 0.678342878818512
0.3489174246788025 -0.030895544216036797 0.6779736876487732
0.35222429037094116 -0.028986100107431412 0.6760172843933105
0.3528931140899658 -0.0283663347363472 0.6754698753356934
0.35424041748046875 -0.026939094066619873 0.6742509007453918
0.35558760166168213 -0.026419444009661674 0.673621654510498
0.3562707006931305 -0.02567366138100624 0.6729893684387207
0.35972774028778076 -0.022141657769680023 0.6699461340904236
0.36043500900268555 -0.021147528663277626 0.6691471338272095
0.36255693435668945 -0.018970506265759468 0.6672735214233398
0.3640487790107727 -0.015602224506437778 0.6647621393203735
0.364812433719635 -0.013672009110450745 0.6633432507514954
0.366280734539032 -0.011952131986618042 0.6619077920913696
0.36784398555755615 -0.008228874765336514 0.6591505408287048
0.368643194437027 -0.006190336775034666 0.6576532125473022
0.37021321058273315 -0.0032293968833982944 0.655389666557312
0.3712025284767151 0.0024315097834914923 0.651498019695282
0.28370219469070435 -0.02195374295115471 0.6854737401008606
0.28635525703430176 -0.023465171456336975 0.6858823299407959
0.28766265511512756 -0.024109607562422752 0.686018168926239
0.29036352038383484 -0.026036497205495834 0.6866872310638428
0.29652926325798035 -0.026639161631464958 0.6857407689094543
0.3012917935848236 -0.025363821536302567 0.6838750243186951
0.3067578971385956 -0.024175383150577545 0.6819136142730713
0.30736228823661804 -0.023961946368217468 0.6816432476043701
0.3136608600616455 -0.024008510634303093 0.6803053021430969
0.3205774426460266 -0.031937967985868454 0.6839699745178223
0.32125595211982727 -0.032677944749593735 0.6843047738075256
0.32323893904685974 -0.03422970324754715 0.6848850846290588
0.3258567452430725 -0.03606764227151871 0.6855144500732422
0.3265075981616974 -0.0364965945482254 0.6856527328491211
0.32839882373809814 -0.03668961673974991 0.6853674054145813
0.3302837610244751 -0.03666181489825249 0.6849398016929626
0.3321748971939087 -0.036634016782045364 0.684511125087738
0.33405908942222595 -0.036271076649427414 0.6838653087615967
0.33659666776657104 -0.036120880395174026 0.6832162737846375
0.3385080397129059 -0.03601136431097984 0.6827297210693359
0.3423368036746979 -0.03497932478785515 0.6812257766723633
0.3442579209804535 -0.03378338739275932 0.6800288558006287
0.3449097275733948 -0.034000661224126816 0.6800288558006287
0.3462013900279999 -0.03311164304614067 0.679169237613678
0.3481578528881073 -0.03263944759964943 0.6784365177154541
0.35012558102607727 -0.03127547726035118 0.6771203875541687
0.35210931301116943 -0.030460720881819725 0.6761584877967834
0.3541180193424225 -0.02853744849562645 0.6744690537452698
0.35546088218688965 -0.028022663667798042 0.6738417148590088
0.3561415672302246 -0.027283107861876488 0.6732119917869568
0.3575180768966675 -0.025464054197072983 0.6717275977134705
0.3581899404525757 -0.025688007473945618 0.6717275977134705
0.3602883815765381 -0.02292146347463131 0.6694690585136414
0.3623965382575989 -0.020958703011274338 0.6677324175834656
0.36387038230895996 -0.017954519018530846 0.6654543280601501
0.3646291196346283 -0.01605418510735035 0.6640511751174927
0.3660898208618164 -0.014353340491652489 0.662625789642334
0.36686766147613525 -0.012404541485011578 0.661186933517456
0.36764901876449585 -0.010543887503445148 0.6598047018051147
0.368436336517334 -0.008700857870280743 0.6584327220916748
0.3700483441352844 -0.004637846723198891 0.6554350256919861
0.3709522783756256 -0.0007385119097307324 0.6526978015899658
0.37189698219299316 0.003721625776961446 0.6495863199234009
0.283029705286026 -0.02251320891082287 0.6851711869239807
0.28568097949028015 -0.024022163823246956 0.6855800747871399
0.2863507866859436 -0.02445330284535885 0.6857162117958069
0.289036363363266 -0.026267632842063904 0.686316967010498
0.2946484088897705 -0.0273740254342556 0.6858171820640564
0.2993350625038147 -0.02568170800805092 0.6836900115013123
0.30417248606681824 -0.024655789136886597 0.6819653511047363
0.3103318214416504 -0.023610012605786324 0.679939866065979
0.3122432231903076 -0.02380463480949402 0.6796506643295288
0.31354862451553345 -0.024272875860333443 0.6796722412109375
0.31422361731529236 -0.024771980941295624 0.6798512935638428
0.31703510880470276 -0.02830737642943859 0.6815493702888489
0.3204990029335022 -0.032642245292663574 0.683628499507904
0.32185494899749756 -0.03414302319288254 0.6843141317367554
0.32772210240364075 -0.038037337362766266 0.6855812072753906
0.3289789855480194 -0.03813036158680916 0.685368001461029
0.333988755941391 -0.03750699758529663 0.6838690638542175
0.34032952785491943 -0.036640603095293045 0.6819212436676025
0.3422486186027527 -0.03630763292312622 0.6812855005264282
0.34545814990997314 -0.03490867093205452 0.6796718835830688
0.34610334038734436 -0.034494224935770035 0.6792600154876709
0.34805482625961304 -0.03402698040008545 0.678529679775238
0.34936094284057617 -0.03328045457601547 0.677757203578949
0.350016713142395 -0.03273472189903259 0.6772574186325073
0.3526589274406433 -0.031411513686180115 0.6758169531822205
0.3546596169471741 -0.03034655936062336 0.6746851801872253
0.3560131788253784 -0.02888256125152111 0.6734331846237183
0.3580513298511505 -0.02748008631169796 0.6720721125602722
0.35874679684638977 -0.026447152718901634 0.6712455749511719
0.36014363169670105 -0.02464139461517334 0.6697612404823303
0.3622404932975769 -0.022820165380835533 0.6681138873100281
0.36444801092147827 -0.01840502955019474 0.6647468209266663
0.36590051651000977 -0.016734277829527855 0.6633382439613342
0.3666739761829376 -0.014803951606154442 0.6619083285331726
0.3700181543827057 -0.0030410883482545614 0.6534907221794128
0.37094828486442566 0.0013675917871296406 0.6504067778587341
0.28168627619743347 -0.022638902068138123 0.6847333312034607
0.287042498588562 -0.026058711111545563 0.6858046054840088
0.2909715473651886 -0.028178321197628975 0.6863356828689575
0.2921322286128998 -0.02782096154987812 0.685847818851471
0.29744598269462585 -0.026496833190321922 0.6838181018829346
0.2980246841907501 -0.026212265715003014 0.6835052371025085
0.30220142006874084 -0.02497410587966442 0.6817806363105774
0.30833742022514343 -0.023941947147250175 0.6797628998756409
0.30898699164390564 -0.024158475920557976 0.6797628998756409
0.3154667317867279 -0.026127664372324944 0.6796380281448364
0.31972143054008484 -0.03233293071389198 0.6827763915061951
0.32110121846199036 -0.034128542989492416 0.683652400970459
0.3224165141582489 -0.035081878304481506 0.6839897036552429
0.3237518072128296 -0.036398086696863174 0.6845607161521912
0.33016064763069153 -0.03911682218313217 0.6849427223205566
0.33204323053359985 -0.039093103259801865 0.6845157742500305
0.33391880989074707 -0.03873753547668457 0.6838729977607727
0.33454591035842896 -0.03861882537603378 0.6836578249931335
0.3364447057247162 -0.038594186305999756 0.6832268834114075
0.33834895491600037 -0.03854946047067642 0.6827811598777771
0.3440731465816498 -0.036529868841171265 0.6802060604095459
0.3453625738620758 -0.03628682345151901 0.6797649264335632
0.349254846572876 -0.03472456336021423 0.6778901815414429
0.35254302620887756 -0.03287411481142044 0.6759580969810486
0.35588568449020386 -0.03047254867851734 0.6736530065536499
0.35860636830329895 -0.028235649690032005 0.6715916395187378
0.36000126600265503 -0.026291176676750183 0.6700121164321899
0.3620854914188385 -0.024666646495461464 0.6684914231300354
0.3628028929233551 -0.023538431152701378 0.6675951480865479
0.36426860094070435 -0.02073429897427559 0.6654362082481384
0.3674922287464142 -0.009367432445287704 0.6572791337966919
0.3683820366859436 -0.005092220846563578 0.6542814373970032
0.37000876665115356 -0.0009637117036618292 0.6512192487716675
0.2823604941368103 -0.02405945584177971 0.6847048401832581
0.2856764793395996 -0.02600695565342903 0.6852587461471558
0.28836584091186523 -0.027877993881702423 0.6858996748924255
0.2890240550041199 -0.028260519728064537 0.6860071420669556
0.28962773084640503 -0.028265416622161865 0.6858778595924377
0.2902059555053711 -0.028087114915251732 0.6856338977813721
0.29492881894111633 -0.02709342911839485 0.6839450001716614
0.3002893626689911 -0.025744272395968437 0.6818824410438538
0.306395947933197 -0.024728449061512947 0.679875910282135
0.31010934710502625 -0.024169182404875755 0.6786940097808838
0.31609031558036804 -0.027673151344060898 0.6796873807907104
0.31757351756095886 -0.030519695952534676 0.6812342405319214
0.31828829646110535 -0.031661488115787506 0.6818282008171082
0.32301098108291626 -0.03653675317764282 0.683999240398407
0.32499396800994873 -0.03831389918923378 0.6847332119941711
0.3282216489315033 -0.040247634053230286 0.6852976679801941
0.3300997018814087 -0.04033616930246353 0.6849442720413208
0.33260053396224976 -0.04019756615161896 0.6843045949935913
0.33511364459991455 -0.04005810618400574 0.6836621761322021
0.340162068605423 -0.039177872240543365 0.6819764971733093
0.34207355976104736 -0.038945093750953674 0.6814042925834656
0.344628244638443 -0.03810833767056465 0.6802938580513
0.3465534448623657 -0.0369015671312809 0.6790782809257507
0.34849870204925537 -0.03644252195954323 0.6783498525619507
0.3491491377353668 -0.03610345721244812 0.6779844760894775
0.35045555233955383 -0.035124775022268295 0.6770545840263367
0.3524278998374939 -0.03432880714535713 0.6760985851287842
0.3544146716594696 -0.033459048718214035 0.6750909686088562
0.3557589650154114 -0.03205292671918869 0.6738718152046204
0.35643574595451355 -0.03132746368646622 0.6732460856437683
0.3584669232368469 -0.030011892318725586 0.6719355583190918
0.3605571687221527 -0.027094637975096703 0.6695588231086731
0.36264607310295105 -0.025383708998560905 0.6679757833480835
0.36420533061027527 -0.01957557164132595 0.663814127445221
0.36573392152786255 -0.015733029693365097 0.660952091217041
0.36746934056282043 -0.007353498134762049 0.6550606489181519
0.36836421489715576 -0.0030246353708207607 0.6520175337791443
0.369999498128891 0.0011425679549574852 0.6489183902740479
0.27904024720191956 -0.02310984767973423 0.6839950084686279
0.2797129154205322 -0.023541176691651344 0.6841315627098083
0.2810209393501282 -0.02418416738510132 0.6842682361602783
0.2870652675628662 -0.028242604807019234 0.6856164932250977
0.2918563485145569 -0.027966288849711418 0.6843805909156799
0.29299497604370117 -0.027406852692365646 0.6837610006332397
0.29774579405784607 -0.02629595249891281 0.6819838881492615
0.29833218455314636 -0.02605953812599182 0.6816987991333008
0.29892000555992126 -0.02582220733165741 0.6814131140708923
0.30381566286087036 -0.025270231068134308 0.6799721717834473
0.30442264676094055 -0.025120319798588753 0.6797398328781128
0.3106350898742676 -0.024516116827726364 0.6779751777648926
0.3125682771205902 -0.02494227886199951 0.6778314709663391
0.31674066185951233 -0.02958768606185913 0.6799782514572144
0.31819847226142883 -0.032189808785915375 0.6813743710517883
0.3216211497783661 -0.036301203072071075 0.6833336353302002
0.3268601596355438 -0.04036949574947357 0.6848656535148621
0.3337797224521637 -0.041182417422533035 0.6838804483413696
0.336294025182724 -0.041045404970645905 0.683236837387085
0.33819031715393066 -0.041024863719940186 0.6828064918518066
0.3400788903236389 -0.04043792560696602 0.6820040941238403
0.3407105803489685 -0.04022814705967903 0.6817266941070557
0.3451728820800781 -0.039021868258714676 0.6799496412277222
0.34645527601242065 -0.03826596215367317 0.679169237613678
0.3503465950489044 -0.0365644171833992 0.677190899848938
0.35297369956970215 -0.035269733518362045 0.6757595539093018
0.35429370403289795 -0.034981321543455124 0.675278902053833
0.3563074469566345 -0.03290414437651634 0.6734659075737
0.3583303391933441 -0.031676121056079865 0.6722108125686646
0.36041420698165894 -0.028719890862703323 0.6698023080825806
0.3633434772491455 -0.021687138825654984 0.6645190715789795
0.364165723323822 -0.01766805164515972 0.6616869568824768
0.36570218205451965 -0.013781243935227394 0.6587848663330078
0.36656540632247925 -0.009591135196387768 0.6558310389518738
0.3674464225769043 -0.005315640475600958 0.6528170108795166
0.36834585666656494 -0.0009462634334340692 0.6497369408607483
0.3699900209903717 0.0032718314323574305 0.6465927362442017
0.27904728055000305 -0.02409687452018261 0.6838319301605225
0.28236401081085205 -0.02602648176252842 0.6843770742416382
0.28570419549942017 -0.02819053642451763 0.6850725412368774
0.29113560914993286 -0.028210371732711792 0.6838876008987427
0.2917032837867737 -0.027931295335292816 0.6835775375366211
0.2957974076271057 -0.026609158143401146 0.6817998290061951
0.3000358045101166 -0.026028620079159737 0.6804807186126709
0.30184298753738403 -0.025582151487469673 0.6797868013381958
0.30801939964294434 -0.024938885122537613 0.6779987812042236
0.31379619240760803 -0.026080787181854248 0.6774804592132568
0.31448206305503845 -0.02671823650598526 0.6777505278587341
0.31586265563964844 -0.02814307250082493 0.6783890724182129
0.3194608986377716 -0.034064795821905136 0.6815138459205627
0.3235236406326294 -0.038703277707099915 0.6836869120597839
0.32418757677078247 -0.03935922309756279 0.6839746832847595
0.32547712326049805 -0.04010222852230072 0.6841817498207092
0.3280763626098633 -0.042070422321558 0.6849107146263123
0.33059582114219666 -0.04264778643846512 0.6847371459007263
0.33246779441833496 -0.04262653738260269 0.6843099594116211
0.33371055126190186 -0.04239683225750923 0.6838839650154114
0.33433347940444946 -0.04228174686431885 0.6836705207824707
0.33621931076049805 -0.04226306825876236 0.6832423806190491
0.33811113238334656 -0.04224440082907677 0.6828124523162842
0.34253209829330444 -0.04125889018177986 0.6811854243278503
0.34444284439086914 -0.040807634592056274 0.6804652810096741
0.34829261898994446 -0.03917403519153595 0.678535521030426
0.34958791732788086 -0.038505516946315765 0.6778072118759155
0.35088953375816345 -0.03821339085698128 0.677327036857605
0.3521992266178131 -0.03721466660499573 0.6763771772384644
0.3528575599193573 -0.03671274706721306 0.6758996844291687
0.3541738986968994 -0.03642752394080162 0.6754205822944641
0.35617977380752563 -0.0344715416431427 0.6736839413642883
0.3581961989402771 -0.03325418010354042 0.6724338531494141
0.3588791489601135 -0.03252420574426651 0.6718001961708069
0.36026838421821594 -0.030498037114739418 0.6701531410217285
0.36169469356536865 -0.02769942581653595 0.6679868102073669
0.3624894320964813 -0.02378499135375023 0.6652212142944336
0.3632996082305908 -0.019798150286078453 0.6624044179916382
0.36412617564201355 -0.01572910137474537 0.6595296263694763
0.3656703531742096 -0.011805503629148006 0.656592845916748
0.36653757095336914 -0.007577065844088793 0.6536034345626831
0.3674231469631195 -0.0032560303807258606 0.6505488753318787
0.36832717061042786 0.0011580142891034484 0.6474286913871765
0.27700501680374146 -0.023596350103616714 0.6831374764442444
0.28039470314979553 -0.025938406586647034 0.6839420199394226
0.2810286581516266 -0.026149723678827286 0.6839420199394226
0.28169751167297363 -0.026577811688184738 0.6840780377388
0.2892155945301056 -0.028520822525024414 0.6837044358253479
0.29390987753868103 -0.027336357161402702 0.6818796396255493
0.2999189794063568 -0.026256488636136055 0.6798334717750549
0.3005204200744629 -0.026108013466000557 0.6796020269393921
0.30237165093421936 -0.026025645434856415 0.6791378259658813
0.3066887855529785 -0.025566469877958298 0.6778779625892639
0.31575268507003784 -0.028426924720406532 0.6777709722518921
0.31651976704597473 -0.03012845292687416 0.6787307262420654
0.3200772702693939 -0.03571644425392151 0.6816524863243103
0.3241124153137207 -0.04014222323894501 0.6836972236633301
0.3267115652561188 -0.04206075519323349 0.6843953132629395
0.34054237604141235 -0.04273422434926033 0.6817827224731445
0.3424440622329712 -0.04253404587507248 0.6812289953231812
0.3443509340286255 -0.04213966801762581 0.6805453896522522
0.34562137722969055 -0.041302841156721115 0.6797088980674744
0.3462604880332947 -0.04097415506839752 0.6793493032455444
0.3481902480125427 -0.04052944481372833 0.6786271333694458
0.35208597779273987 -0.03864597529172897 0.6765153408050537
0.3560529947280884 -0.03602954000234604 0.6739009022712708
0.35806286334991455 -0.03482294827699661 0.6726555824279785
0.3616432249546051 -0.025863120332360268 0.6659167408943176
0.3624414801597595 -0.02191014029085636 0.663116455078125
0.3632553517818451 -0.017888594418764114 0.660267174243927
0.3640861511230469 -0.013766514137387276 0.6573472619056702
0.36563754081726074 -0.009819749742746353 0.6543846130371094
0.3665096163749695 -0.005539302248507738 0.6513506770133972
0.3673998713493347 -0.0011680859606713057 0.6482521891593933
0.36830851435661316 0.0032885433174669743 0.6450933814048767
0.27700695395469666 -0.024533171206712723 0.6829456686973572
0.27973058819770813 -0.026489319279789925 0.6836432814598083
0.28304004669189453 -0.028445392847061157 0.6842111945152283
0.28673282265663147 -0.02905227616429329 0.6837958097457886
0.2913961112499237 -0.027859697118401527 0.6819669008255005
0.2973620295524597 -0.026713479310274124 0.6798800230026245
0.30409905314445496 -0.02604554034769535 0.6779401898384094
0.3047160506248474 -0.025982782244682312 0.677761435508728
0.31163153052330017 -0.026099765673279762 0.6763046979904175
0.3171667754650116 -0.032029204070568085 0.679023802280426
0.3185555338859558 -0.03378617763519287 0.6798855662345886
0.3199867606163025 -0.03623979911208153 0.6812009811401367
0.3206854462623596 -0.037291087210178375 0.6817460060119629
0.32137179374694824 -0.038203269243240356 0.6822010278701782
0.3233659267425537 -0.040132079273462296 0.6830426454544067
0.32597893476486206 -0.04223917797207832 0.6838655471801758
0.32919955253601074 -0.04440328851342201 0.6845917701721191
0.3304685950279236 -0.044970735907554626 0.6846877336502075
0.3323364853858948 -0.04503900557756424 0.6843186616897583
0.3335734009742737 -0.04480959475040436 0.6838913559913635
0.3341934084892273 -0.04469674453139305 0.6836786866188049
0.3360706865787506 -0.04468221589922905 0.6832525730133057
0.3385799527168274 -0.044554200023412704 0.6826102137565613
0.3410964608192444 -0.044191379100084305 0.6818103790283203
0.34552642703056335 -0.04264415428042412 0.6797974705696106
0.34616363048553467 -0.042317941784858704 0.679438591003418
0.34937676787376404 -0.04122012481093407 0.6779948472976685
0.350023478269577 -0.040852803736925125 0.6776067614555359
0.35328438878059387 -0.03907923772931099 0.6757026314735413
0.35459667444229126 -0.03879928961396217 0.6752249002456665
0.3593660891056061 -0.03153898939490318 0.66933274269104
0.36159101128578186 -0.024007927626371384 0.6638251543045044
0.3623928129673004 -0.020024733617901802 0.660995602607727
0.3633529841899872 -0.01127797644585371 0.6549592018127441
0.36404526233673096 -0.011798860505223274 0.6551523804664612
0.3647462725639343 -0.012032534927129745 0.6551523804664612
0.3656049966812134 -0.007800757884979248 0.6521449089050293
0.3664814233779907 -0.003479776205495 0.6490736603736877
0.36737608909606934 0.0009327528532594442 0.6459373831748962
0.2755908668041229 -0.02418689802289009 0.6822148561477661
0.2810363471508026 -0.02810286544263363 0.6836177110671997
0.28237053751945496 -0.028961943462491035 0.6838943958282471
0.284873366355896 -0.02965969406068325 0.6838032603263855
0.2894703447818756 -0.02817217819392681 0.6817865371704102
0.2901066541671753 -0.02838428132236004 0.6817865371704102
0.2948088049888611 -0.027107197791337967 0.6798869371414185
0.3015091121196747 -0.026412637904286385 0.6779317855834961
0.3021545708179474 -0.026627790182828903 0.6779317855834961
0.3064935803413391 -0.0263897106051445 0.6768070459365845
0.30838295817375183 -0.026478519663214684 0.6764457821846008
0.3102588653564453 -0.02637161873281002 0.6759569048881531
0.3121817111968994 -0.026713429018855095 0.6757572293281555
0.31628409028053284 -0.030488567426800728 0.6773648858070374
0.318451851606369 -0.03413167595863342 0.6793152689933777
0.3212870955467224 -0.03880828619003296 0.6818069815635681
0.3265559673309326 -0.04360641911625862 0.6838381290435791
0.3272087872028351 -0.044198792427778244 0.6840882301330566
0.33102577924728394 -0.046141378581523895 0.6845359802246094
0.33227118849754333 -0.04623814672231674 0.6843233704566956
0.3335053622722626 -0.04601087421178818 0.6838971376419067
0.3347555994987488 -0.0461074598133564 0.6836831569671631
0.342268168926239 -0.04502350464463234 0.6812870502471924
0.3441678583621979 -0.04476607218384743 0.6806925535202026
0.3486286997795105 -0.04289386793971062 0.678449273109436
0.34991681575775146 -0.04223953187465668 0.6777254939079285
0.3505627512931824 -0.04245484992861748 0.6777254939079285
0.35251349210739136 -0.04099491983652115 0.6763164401054382
0.3531682789325714 -0.04050281643867493 0.6758420467376709
0.35447680950164795 -0.04022609069943428 0.6753658652305603
0.35647010803222656 -0.03841741010546684 0.6737144589424133
0.3585498631000519 -0.033543430268764496 0.6699967980384827
0.3593032956123352 -0.02973915822803974 0.6672886610031128
0.3607485592365265 -0.02608633227646351 0.6645276546478271
0.36153852939605713 -0.022134048864245415 0.6617127060890198
0.3625797927379608 -0.009856232441961765 0.6532820463180542
0.3640040457248688 -0.009807819500565529 0.6529324054718018
0.364708811044693 -0.010042741894721985 0.6529324054718018
0.36557185649871826 -0.0057634529657661915 0.6498829126358032
0.3664526045322418 -0.0013976342743262649 0.6467714905738831
0.36735212802886963 0.0030632195994257927 0.6435927152633667
0.27488481998443604 -0.024481773376464844 0.681753933429718
0.2770271599292755 -0.026494212448596954 0.6826236248016357
0.2797357141971588 -0.028399350121617317 0.6832950115203857
0.2823902666568756 -0.03004397824406624 0.6838038563728333
0.28762286901474 -0.028973307460546494 0.6819185018539429
0.29226773977279663 -0.027504315599799156 0.6798975467681885
0.29957446455955505 -0.026992646977305412 0.677923321723938
0.30892547965049744 -0.027022095397114754 0.6758553385734558
0.3140972852706909 -0.02852071076631546 0.6757043600082397
0.3169388473033905 -0.03247080743312836 0.6777158379554749
0.3176999092102051 -0.034186869859695435 0.6786951422691345
0.32252317667007446 -0.040568843483924866 0.6818929314613342
0.32387423515319824 -0.042266931384801865 0.6827287673950195
0.3264785408973694 -0.04437664523720741 0.6835607290267944
0.32840606570243835 -0.04567199572920799 0.6839979290962219
0.3290468454360962 -0.046096209436655045 0.6841389536857605
0.33654412627220154 -0.046969376504421234 0.6830499768257141
0.33842137455940247 -0.04695848375558853 0.6826231479644775
0.34029263257980347 -0.046450670808553696 0.6818653345108032
0.3421809673309326 -0.046259500086307526 0.6813158988952637
0.34407657384872437 -0.04605031758546829 0.6807525157928467
0.34533798694610596 -0.04530671238899231 0.6799728274345398
0.34660735726356506 -0.04466374218463898 0.6792587041854858
0.34852612018585205 -0.04423156753182411 0.6785407662391663
0.3524000942707062 -0.042407143861055374 0.6764539480209351
0.35370153188705444 -0.04213481768965721 0.6759809255599976
0.35774102807044983 -0.03552978113293648 0.670654833316803
0.358483225107193 -0.03176196664571762 0.6679653525352478
0.359239786863327 -0.027920791879296303 0.6652234792709351
0.36177074909210205 -0.009560012258589268 0.652360200881958
0.36245638132095337 -0.010462873615324497 0.6528117060661316
0.3639627695083618 -0.007788748946040869 0.6506842970848083
0.3646712005138397 -0.008024812676012516 0.6506842970848083
0.36553847789764404 -0.003703766269609332 0.647596538066864
0.2735447883605957 -0.024564925581216812 0.6812939643859863
0.27559125423431396 -0.02601105161011219 0.6818071007728577
0.28104397654533386 -0.03004390560090542 0.6832956075668335
0.28403007984161377 -0.030051592737436295 0.6826318502426147
0.2857106626033783 -0.029282202944159508 0.681738555431366
0.29039207100868225 -0.02822822891175747 0.6799820065498352
0.2915497124195099 -0.02780032530426979 0.6794353723526001
0.2970103621482849 -0.02739538811147213 0.6779404878616333
0.3063202500343323 -0.02742285467684269 0.6758736968040466
0.31266626715660095 -0.028123341500759125 0.6749231815338135
0.3189792037010193 -0.03627561032772064 0.678986668586731
0.3211190104484558 -0.04003056511282921 0.6810299158096313
0.323121577501297 -0.04213228076696396 0.6819934844970703
0.3257523477077484 -0.04462205246090889 0.683077335357666
0.3277018666267395 -0.04630487412214279 0.6837713718414307
0.32833075523376465 -0.046514496207237244 0.6837713718414307
0.331503689289093 -0.04818766191601753 0.684184730052948
0.3321343958377838 -0.04845812916755676 0.6842254400253296
0.333370178937912 -0.04839817434549332 0.6839084625244141
0.3346148431301117 -0.048496246337890625 0.6836954355239868
0.336469441652298 -0.04816174879670143 0.6830552816390991
0.3383426368236542 -0.048152800649404526 0.6826299428939819
0.3458766043186188 -0.046309541910886765 0.6797042489051819
0.34714972972869873 -0.04620329663157463 0.6793479919433594
0.3497053384780884 -0.04491851478815079 0.6779121160507202
0.3503480553627014 -0.045132752507925034 0.6779121160507202
0.3542390763759613 -0.04305683821439743 0.6756460666656494
0.35556986927986145 -0.04094255715608597 0.6739274263381958
0.35628095269203186 -0.03727882355451584 0.6713066697120667
0.35767051577568054 -0.03376632183790207 0.6686358451843262
0.35841572284698486 -0.029962237924337387 0.6659131050109863
0.35917556285858154 -0.02608381398022175 0.6631371974945068
0.35995036363601685 -0.02213066816329956 0.6603080630302429
0.36164385080337524 -0.010312799364328384 0.6519885063171387
0.36307424306869507 -0.010029730387032032 0.6514782905578613
0.36392077803611755 -0.005750143434852362 0.6484137177467346
0.36550480127334595 -0.001621697680093348 0.6452850699424744
0.2770296633243561 -0.028341153636574745 0.6822392344474792
0.2797303795814514 -0.030235975980758667 0.6829093098640442
0.28324875235557556 -0.029865697026252747 0.6818698048591614
0.28388065099716187 -0.030076362192630768 0.6818698048591614
0.2884623110294342 -0.028514496982097626 0.6797877550125122
0.2926638424396515 -0.028111189603805542 0.6785725355148315
0.2944520115852356 -0.02775545045733452 0.6779308319091797
0.3030904531478882 -0.027694666758179665 0.6759495139122009
0.30434149503707886 -0.02774682827293873 0.6757038235664368
0.3081343173980713 -0.028171028941869736 0.6751375198364258
0.3100104033946991 -0.02810773253440857 0.6746735572814941
0.3152635395526886 -0.030583251267671585 0.6751617789268494
0.3174719512462616 -0.03461429476737976 0.6773823499679565
0.31811442971229553 -0.034828487783670425 0.6773823499679565
0.3196086883544922 -0.03809206932783127 0.6792457103729248
0.3203253149986267 -0.039389993995428085 0.6799595355987549
0.32953310012817383 -0.048193830996751785 0.6838237643241882
0.3301706314086914 -0.04860673472285271 0.6839591860771179
0.3401283025741577 -0.04890059679746628 0.6819202899932861
0.342007577419281 -0.04871515929698944 0.681373119354248
0.34452328085899353 -0.048314787447452545 0.6805383563041687
0.3483225405216217 -0.04688698798418045 0.6787223815917969
0.35024145245552063 -0.04646173119544983 0.678005039691925
0.3508836030960083 -0.04614124819636345 0.6776447296142578
0.35217493772506714 -0.04520907625555992 0.6767266392707825
0.35412123799324036 -0.044460706412792206 0.6757849454879761
0.3554895520210266 -0.0392305962741375 0.6719528436660767
0.3562036156654358 -0.03553213179111481 0.669300377368927
0.3575993776321411 -0.03198506683111191 0.6665964722633362
0.358347624540329 -0.028143951669335365 0.6638398170471191
0.3591107428073883 -0.024227723479270935 0.6610292196273804
0.36302757263183594 -0.008012919686734676 0.6492222547531128
0.3638782203197479 -0.003689248114824295 0.6461175084114075
0.3654704988002777 0.00048337067710235715 0.6429481506347656
0.27355077862739563 -0.026386264711618423 0.6808891892433167
0.2756294906139374 -0.028040140867233276 0.6815389394760132
0.27633923292160034 -0.028698435053229332 0.6818238496780396
0.2814141809940338 -0.030559523031115532 0.6819381713867188
0.2859647870063782 -0.028999198228120804 0.6798581480979919
0.28660017251968384 -0.02921098656952381 0.6798581480979919
0.2919047474861145 -0.02811409905552864 0.677921712398529
0.2925446629524231 -0.02832740545272827 0.677921712398529
0.2955818772315979 -0.028136149048805237 0.6771080493927002
0.2961943447589874 -0.028120025992393494 0.6769591569900513
0.2980293333530426 -0.028018515557050705 0.6764771342277527
0.30050554871559143 -0.028049644082784653 0.6759402751922607
0.30111801624298096 -0.02798841893672943 0.6757608652114868
0.30238673090934753 -0.028229616582393646 0.67563796043396
0.3042609989643097 -0.028308669105172157 0.6752690076828003
0.3061593770980835 -0.028569074347615242 0.6750175356864929
0.3138401210308075 -0.030227001756429672 0.6744077205657959
0.3166029155254364 -0.03321414813399315 0.6758041977882385
0.3187587559223175 -0.03678475692868233 0.6777319312095642
0.3236300051212311 -0.04426155611872673 0.6816882491111755
0.32559192180633545 -0.04603281617164612 0.6824435591697693
0.3319808542728424 -0.05026671662926674 0.6838656067848206
0.3326093554496765 -0.050534654408693314 0.683905303478241
0.3344759941101074 -0.05088236927986145 0.6837196350097656
0.3363216519355774 -0.0505402572453022 0.6830726861953735
0.33818596601486206 -0.05052626505494118 0.6826430559158325
0.3400465250015259 -0.05011695250868797 0.6819471716880798
0.34568747878074646 -0.048937540501356125 0.6798791885375977
0.34631797671318054 -0.0486232228577137 0.6795246601104736
0.34822165966033936 -0.048204805701971054 0.6788128018379211
0.3520631790161133 -0.046598900109529495 0.6768617033958435
0.35540837049484253 -0.03750160336494446 0.6699588298797607
0.3561253249645233 -0.033767666667699814 0.6672734618186951
0.35752734541893005 -0.030185429379343987 0.66453617811203
0.35827890038490295 -0.026307281106710434 0.6617453694343567
0.35929521918296814 -0.01053246296942234 0.6508538126945496
0.36298051476478577 -0.005974410101771355 0.6469423174858093
0.3638354539871216 -0.0016059483168646693 0.6437971591949463
0.36455562710762024 -0.0018460082355886698 0.6437971591949463
0.36543598771095276 0.002612585201859474 0.6405850648880005
0.27143317461013794 -0.025447648018598557 0.6799156069755554
0.27703213691711426 -0.030177365988492966 0.6818568706512451
0.27893760800361633 -0.030910562723875046 0.6819233298301697
0.2979324162006378 -0.028411181643605232 0.675936222076416
0.29857563972473145 -0.02862558327615261 0.675936222076416
0.3105076849460602 -0.02963029220700264 0.673920750617981
0.31243643164634705 -0.030111370608210564 0.6738109588623047
0.3157886564731598 -0.032549899071455 0.674706757068634
0.3201303780078888 -0.040224719792604446 0.6789290904998779
0.32421785593032837 -0.045739829540252686 0.681744396686554
0.32681989669799805 -0.04803173989057541 0.6827104091644287
0.3399653732776642 -0.05132805183529854 0.6819743514060974
0.3424583971500397 -0.05095333606004715 0.6811567544937134
0.3443396985530853 -0.05077235400676727 0.6806090474128723
0.34559357166290283 -0.05024184659123421 0.6799656748771667
0.34685686230659485 -0.05014153942465782 0.6796123385429382
0.35002994537353516 -0.049099843949079514 0.6781891584396362
0.35066860914230347 -0.04878443107008934 0.677830696105957
0.3526041507720947 -0.04642951115965843 0.6757968664169312
0.3539276719093323 -0.04308241605758667 0.6732285022735596
0.35532644391059875 -0.035755012184381485 0.6679444313049316
0.35671451687812805 -0.032208401709795 0.665226399898529
0.35745465755462646 -0.028367461636662483 0.6624547243118286
0.3582092821598053 -0.024451255798339844 0.6596290469169617
0.3605656325817108 -0.012207102961838245 0.6507954001426697
0.3620915412902832 -0.008237337693572044 0.6477590203285217
0.3629330098628998 -0.003913602326065302 0.6446376442909241
0.36379215121269226 0.0005003777914680541 0.6414505839347839
0.3645162880420685 0.0002589983632788062 0.6414505839347839
0.2714390456676483 -0.026357077062129974 0.6797150373458862
0.2721463739871979 -0.026971690356731415 0.6799728274345398
0.27357012033462524 -0.028270598500967026 0.6805334091186523
0.28221502900123596 -0.03004094399511814 0.6797775626182556
0.2827698886394501 -0.02976515330374241 0.6794641017913818
0.28747281432151794 -0.028994066640734673 0.6778738498687744
0.2880653738975525 -0.02890252135694027 0.6776773929595947
0.29599693417549133 -0.02886757254600525 0.6758555769920349
0.3079156279563904 -0.030149037018418312 0.674025297164917
0.30854612588882446 -0.03020467422902584 0.6739203333854675
0.3104413151741028 -0.030380448326468468 0.6736100912094116
0.31434279680252075 -0.03188570216298103 0.6737493276596069
0.31501027941703796 -0.03234647214412689 0.673911452293396
0.31713011860847473 -0.0352669283747673 0.6754168272018433
0.3192826807498932 -0.03890102729201317 0.677400529384613
0.3213813006877899 -0.04215365648269653 0.6791367530822754
0.32208678126335144 -0.04340203478932381 0.6798257827758789
0.3241349756717682 -0.04637745022773743 0.6813846826553345
0.32866179943084717 -0.050160590559244156 0.6829313039779663
0.331828236579895 -0.05206451192498207 0.6835080981254578
0.3324548900127411 -0.052331503480672836 0.6835477352142334
0.33432722091674805 -0.05296400561928749 0.6835535168647766
0.336176335811615 -0.05293615907430649 0.6831151247024536
0.338032066822052 -0.052919287234544754 0.6826831698417664
0.3398814797401428 -0.05242402106523514 0.6819272041320801
0.3405092656612396 -0.05263328552246094 0.6819272041320801
0.348019540309906 -0.050503481179475784 0.6787763833999634
0.35251033306121826 -0.04476837441325188 0.673858642578125
0.3538394272327423 -0.04138771817088127 0.6712582111358643
0.35524383187294006 -0.03399089723825455 0.6659097075462341
0.3559662997722626 -0.03018505498766899 0.6631579995155334
0.3566380441188812 -0.03040897101163864 0.6631579995155334
0.3573811948299408 -0.026530863717198372 0.6603522896766663
0.35833054780960083 -0.012527404353022575 0.6506142020225525
0.3612108826637268 -0.010478585958480835 0.6485676765441895
0.3620392084121704 -0.006198922637850046 0.6454697847366333
0.36374813318252563 0.0026297313161194324 0.6390784978866577
0.3644762635231018 0.0023870181757956743 0.6390784978866577
0.2693953216075897 -0.02582368813455105 0.6789988875389099
0.2749570310115814 -0.030283616855740547 0.6807764768600464
0.27976569533348083 -0.03062226064503193 0.6799141764640808
0.28039684891700745 -0.030832644551992416 0.6799141764640808
0.28495725989341736 -0.029355106875300407 0.6778695583343506
0.29281362891197205 -0.029090486466884613 0.6759025454521179
0.3040297329425812 -0.0300744716078043 0.6740236282348633
0.305309534072876 -0.03041047230362892 0.6739617586135864
0.30657899379730225 -0.030641278252005577 0.6738306283950806
0.31362396478652954 -0.032389454543590546 0.673421323299408
0.3184090852737427 -0.037305377423763275 0.6756865978240967
0.319915771484375 -0.040789894759655 0.6777205467224121
0.32268837094306946 -0.045012667775154114 0.679970383644104
0.32534709572792053 -0.04804935306310654 0.6814375519752502
0.32600703835487366 -0.048800379037857056 0.6817995309829712
0.3273121416568756 -0.05012717470526695 0.6824081540107727
0.34226512908935547 -0.05234105512499809 0.6805182099342346
0.3491836488246918 -0.0505138635635376 0.6776988506317139
0.35045695304870605 -0.05038389936089516 0.6773207783699036
0.35174933075904846 -0.04665130376815796 0.6744807958602905
0.352415531873703 -0.04308931529521942 0.6718998551368713
0.35375040769577026 -0.039679888635873795 0.669270932674408
0.35516005754470825 -0.032212503254413605 0.6638566851615906
0.35588541626930237 -0.028367556631565094 0.6610690355300903
0.3565605878829956 -0.02859262004494667 0.6610690355300903
0.3573070168495178 -0.024675140157341957 0.6582276225090027
0.3596363663673401 -0.012463939376175404 0.6493687629699707
0.3603387773036957 -0.012698117643594742 0.6493687629699707
0.3611542880535126 -0.008461873978376389 0.6462938189506531
0.36198654770851135 -0.00413820194080472 0.6431553363800049
0.3628363013267517 0.00027588981902226806 0.6399515867233276
0.26869428157806396 -0.02611689455807209 0.6785411238670349
0.27145105600357056 -0.02816849574446678 0.679315984249115
0.2721562683582306 -0.028779558837413788 0.6795731782913208
0.27361637353897095 -0.03029295988380909 0.6802757382392883
0.28247055411338806 -0.029828816652297974 0.6779389381408691
0.28310495615005493 -0.030040288344025612 0.6779389381408691
0.2896476089954376 -0.029330849647521973 0.6759613156318665
0.29025164246559143 -0.029296759516000748 0.6758005619049072
0.2983202040195465 -0.03009078837931156 0.6745034456253052
0.3001840114593506 -0.030199522152543068 0.6741527915000916
0.3020710051059723 -0.030468197539448738 0.6739065647125244
0.30969667434692383 -0.03200891241431236 0.6732214093208313
0.31033116579055786 -0.03210864216089249 0.6731452345848083
0.3155348598957062 -0.03430180251598358 0.6734586954116821
