ply
format ascii 1.0
element vertex 814
property float x
property float y
property float z
end_header
0.4852997362613678 -0.012227953411638737 0.6275496482849121
0.48600178956985474 -0.012685018591582775 0.6276983022689819
0.4888756275177002 -0.014283151365816593 0.628125786781311
0.4893200099468231 -0.018149150535464287 0.6306085586547852
0.49647578597068787 -0.02190600149333477 0.6315245032310486
0.4972114861011505 -0.022214898839592934 0.6315668225288391
0.49873319268226624 -0.022687871009111404 0.6315439939498901
0.49992915987968445 -0.021681582555174828 0.6306059956550598
0.508010745048523 -0.022843193262815475 0.6295827627182007
0.5161697268486023 -0.02614685334265232 0.6299723982810974
0.5187207460403442 -0.02621942199766636 0.6294532418251038
0.48110878467559814 -0.01213237177580595 0.6274382472038269
0.4828200936317444 -0.012034526094794273 0.6269908547401428
0.4871746599674225 -0.014304423704743385 0.6275389194488525
0.488667756319046 -0.014918242581188679 0.6276166439056396
0.4884791374206543 -0.01814080774784088 0.6298176646232605
0.5013633370399475 -0.020031990483403206 0.6282073259353638
0.506052553653717 -0.021229445934295654 0.6279625296592712
0.5072795748710632 -0.02254601940512657 0.6285701990127563
0.5093804001808167 -0.02606835588812828 0.6304610371589661
0.5102187991142273 -0.02610391564667225 0.630297839641571
0.5118979811668396 -0.026174763217568398 0.6299701929092407
0.5127387046813965 -0.026210550218820572 0.6298061609268188
0.5143619775772095 -0.026439107954502106 0.629597008228302
0.4855201244354248 -0.014179250225424767 0.6268443465232849
0.487639456987381 -0.018128039315342903 0.6290228962898254
0.4904754161834717 -0.019741185009479523 0.629471480846405
0.4911704957485199 -0.02018246427178383 0.629612147808075
0.4925669729709625 -0.02103905752301216 0.6298748850822449
0.494048148393631 -0.02163587510585785 0.6299440264701843
0.49549737572669983 -0.0223245806992054 0.6300826072692871
0.4992873966693878 -0.021127719432115555 0.628429651260376
0.5004598498344421 -0.020201517269015312 0.6275448203086853
0.5020270943641663 -0.020585134625434875 0.6274514198303223
0.5043744444847107 -0.021175295114517212 0.6273220181465149
0.5065611004829407 -0.02221013978123665 0.62752765417099
0.5073583722114563 -0.024681121110916138 0.6290095448493958
0.5085684061050415 -0.026006178930401802 0.6296289563179016
0.5170214772224426 -0.026280784979462624 0.6279199123382568
0.47930505871772766 -0.012463062070310116 0.6261020302772522
0.4830162227153778 -0.014082234352827072 0.6263594627380371
0.4939209520816803 -0.02201756462454796 0.6292574405670166
0.49464553594589233 -0.02236183173954487 0.6293264627456665
0.4961460828781128 -0.022898515686392784 0.6293511986732483
0.4995563328266144 -0.020370997488498688 0.6268821954727173
0.5054610967636108 -0.022917473688721657 0.6272714138031006
0.5066283941268921 -0.024386504665017128 0.6279995441436768
0.5076747536659241 -0.026160310953855515 0.6289600133895874
0.5143159627914429 -0.026663631200790405 0.6278069615364075
0.4842764139175415 -0.015420699492096901 0.6259979009628296
0.48577794432640076 -0.016000380739569664 0.6260517835617065
0.48589229583740234 -0.0183109138160944 0.6275871992111206
0.48665061593055725 -0.018563682213425636 0.6275871992111206
0.48803332448005676 -0.019486796110868454 0.6279001235961914
0.48942485451698303 -0.020372329279780388 0.6281852722167969
0.49787044525146484 -0.020347757264971733 0.6262654662132263
0.5018051266670227 -0.021255560219287872 0.6259922981262207
0.5025671720504761 -0.021509578451514244 0.6259922981262207
0.5058973431587219 -0.02409132570028305 0.6269873380661011
0.5084567070007324 -0.026385964825749397 0.6279619932174683
0.5100533366203308 -0.02667420543730259 0.6277967691421509
0.5126413702964783 -0.026612699031829834 0.6271717548370361
0.4885825216770172 -0.020372966304421425 0.6274004578590393
0.49003520607948303 -0.02106621488928795 0.6275420784950256
0.4921853542327881 -0.022184232249855995 0.6278142333030701
0.4944131672382355 -0.02305980585515499 0.6279042959213257
0.4960939288139343 -0.023070570081472397 0.6275317072868347
0.5059805512428284 -0.026217633858323097 0.6274312138557434
0.5067246556282043 -0.02650502324104309 0.6274577975273132
0.4877394437789917 -0.020373594015836716 0.6266154646873474
0.49133235216140747 -0.022221477702260017 0.6270577311515808
0.5342098474502563 -0.009542354382574558 0.6779855489730835
0.5380083322525024 -0.007917990908026695 0.6802933216094971
0.5376101732254028 -0.007433092687278986 0.6803430914878845
0.5383540987968445 -0.007554905489087105 0.6799042224884033
0.5368086695671082 -0.007490695454180241 0.679051399230957
0.5350461602210999 -0.007674794178456068 0.677931010723114
0.530977725982666 -0.009609630331397057 0.6744751930236816
0.5360023975372314 -0.007548748981207609 0.6777521371841431
0.5301596522331238 -0.009652210399508476 0.6731643080711365
0.5297122001647949 -0.009204953908920288 0.6731643080711365
0.5282880663871765 -0.009902890771627426 0.6719390153884888
0.5352165102958679 0.000102598438388668 0.6817159652709961
0.5340102910995483 0.0024414374493062496 0.6823698878288269
0.5308963656425476 0.0062856171280145645 0.6827915906906128
0.5415093898773193 -0.011617635376751423 0.6777812242507935
0.5405378937721252 -0.009871658869087696 0.6782296299934387
0.5334116816520691 -0.007792722899466753 0.6753069758415222
0.5346095561981201 0.002161318203434348 0.6817646026611328
0.5298479199409485 0.006917520426213741 0.6817615032196045
0.542121171951294 -0.011908446438610554 0.6771644949913025
0.5408818125724792 -0.009508844465017319 0.6778382658958435
0.5400858521461487 -0.007558103650808334 0.6785091161727905
0.5361596941947937 0.00017599774582777172 0.6807206869125366
0.5341798663139343 0.004411234520375729 0.6820305585861206
0.5310672521591187 0.007328420411795378 0.6819168925285339
0.5275296568870544 0.0061651673167943954 0.679186999797821
0.5406940579414368 -0.007845887914299965 0.6778954267501831
0.5347777009010315 0.004132402129471302 0.6814264059066772
0.5338334441184998 0.005823467392474413 0.6818613409996033
0.5288144946098328 0.00663654925301671 0.6794115900993347
0.5260294675827026 0.006330398842692375 0.6776109933853149
0.5422737002372742 -0.009873656556010246 0.6768321394920349
0.5400704741477966 -0.005753370001912117 0.6779519319534302
0.538058340549469 -0.001461223466321826 0.6792837977409363
0.5371030569076538 0.0002492568746674806 0.6797250509262085
0.5363245606422424 0.0021558492444455624 0.6803840398788452
0.5341740846633911 0.006174194160848856 0.6814752817153931
0.5339181423187256 0.0068018329329788685 0.6816925406455994
0.5300421714782715 0.007049780339002609 0.6795729994773865
0.5218979716300964 0.005510836839675903 0.673916220664978
0.5434211492538452 -0.011470778845250607 0.6757641434669495
0.5366654992103577 0.0025091192219406366 0.6799971461296082
0.528942346572876 0.006724306847900152 0.6779416799545288
0.5249617695808411 0.006040751934051514 0.6752090454101562
0.5194610953330994 0.004729386884719133 0.6712178587913513
0.5432276725769043 -0.009800346568226814 0.6758255362510681
0.5402268767356873 -0.0037465726491063833 0.6776195168495178
0.53996342420578 -0.0031040553003549576 0.6778422594070435
0.5380462408065796 0.00032242649467661977 0.6787291169166565
0.5360569357872009 0.004557609558105469 0.680048942565918
0.5329116582870483 0.007438541855663061 0.6798935532569885
0.5262133479118347 0.006460323929786682 0.6753825545310974
0.5185031294822693 0.004617324564605951 0.669768750667572
0.5611357688903809 0.004338617902249098 0.6939067244529724
0.5425974726676941 -0.0076995594426989555 0.6758860945701599
0.5423309206962585 -0.007050971034914255 0.6761112213134766
0.539607048034668 -0.0016713113291189075 0.6776764392852783
0.5366555452346802 0.004278797656297684 0.6794436573982239
0.5302371382713318 0.007182315923273563 0.6773722171783447
0.5250842571258545 0.006128410808742046 0.6737141013145447
0.5226776003837585 0.005368934944272041 0.6718481183052063
0.5156151652336121 0.004329490475356579 0.667073130607605
0.5605605840682983 0.006330379284918308 0.6939915418624878
0.5577561259269714 0.01016312651336193 0.6945993900299072
0.5421406626701355 -0.005397394765168428 0.6761713624000549
0.5391615629196167 0.0005989139317534864 0.6779548525810242
0.5382064580917358 0.002302090637385845 0.6783972382545471
0.5362211465835571 0.006517617963254452 0.6797153353691101
0.5357905626296997 0.006948137655854225 0.6797153353691101
0.5352764129638672 0.008199650794267654 0.6801512837409973
0.5291351675987244 0.006856465246528387 0.675727128982544
0.5263378024101257 0.006548537407070398 0.6738917827606201
0.5173706412315369 0.004311714321374893 0.6672691106796265
0.5639797449111938 0.0003297692455817014 0.691709578037262
0.5620434880256653 0.004430105444043875 0.6929924488067627
0.559179961681366 0.010053356178104877 0.6946284174919128
0.5583016276359558 0.009867782704532146 0.693997859954834
0.5578946471214294 0.010274776257574558 0.693997859954834
0.5356156826019287 0.008548734709620476 0.6797670125961304
0.5346745848655701 0.010224897414445877 0.6802027821540833
0.532597005367279 0.008824911899864674 0.6781410574913025
0.5303988456726074 0.0073056635446846485 0.675937294960022
0.5294962525367737 0.015339200384914875 0.6801648736000061
0.5186702609062195 0.004745309241116047 0.667466402053833
0.5157211422920227 0.004414081107825041 0.6655218005180359
0.5100501179695129 0.0031680569518357515 0.6614210605621338
0.5645550489425659 5.431604586192407e-05 0.6911298632621765
0.5635327696800232 0.002521848538890481 0.6919892430305481
0.5606943368911743 0.008221053518354893 0.6936901807785034
0.5383660197257996 0.004272331018000841 0.6780665516853333
0.5362114310264587 0.008273040875792503 0.6791642308235168
0.5354419350624084 0.010143638588488102 0.6798189282417297
0.5325392484664917 0.009643571451306343 0.6777957081794739
0.5302712321281433 0.008053765632212162 0.6755018830299377
0.5281357765197754 0.006624874658882618 0.6733827590942383
0.5145112872123718 0.004063093103468418 0.6637589335441589
0.5072550177574158 0.002162825781852007 0.6583146452903748
0.5641062259674072 0.002248229691758752 0.6914114356040955
0.5620187520980835 0.0061278878711164 0.6924799680709839
0.556826651096344 0.009739246219396591 0.6915373802185059
0.5324817895889282 0.010461483150720596 0.6774510145187378
0.5297791361808777 0.00931483693420887 0.675155520439148
0.5300970077514648 0.016828494146466255 0.6798256039619446
0.5278661251068115 0.016237864270806313 0.6781430840492249
0.5132910013198853 0.003709001699462533 0.6619806289672852
0.5102576613426208 0.0033653685823082924 0.6599668860435486
0.5076438188552856 0.0025540445931255817 0.657924473285675
0.5058596730232239 0.0026092384941875935 0.6568934321403503
0.5663765072822571 -0.0015292658936232328 0.6897522807121277
0.5635054707527161 0.004226082470268011 0.6914771795272827
0.5600606799125671 0.010052398778498173 0.6929014921188354
0.5593608021736145 0.010089959017932415 0.6925053000450134
0.5575462579727173 0.010573917999863625 0.6917095184326172
0.5378351807594299 0.0072907814756035805 0.6779577136039734
0.5363746881484985 0.01021676603704691 0.6788340210914612
0.534242570400238 0.014169061556458473 0.6799227595329285
0.5045720934867859 0.002239885274320841 0.6550434231758118
0.5661793947219849 5.48745556443464e-05 0.6898218393325806
0.5630616545677185 0.00639721192419529 0.6917560696601868
0.5621488094329834 0.008019817061722279 0.6921818256378174
0.5582732558250427 0.01141789648681879 0.6918954253196716
0.5379149317741394 0.00826569739729166 0.6777934432029724
0.5322011709213257 0.018151268362998962 0.6802958250045776
0.5316498279571533 0.01844385638833046 0.6801405549049377
0.5090529322624207 0.0030470991041511297 0.6573514938354492
0.5064162611961365 0.0022290791384875774 0.6552794575691223
0.501920759677887 0.001450343057513237 0.6521157026290894
0.5676172971725464 -0.003936070017516613 0.6875244975090027
0.5658296942710876 0.0014258773298934102 0.6896746754646301
0.5655727386474609 0.002042231848463416 0.68989098072052
0.5643957853317261 0.00429396191611886 0.6905374526977539
0.5624657869338989 0.008356960490345955 0.6918206810951233
0.5596957206726074 0.012216949835419655 0.6924763321876526
0.5582954287528992 0.012298757210373878 0.6916831731796265
0.537307620048523 0.010290002450346947 0.677849292755127
0.5361093878746033 0.012579457834362984 0.6785056591033936
0.53440922498703 0.016086865216493607 0.6795928478240967
0.5321531295776367 0.018962111324071884 0.6799651980400085
0.5296734571456909 0.018977131694555283 0.6784826517105103
0.5199919939041138 0.014252247288823128 0.6698161959648132
0.504662275314331 0.002325425622984767 0.653419554233551
0.4973195195198059 0.0006507044308818877 0.647994875907898
0.5680030584335327 -0.0015282360836863518 0.6884422302246094
0.561872661113739 0.010308894328773022 0.6918852925300598
0.5611206293106079 0.012114062905311584 0.692520797252655
0.5517970323562622 0.01432674191892147 0.6882304549217224
0.5496681928634644 0.013609749265015125 0.686513364315033
0.5367029309272766 0.01230661105364561 0.6779049038887024
0.5316190719604492 0.02013309672474861 0.6795595288276672
0.5033939480781555 0.0019856090657413006 0.6515818238258362
0.500643253326416 0.0011159498244524002 0.649397611618042
0.5685814023017883 -0.0018050645012408495 0.6878600120544434
0.5664656162261963 0.00211016065441072 0.688948929309845
0.5654392242431641 0.004565296228975058 0.6898132562637329
0.5645206570625305 0.006194567773491144 0.6902435421943665
0.5625947713851929 0.010238483548164368 0.6915250420570374
0.5478178262710571 0.01319948397576809 0.6843753457069397
0.5439718961715698 0.011446546763181686 0.680987536907196
0.5419885516166687 0.010068328119814396 0.6789533495903015
0.5362719893455505 0.01450423989444971 0.6781784892082214
0.5341501832008362 0.01842092163860798 0.6792646646499634
0.5325016975402832 0.020176226273179054 0.6793292760848999
0.5021165609359741 0.00164507026784122 0.649730384349823
0.49886927008628845 0.0012439675629138947 0.6475227475166321
0.496052086353302 0.00035829900298267603 0.6452820897102356
0.49415743350982666 0.00040026544593274593 0.6441611647605896
0.5679687261581421 0.00019060696649830788 0.6879335045814514
0.5660121440887451 0.004293220117688179 0.6892359256744385
0.5648373961448669 0.006533127278089523 0.689882218837738
0.562002420425415 0.012181841768324375 0.6915897727012634
0.5617519021034241 0.0127816591411829 0.6918017864227295
0.5601023435592651 0.01616881974041462 0.6928561925888062
0.5579639673233032 0.018035419285297394 0.6926913857460022
0.5457987189292908 0.012614944949746132 0.6820192337036133
0.5368643999099731 0.014232969842851162 0.6775793433189392
0.525374174118042 0.018871048465371132 0.6734209656715393
0.5237112641334534 0.01804457977414131 0.671910285949707
0.5218973159790039 0.01707325503230095 0.670220136642456
0.5195592045783997 0.016469653695821762 0.668434739112854
0.51568603515625 0.01434469036757946 0.6647948026657104
0.49471697211265564 3.8104187751741847e-06 0.6433667540550232
0.4927988648414612 3.509674934321083e-05 0.6422216892242432
0.5702816843986511 -0.0035811031702905893 0.686280369758606
0.5682863593101501 0.0005337383481673896 0.6875704526901245
0.564644992351532 0.008086070418357849 0.689950704574585
0.558844268321991 0.01815834455192089 0.692550539970398
0.5515022277832031 0.016535991802811623 0.6870946288108826
0.5362630486488342 0.016233136877417564 0.6776353120803833
0.5343162417411804 0.020319918170571327 0.6789377927780151
0.5297986268997192 0.02081136777997017 0.6764872074127197
0.528219997882843 0.020046019926667213 0.6750606298446655
0.5277896523475647 0.02047625184059143 0.6750606298446655
0.5261920094490051 0.019705135375261307 0.6736189723014832
0.4962320029735565 0.0005449758609756827 0.6437227725982666
0.4928867816925049 0.0001289032952627167 0.641433596611023
0.4885067045688629 -0.001239434233866632 0.6379349231719971
0.5680855512619019 0.002109919674694538 0.6876441836357117
0.567827045917511 0.002725109923630953 0.6878619194030762
0.5640470385551453 0.010038767009973526 0.6900190114974976
0.5621320605278015 0.014046154916286469 0.6912961006164551
0.5609801411628723 0.01623694598674774 0.6919302940368652
0.5555810332298279 0.01863972283899784 0.6901012063026428
0.5537847280502319 0.018288929015398026 0.6887906193733215
0.5458674430847168 0.0144253084436059 0.6815996170043945
0.5358354449272156 0.01841067522764206 0.6779085397720337
0.5328760147094727 0.02227255143225193 0.6784594655036926
0.5270060896873474 0.020535245537757874 0.6738159656524658
0.522136390209198 0.018191896378993988 0.6694130897521973
0.5216981768608093 0.018630195409059525 0.6694130897521973
0.5119370222091675 0.014195850118994713 0.6607481241226196
0.5099170804023743 0.013100164011120796 0.6588461995124817
0.491524875164032 -0.00022991620062384754 0.6394827961921692
0.48549333214759827 -0.0012304822448641062 0.6351902484893799
0.5703752040863037 -0.001669234479777515 0.6859673261642456
0.570113480091095 -0.001048144418746233 0.6861873865127563
0.5674766302108765 0.004088824149221182 0.6877177357673645
0.5662973523139954 0.006330430507659912 0.6883681416511536
0.5643625259399414 0.010374357923865318 0.6896593570709229
0.5603951215744019 0.01815507747232914 0.6919938325881958
0.5601475238800049 0.018745727837085724 0.6922037601470947
0.5591624975204468 0.019330697134137154 0.691959023475647
0.5549437403678894 0.018725715577602386 0.6890058517456055
0.5532520413398743 0.018506640568375587 0.6878361701965332
0.5489782691001892 0.016188476234674454 0.6838006973266602
0.5439715385437012 0.014015664346516132 0.6794055104255676
0.5384688377380371 0.014126344583928585 0.6761044263839722
0.5364248752593994 0.018142135813832283 0.6773115992546082
0.5352389216423035 0.020393170416355133 0.6779636740684509
0.5343117713928223 0.022030649706721306 0.6783985495567322
0.5313885807991028 0.022444961592555046 0.6768625974655151
0.5293974876403809 0.0221199169754982 0.6754447817802429
0.5246033668518066 0.019819777458906174 0.6711016893386841
0.5156962275505066 0.01614300347864628 0.6633979678153992
0.49015095829963684 -0.0005920196999795735 0.6375144124031067
0.48686158657073975 -0.000872675038408488 0.6353289484977722
0.48429346084594727 -0.0013927221298217773 0.6334384679794312
0.4829028248786926 -0.0017445450648665428 0.6323717832565308
0.5637667179107666 0.012317883782088757 0.6897280216217041
0.559181809425354 0.020191140472888947 0.6917470693588257
0.5568297505378723 0.020032478496432304 0.6902055740356445
0.5416266918182373 0.014025360345840454 0.6771829724311829
0.539779543876648 0.013753112405538559 0.6758817434310913
0.5392773747444153 0.01409522257745266 0.6757834553718567
0.5334563851356506 0.02285614050924778 0.6775885224342346
0.5304191708564758 0.022297609597444534 0.6753807663917542
0.5233663320541382 0.020313642919063568 0.6698325276374817
0.5200626254081726 0.018740268424153328 0.6668382287025452
0.5183840990066528 0.017940880730748177 0.6653168201446533
0.51664799451828 0.017093509435653687 0.6637306213378906
0.5039460062980652 0.011812758632004261 0.6526897549629211
0.5016373991966248 0.010495468974113464 0.6504634618759155
0.4888125956058502 -0.0009104876080527902 0.6355865597724915
0.483088880777359 -0.0015520150773227215 0.6316784620285034
0.4799306392669678 -0.0016231773188337684 0.6296956539154053
0.5721142292022705 -0.0033964503090828657 0.6844336986541748
0.5704865455627441 0.0002588917559478432 0.6856822967529297
0.5698150396347046 0.001287163351662457 0.6859018802642822
0.5683674812316895 0.004156621638685465 0.6867774724960327
0.5673370361328125 0.006599495653063059 0.68764728307724
0.5664174556732178 0.008221768774092197 0.6880799531936646
0.5644865036010742 0.012246931903064251 0.6893694996833801
0.5624213218688965 0.016041390597820282 0.6904342174530029
0.5600045919418335 0.02024686709046364 0.6915357112884521
0.5561756491661072 0.02009480819106102 0.6890842914581299
0.5557702779769897 0.020500244572758675 0.6890842914581299
0.5544885993003845 0.019874291494488716 0.687909722328186
0.5519055724143982 0.018623031675815582 0.685548722743988
0.5459900498390198 0.01625366322696209 0.6804471611976624
0.5382871627807617 0.016566628590226173 0.6758970022201538
0.5380309224128723 0.017178809270262718 0.6761159300804138
0.5365859270095825 0.02004220522940159 0.6769891977310181
0.5353314876556396 0.022208523005247116 0.6775510311126709
0.5321044921875 0.022299008443951607 0.6756196618080139
0.5301044583320618 0.021961791440844536 0.6741805076599121
0.528631865978241 0.022185465320944786 0.6734113097190857
0.5276387929916382 0.022037675604224205 0.6727088093757629
0.5262443423271179 0.02148442715406418 0.6715095639228821
0.517105758190155 0.018438782542943954 0.6640069484710693
0.5136069655418396 0.016752107068896294 0.6608139276504517
0.48446527123451233 -0.0011979592964053154 0.6318168044090271
0.48144710063934326 -0.0011502373963594437 0.6299875974655151
0.572001039981842 -0.0016682586865499616 0.6846580505371094
0.569871187210083 0.0022457214072346687 0.6857597231864929
0.5667327642440796 0.008558816276490688 0.6877202391624451
0.5638918876647949 0.014181939885020256 0.6894384622573853
0.5551116466522217 0.020564019680023193 0.6879574656486511
0.5525241494178772 0.01930360682308674 0.6855811476707458
0.5495036840438843 0.018466928973793983 0.6831992268562317
0.5481866598129272 0.017841752618551254 0.6819997429847717
0.5454281568527222 0.016473159193992615 0.6794512271881104
0.5434529185295105 0.016025714576244354 0.6779549717903137
0.5379402041435242 0.017946500331163406 0.6757369041442871
0.5376845002174377 0.01855691894888878 0.6759558916091919
0.533992350101471 0.021648842841386795 0.675585150718689
0.5307379364967346 0.02173588052392006 0.6736290454864502
0.5297861695289612 0.021621931344270706 0.6729709506034851
0.525248110294342 0.021339187398552895 0.6699938774108887
0.5217482447624207 0.020432617515325546 0.6672728061676025
0.5200872421264648 0.019646307453513145 0.665761411190033
0.5162658095359802 0.018493909388780594 0.6626898050308228
0.5127717852592468 0.016826845705509186 0.6595026254653931
0.5105136632919312 0.01640441082417965 0.6578471660614014
0.497761607170105 0.010479304008185863 0.6463130712509155
0.4790812134742737 -0.0014065706636756659 0.6274366974830627
0.5701875686645508 0.002587404567748308 0.6853984594345093
0.5684827566146851 0.006058159749954939 0.686492383480072
0.5665367841720581 0.010104208253324032 0.687792956829071
0.564206063747406 0.014514450915157795 0.6890808939933777
0.5632996559143066 0.016109328716993332 0.689507246017456
0.5623000860214233 0.01847969926893711 0.6903563141822815
0.5584076046943665 0.021771127358078957 0.6899839043617249
0.5501196384429932 0.019139345735311508 0.6832208633422852
0.5461485385894775 0.017259519547224045 0.6795970797538757
0.5382749438285828 0.018288491293787956 0.67535799741745
0.5354490876197815 0.021425843238830566 0.6755509376525879
0.5322102308273315 0.02151101641356945 0.6735977530479431
0.5293563604354858 0.021166479215025902 0.6716167330741882
0.5234036445617676 0.02121996507048607 0.6679630875587463
0.5209324955940247 0.020492631942033768 0.6659820079803467
0.5188202857971191 0.020146522670984268 0.6644594073295593
0.5154210925102234 0.018549298867583275 0.6613649129867554
0.5119315981864929 0.016901656985282898 0.6581832766532898
0.5096635818481445 0.016479650512337685 0.6565171480178833
0.5034974813461304 0.014136704616248608 0.6512472033500671
0.5013720989227295 0.013014299795031548 0.6492354869842529
0.49139052629470825 0.008186545222997665 0.6400637030601501
0.4804600179195404 -0.001067846198566258 0.6275620460510254
0.5728980898857117 -0.0016003474593162537 0.6837116479873657
0.5699830651283264 0.0041559189558029175 0.6854764819145203
0.5659365653991699 0.012048720382153988 0.6878655552864075
0.5640164017677307 0.016037238761782646 0.6891503930091858
0.5628625750541687 0.018218185752630234 0.689788281917572
0.5601589679718018 0.022053077816963196 0.6904909610748291
0.5596213340759277 0.022290870547294617 0.6903048157691956
0.5588410496711731 0.022240711376070976 0.689788818359375
0.5572666525840759 0.022134821861982346 0.6887451410293579
0.5560848116874695 0.021622519940137863 0.6876928806304932
0.5537133812904358 0.020609531551599503 0.6855906844139099
0.5481081008911133 0.01857009530067444 0.6808421611785889
0.5463598370552063 0.01835993304848671 0.6796256303787231
0.5422900319099426 0.016447212547063828 0.6759098172187805
0.5378425717353821 0.02045544423162937 0.675636887550354
0.5341053605079651 0.020859764888882637 0.6735665202140808
0.5308390259742737 0.02094130590558052 0.6715883612632751
0.5275258421897888 0.02102421596646309 0.6695818901062012
0.5245187878608704 0.020587921142578125 0.667443037033081
0.5179893970489502 0.02020622231066227 0.6631503701210022
0.516289472579956 0.019409893080592155 0.6615997552871704
0.505088746547699 0.014769094996154308 0.6517597436904907
0.4984990954399109 0.012124541215598583 0.6460238695144653
0.4798191785812378 0.00028392969397827983 0.6270659565925598
0.5722764730453491 0.00039469695184379816 0.6837932467460632
0.5720138549804688 0.0010127167915925384 0.6840147376060486
0.5702986121177673 0.004496017470955849 0.685116171836853
0.56937175989151 0.006126096937805414 0.6855540871620178
0.5681904554367065 0.00835760124027729 0.6862084269523621
0.5662508010864258 0.012382730841636658 0.6875075101852417
0.562275230884552 0.020128268748521805 0.6898560523986816
0.5620265603065491 0.020716099068522453 0.6900674700737
0.5565237998962402 0.022095562890172005 0.6874986886978149
0.5541408658027649 0.021067196503281593 0.6853736639022827
0.5513339042663574 0.020464474335312843 0.6832497715950012
0.5456487536430359 0.018411647528409958 0.678429126739502
0.544297456741333 0.017778320237994194 0.6771929264068604
0.5384316444396973 0.02018837444484234 0.6750401258468628
0.5370548963546753 0.022228041663765907 0.6754530668258667
0.532889187335968 0.020437929779291153 0.6717427372932434
0.5294526219367981 0.02036532200872898 0.6695566773414612
0.5261106491088867 0.020444469526410103 0.6675242185592651
0.5226803421974182 0.020484596490859985 0.6654123067855835
0.520535945892334 0.020094268023967743 0.6638333201408386
0.5194944143295288 0.019937004894018173 0.663086473941803
0.5190517902374268 0.020379694178700447 0.663086473941803
0.5169500112533569 0.020064961165189743 0.6615810394287109
0.5115182995796204 0.01829730160534382 0.6570962071418762
0.5079465508460999 0.016629016026854515 0.6538320183753967
0.505629301071167 0.01620044745504856 0.6521214842796326
0.5018402338027954 0.01439500879496336 0.6486361622810364
0.49777743220329285 0.012373561039566994 0.6448460817337036
0.5737565755844116 -0.003595735877752304 0.6814517378807068
0.5740599036216736 -0.0021544485352933407 0.6825417876243591
0.5689120888710022 0.008287791162729263 0.685849666595459
0.5656524300575256 0.01431790366768837 0.687580406665802
0.5617339015007019 0.02208380214869976 0.689984142780304
0.5557762980461121 0.02205619588494301 0.6862447261810303
0.5505557656288147 0.020416295155882835 0.6819585561752319
0.5480499267578125 0.019322896376252174 0.6797099113464355
0.5449336767196655 0.01846368797123432 0.6772262454032898
0.5400179028511047 0.018342623487114906 0.674079418182373
0.5301564335823059 0.020204154774546623 0.6690812110900879
0.5290185213088989 0.0199026707559824 0.6681820750236511
0.5280505418777466 0.019782856106758118 0.6675025224685669
0.5256629586219788 0.019978707656264305 0.6661331653594971
0.5246796607971191 0.01985820196568966 0.6654435396194458
0.5236915349960327 0.019737018272280693 0.6647502779960632
0.5212593674659729 0.01993470825254917 0.6633543968200684
0.5190781354904175 0.019522078335285187 0.6617340445518494
0.515460193157196 0.019487928599119186 0.6594522595405579
0.512406587600708 0.019168313592672348 0.6573446989059448
0.5106475353240967 0.01835290715098381 0.6557362675666809
0.504751980304718 0.016274983063340187 0.6507546901702881
0.5028595328330994 0.015377173200249672 0.649011492729187
0.5009429454803467 0.014466697350144386 0.6472453474998474
0.4985347390174866 0.014014444313943386 0.6454579830169678
0.48936036229133606 0.010073821060359478 0.6372642517089844
0.5743762850761414 -0.0018093883991241455 0.682179868221283
0.5723828077316284 0.0023135037627071142 0.6835141181945801
0.5717113614082336 0.00333785149268806 0.6837353110313416
0.570260763168335 0.0061939978040754795 0.6846159100532532
0.5683057904243469 0.010240012779831886 0.6859260201454163
0.568049430847168 0.010842920280992985 0.6861432194709778
0.5663699507713318 0.014246324077248573 0.6872234344482422
0.5652076601982117 0.016436148434877396 0.687867283821106
0.5643016695976257 0.01802428811788559 0.6882947087287903
0.5620632171630859 0.022431323304772377 0.6896534562110901
0.5550243854522705 0.022016458213329315 0.6849830746650696
0.5538227558135986 0.021498974412679672 0.6839059591293335
0.5497727394104004 0.020367730408906937 0.6806594729423523
0.548129141330719 0.020268404856324196 0.6795674562454224
0.542426347732544 0.01830279268324375 0.6747625470161438
0.5414139628410339 0.018070904538035393 0.6739829182624817
0.5396113395690918 0.019653592258691788 0.6738451719284058
0.5385876297950745 0.022079622372984886 0.6747238039970398
0.5367327928543091 0.022726142778992653 0.6739668250083923
0.5353567600250244 0.02214028500020504 0.6727373003959656
0.5292931795120239 0.020177729427814484 0.6677084565162659
0.527816653251648 0.019530458375811577 0.6663777828216553
0.5261951088905334 0.019631464034318924 0.6654249429702759
0.5232325792312622 0.01926535926759243 0.6633391976356506
0.5207901000976562 0.01946113258600235 0.661931574344635
0.5171575546264648 0.01938995160162449 0.6596107482910156
0.509772002696991 0.018408888950943947 0.6543685793876648
0.5075265169143677 0.018039507791399956 0.6527301669120789
0.5038692355155945 0.01634993776679039 0.6493800282478333
0.49762001633644104 0.014085661619901657 0.6440457105636597
0.49564358592033386 0.013153783045709133 0.6422232985496521
0.4936259388923645 0.012194574810564518 0.6403580904006958
0.5746923685073853 -0.001464588101953268 0.6818180680274963
0.5717652440071106 0.00429174117743969 0.6835960745811462
0.5646142363548279 0.018353907391428947 0.687938928604126
0.5604760646820068 0.024002520367503166 0.6888881325721741
0.559407114982605 0.023609722033143044 0.6879696249961853
0.5590049624443054 0.024011973291635513 0.6879696249961853
0.5566555261611938 0.02300253137946129 0.6858587861061096
0.5542677044868469 0.021976608783006668 0.6837137341499329
0.5538590550422668 0.02238534390926361 0.6837137341499329
0.5473328828811646 0.020219027996063232 0.6782513856887817
0.5460864305496216 0.01969950646162033 0.6771416068077087
0.5399577617645264 0.020008418709039688 0.6734846234321594
0.5344995260238647 0.02209598757326603 0.6713665723800659
0.5250003337860107 0.019285621121525764 0.6636312007904053
0.5227704048156738 0.01879051886498928 0.6619190573692322
0.519305408000946 0.018859654664993286 0.6597847938537598
0.5156750082969666 0.018818145617842674 0.6574774980545044
0.5135138034820557 0.018479522317647934 0.6559066772460938
0.5097901225090027 0.018436403945088387 0.6535394787788391
0.5066341757774353 0.018095040693879128 0.6513417363166809
0.5029709935188293 0.016415027901530266 0.6479842066764832
0.4966999590396881 0.0141571881249547 0.6426248550415039
0.4947124719619751 0.013223113492131233 0.640788733959198
0.49270063638687134 0.012277650646865368 0.63893061876297
0.49013689160346985 0.01175773050636053 0.6369928121566772
0.48783573508262634 0.010575243271887302 0.6348036527633667
0.48313674330711365 0.00816166028380394 0.6303341388702393
0.48017600178718567 0.0073629384860396385 0.6279716491699219
0.5744779109954834 0.00011983607691945508 0.6819038987159729
0.5742135643959045 0.0007381829200312495 0.6821269989013672
0.5723416805267334 0.004019380547106266 0.6830151677131653
0.5712977647781372 0.006463390309363604 0.6838976740837097
0.5703713893890381 0.008086400106549263 0.6843366026878357
0.5684203505516052 0.012113497592508793 0.6856449842453003
0.5677598714828491 0.013118124566972256 0.6858618855476379
0.5660855770111084 0.016504162922501564 0.6869406700134277
0.5641746520996094 0.020450923591852188 0.6882236003875732
0.5547119379043579 0.022453155368566513 0.6835219860076904
0.5465314388275146 0.02016942761838436 0.6769271492958069
0.5452777147293091 0.019647974520921707 0.6758085489273071
0.5424214005470276 0.01913352869451046 0.6736840605735779
0.5403076410293579 0.02036699652671814 0.6731292605400085
0.5395086407661438 0.022152813151478767 0.6737513542175293
0.5332075953483582 0.022480467334389687 0.6699866652488708
0.5303804874420166 0.02128826454281807 0.6674537062644958
0.5270649194717407 0.020511245355010033 0.6648744940757751
0.5208547711372375 0.018630990758538246 0.6597756743431091
0.5178033709526062 0.018251260742545128 0.6576135158538818
0.5141868591308594 0.01825043186545372 0.6553336977958679
0.5115291476249695 0.018339214846491814 0.653714656829834
0.508225679397583 0.01783698797225952 0.651316225528717
0.5015875101089478 0.016931483522057533 0.6465620994567871
0.4996972978115082 0.016064509749412537 0.6448244452476501
0.4957747459411621 0.014229237101972103 0.6411958336830139
0.48423629999160767 0.010116730816662312 0.631332278251648
0.5760014653205872 -0.0018082746537402272 0.6808712482452393
0.5738545060157776 0.002107629319652915 0.6819893717765808
0.5706853270530701 0.008423605002462864 0.6839781403541565
0.5678176283836365 0.014049517922103405 0.6857215762138367
0.5647364854812622 0.020190736278891563 0.6876557469367981
0.5621462464332581 0.024146901443600655 0.6885190010070801
0.5600212216377258 0.024247538298368454 0.6872395277023315
0.5523295402526855 0.022307297214865685 0.681151807308197
0.5482163429260254 0.021153194829821587 0.6778225898742676
0.5457249879837036 0.020119374617934227 0.6755945086479187
0.5389073491096497 0.02412019856274128 0.6738141775131226
0.5261591672897339 0.020460428670048714 0.6634434461593628
0.5183426737785339 0.017894180491566658 0.6568811535835266
0.5173159241676331 0.017765307798981667 0.6561508178710938
0.5147954225540161 0.01795756071805954 0.6546792984008789
0.5137521028518677 0.017827970907092094 0.6539379358291626
0.5122276544570923 0.01813049055635929 0.6531656384468079
0.5110777020454407 0.017908629029989243 0.6522985696792603
0.5077604651451111 0.01740156300365925 0.6498814821243286
0.5006620287895203 0.016984665766358376 0.6451312303543091
0.4987751543521881 0.016128497198224068 0.6433977484703064
0.49682655930519104 0.015225556679069996 0.6415954828262329
0.49235618114471436 0.013840475119650364 0.6378945708274841
0.4856817126274109 0.011450039222836494 0.6321650743484497
0.4834538400173187 0.010370454750955105 0.6300747394561768
0.48106274008750916 0.009156775660812855 0.6277961730957031
0.5741691589355469 0.0024494247045367956 0.6816292405128479
0.5721864104270935 0.006531271152198315 0.6829598546028137
0.570075273513794 0.010375909507274628 0.6840586066246033
0.568130373954773 0.014382132329046726 0.6853652596473694
0.5662047266960144 0.01834918186068535 0.6866592764854431
0.5641470551490784 0.022092821076512337 0.6877279281616211
0.5638973712921143 0.022677766159176826 0.6879403591156006
0.5588058829307556 0.024522511288523674 0.6858824491500854
0.557686448097229 0.024084804579615593 0.684895396232605
0.5565589666366577 0.023643819615244865 0.6839010715484619
0.551557719707489 0.02226797491312027 0.679858922958374
0.5503270626068115 0.021745119243860245 0.6787474155426025
0.5499127507209778 0.022159334272146225 0.6787474155426025
0.5461716651916504 0.020590025931596756 0.6753810048103333
0.5404297113418579 0.022225838154554367 0.6727783679962158
0.537457287311554 0.024306656792759895 0.6722133159637451
0.5360850095748901 0.023728160187602043 0.6709766387939453
0.5356589555740356 0.024154240265488625 0.6709766387939453
0.5342726111412048 0.02357248030602932 0.6697291135787964
0.5314623117446899 0.022393157705664635 0.6672002077102661
0.5300381183624268 0.02179550752043724 0.66591876745224
0.5296043753623962 0.022229311987757683 0.66591876745224
0.5281651020050049 0.021628189831972122 0.664625346660614
0.52524733543396 0.02040933258831501 0.6620032787322998
0.5233262777328491 0.02023330144584179 0.6606737971305847
0.520318865776062 0.018980907276272774 0.6579738855361938
0.5187554359436035 0.018307074904441833 0.6565554738044739
0.5171767473220825 0.017626816406846046 0.6551238298416138
0.5167263150215149 0.018077105283737183 0.6551238298416138
0.5153366923332214 0.0175971370190382 0.6539385318756104
0.5121925473213196 0.01720336638391018 0.651695966720581
0.5117371082305908 0.017658943310379982 0.651695966720581
0.5084090828895569 0.017135024070739746 0.649254322052002
0.5057083368301392 0.017252439633011818 0.6476168036460876
0.5034425258636475 0.01690695993602276 0.6459614634513855
0.49783292412757874 0.016179725527763367 0.6419448852539062
0.49342846870422363 0.014847593382000923 0.6383086442947388
0.4893570840358734 0.012962731532752514 0.634533166885376
0.48728248476982117 0.012001434341073036 0.6326086521148682
0.48256587982177734 0.010534101165831089 0.6286887526512146
0.5739568471908569 0.004018718376755714 0.6817148923873901
0.5707944631576538 0.010305455885827541 0.6837011575698853
0.5675298571586609 0.016309011727571487 0.6854422092437744
0.5636988282203674 0.02415611781179905 0.687995433807373
0.5541804432868958 0.023483116179704666 0.6815165877342224
0.5491276979446411 0.022119130939245224 0.6774373650550842
0.5436744689941406 0.020440921187400818 0.6729038953781128
0.5388072729110718 0.02659287303686142 0.6737205982208252
0.5378242135047913 0.028149770572781563 0.6740854382514954
0.5372518301010132 0.02841220796108246 0.6738883256912231
0.5258040428161621 0.020972339436411858 0.6618813276290894
0.5223976969718933 0.020181043073534966 0.6592129468917847
0.51578688621521 0.01804560422897339 0.6536527276039124
0.5101566314697266 0.017029672861099243 0.6494277119636536
0.5079748630523682 0.016726551577448845 0.6478481888771057
0.5040966272354126 0.016637273132801056 0.6453259587287903
0.5018085837364197 0.016286320984363556 0.6436482667922974
0.4990254342556 0.016401030123233795 0.641951858997345
0.49044960737228394 0.01398241613060236 0.6349627375602722
0.48581743240356445 0.012555169872939587 0.6311105489730835
0.5762693285942078 0.0002556624240241945 0.6800139546394348
0.574271023273468 0.00435902364552021 0.6813560724258423
0.5721457600593567 0.008222393691539764 0.6824641823768616
0.570185661315918 0.012249317951500416 0.6837819814682007
0.5682451128959656 0.01623685657978058 0.6850868463516235
0.5670806169509888 0.018417105078697205 0.6857345104217529
0.557162344455719 0.02426602691411972 0.6831400990486145
0.5556214451789856 0.02423200197517872 0.6821358799934387
0.5521801114082336 0.022908197715878487 0.6790979504585266
0.5458133816719055 0.021016215905547142 0.6738327145576477
0.5431555509567261 0.020728589966893196 0.6719547510147095
0.5416906476020813 0.021783944219350815 0.6716936230659485
0.5413509011268616 0.022298915311694145 0.6718055605888367
0.5405808687210083 0.0241084024310112 0.6724679470062256
0.5381547808647156 0.028483761474490166 0.6737109422683716
0.535811185836792 0.02948436327278614 0.6728545427322388
0.5343785285949707 0.02886945568025112 0.6715492010116577
0.5263593792915344 0.021533949300646782 0.6617598533630371
0.5214628577232361 0.020128430798649788 0.6577419638633728
0.5184214115142822 0.018870137631893158 0.655000627040863
0.5164279341697693 0.01868317648768425 0.6536107659339905
0.5096325278282166 0.016528503969311714 0.6479043960571289
0.5063909292221069 0.01611980050802231 0.6455771923065186
0.5036118626594543 0.016191579401493073 0.6438512206077576
0.5013139247894287 0.01583711802959442 0.6421601176261902
0.49851927161216736 0.015949638560414314 0.640450119972229
0.4973466396331787 0.015770284458994865 0.6395881772041321
0.4956935942173004 0.016063576564192772 0.6387211680412292
0.49450647830963135 0.015883537009358406 0.6378495693206787
0.49153316020965576 0.01499426830559969 0.635387122631073
0.4894871115684509 0.014053698629140854 0.6334829926490784
0.48693183064460754 0.01358629111200571 0.6315559148788452
0.48270368576049805 0.011649621650576591 0.6276255249977112
0.576583743095398 0.0005989548517391086 0.6796537637710571
0.5736507177352905 0.006328629329800606 0.6814419031143188
0.5699837803840637 0.01378100086003542 0.6838623285293579
0.5695794820785522 0.014185369946062565 0.6838623285293579
0.5664849877357483 0.020326681435108185 0.685810387134552
0.5662330389022827 0.020914319902658463 0.6860250234603882
0.5645802021026611 0.02423803135752678 0.6870934963226318
0.561079740524292 0.02532169036567211 0.6855482459068298
0.5585688948631287 0.024992477148771286 0.6837321519851685
0.5563320517539978 0.024136405438184738 0.6817545890808105
0.5559244155883789 0.02454397827386856 0.6817545890808105
0.5513172745704651 0.02276936173439026 0.6776742339134216
0.5485572218894958 0.022293606773018837 0.6756051182746887
0.546174943447113 0.02139054611325264 0.6735045313835144
0.5420358180999756 0.022137556225061417 0.6713356971740723
0.5335062146186829 0.02882927656173706 0.6701606512069702
0.5321447253227234 0.028301795944571495 0.6689527630805969
0.5317177772521973 0.028728820383548737 0.6689527630805969
0.5220308303833008 0.020698171108961105 0.6576242446899414
0.5122631192207336 0.01728980243206024 0.6491996645927429
0.5101611614227295 0.017050085589289665 0.6477023959159851
0.5069392323493958 0.01574873737990856 0.6448103785514832
0.5058480501174927 0.015609879046678543 0.6440237164497375
0.5042849779129028 0.015936553478240967 0.6432331800460815
0.5031302571296692 0.015749070793390274 0.6423749923706055
0.5019732117652893 0.015564532950520515 0.6415172219276428
0.4991811215877533 0.015675637871026993 0.6398029327392578
0.4927804470062256 0.015242165885865688 0.6354334354400635
0.49036169052124023 0.014873147942125797 0.6336508989334106
0.48803627490997314 0.0146085349842906 0.631994903087616
0.4838385581970215 0.01269378699362278 0.6280863881111145
0.5763660669326782 0.0021754151675850153 0.6797438263893127
0.5756911039352417 0.003200251143425703 0.679967999458313
0.5742268562316895 0.006057757884263992 0.6808615326881409
0.5731790661811829 0.008489623665809631 0.6817489862442017
0.5722514986991882 0.010105722583830357 0.6821906566619873
0.5702956914901733 0.014113814570009708 0.6835064888000488
0.5660409927368164 0.022413302212953568 0.6861002445220947
0.5623113512992859 0.025863640010356903 0.6859211921691895
0.5476717948913574 0.022151099517941475 0.6741531491279602
0.5460575819015503 0.02211913838982582 0.673097550868988
0.5414999127388 0.024181455373764038 0.6714974045753479
0.5403096675872803 0.02640346996486187 0.6721588969230652
0.5372555255889893 0.030102241784334183 0.6725723147392273
0.5307353138923645 0.028592320159077644 0.6674229502677917
0.529382050037384 0.028090815991163254 0.6662337183952332
0.5195745229721069 0.02002214640378952 0.6547706127166748
0.5160425901412964 0.019206296652555466 0.6519827246665955
0.5144783854484558 0.018565526232123375 0.6505689024925232
0.5124431252479553 0.018374940380454063 0.6491415500640869
0.5053551197052002 0.016060439869761467 0.6431122422218323
0.503731906414032 0.015423051081597805 0.6416627764701843
0.5003150701522827 0.014929992146790028 0.6391555070877075
0.4974972605705261 0.015038317069411278 0.6374180316925049
0.4951244592666626 0.014671123586595058 0.6356609463691711
0.49224525690078735 0.014779048971831799 0.6338838934898376
0.48701155185699463 0.014637761749327183 0.6304372549057007
0.5757400989532471 0.00415470264852047 0.6798332929611206
0.5725641250610352 0.010441376827657223 0.6818339228630066
0.5696905851364136 0.016041534021496773 0.683587372303009
0.5685221552848816 0.01822340488433838 0.6842390298843384
0.5666024684906006 0.022154737263917923 0.6855326890945435
0.5659510493278503 0.02313968352973461 0.6857472062110901
0.5633116364479065 0.02613399177789688 0.6859754323959351
0.5610466599464417 0.02607014961540699 0.6844777464866638
0.5553039908409119 0.024627111852169037 0.6798567771911621
0.5530872344970703 0.023838525637984276 0.6779240965843201
0.5503329038619995 0.02335076965391636 0.6758391261100769
0.5451567769050598 0.02197485975921154 0.6716254353523254
0.5408961176872253 0.026140807196497917 0.671564519405365
0.5380043387413025 0.030012408271431923 0.6721946001052856
0.5367811322212219 0.030460411682724953 0.6716961860656738
0.5341596603393555 0.02948579750955105 0.6693834662437439
0.5297142267227173 0.028423460200428963 0.6658416986465454
0.5283516049385071 0.027919337153434753 0.6646409630775452
0.5269771814346313 0.027410883456468582 0.6634302139282227
0.5181714296340942 0.02041773684322834 0.6532701253890991
0.5114466547966003 0.018314575776457787 0.6475927829742432
0.5081943869590759 0.01697869785130024 0.6446423530578613
0.5065119862556458 0.016270043328404427 0.643104612827301
0.5043456554412842 0.01602107472717762 0.6415514349937439
0.5026268362998962 0.015300339087843895 0.6399824023246765
0.4998151659965515 0.014476064592599869 0.6376442313194275
0.496981143951416 0.014578268863260746 0.6358874440193176
0.49059656262397766 0.014222374185919762 0.6315526962280273
0.4869615137577057 0.014624113216996193 0.6294732689857483
0.4856753647327423 0.014395470730960369 0.6284990906715393
0.4839078187942505 0.013745281845331192 0.6269443035125732
0.4834187626838684 0.01423440407961607 0.6269443035125732
0.5782040953636169 0.0005992561345919967 0.678349494934082
0.5760536193847656 0.004494963213801384 0.6794751286506653
0.5740659832954407 0.008557561784982681 0.680813193321228
0.5719515681266785 0.012385268695652485 0.681918203830719
0.5700019001960754 0.016372675076127052 0.6832324862480164
0.5688331127166748 0.018552932888269424 0.6838847994804382
0.5680712461471558 0.020321179181337357 0.6845338940620422
0.5660103559494019 0.024048693478107452 0.6856088042259216
0.5657600164413452 0.024630775675177574 0.6858228445053101
0.5640904903411865 0.02614114247262478 0.6857202053070068
0.5616332292556763 0.02584145776927471 0.6839419603347778
0.5612311363220215 0.026243599131703377 0.6839419603347778
0.558043360710144 0.025128979235887527 0.6811671853065491
0.5533027052879333 0.024048885330557823 0.6774131059646606
0.5517888069152832 0.024086778983473778 0.6764611601829529
0.5482739806175232 0.02276518940925598 0.6733419895172119
0.5454607605934143 0.02228434383869171 0.6712174415588379
0.5424192547798157 0.024254564195871353 0.6705265641212463
0.5404601693153381 0.028267590329051018 0.6718512177467346
0.5383322834968567 0.030343111604452133 0.671817421913147
0.5358006358146667 0.03030158393085003 0.6701579093933105
0.5331606864929199 0.029321974143385887 0.6678234338760376
0.5300464630126953 0.02875589206814766 0.665449857711792
0.5268792510032654 0.028180338442325592 0.6630358695983887
0.5254931449890137 0.027671048417687416 0.661813497543335
0.5140862464904785 0.019091980531811714 0.6489235758781433
0.5120447874069214 0.01890350691974163 0.6474854350090027
0.4952682852745056 0.013928290456533432 0.6334565281867981
0.49237969517707825 0.01403255295008421 0.6316608786582947
0.49126946926116943 0.013939670287072659 0.6308848261833191
0.48917609453201294 0.01388282049447298 0.6294981837272644
0.4886917173862457 0.014367252588272095 0.6294981837272644
0.4854773283004761 0.014251168817281723 0.6273500323295593
0.5780002474784851 -0.00082157994620502 0.6765148043632507
0.5785177946090698 0.0009421884897165 0.6779904365539551
0.5758378505706787 0.006056588143110275 0.6795647740364075
0.572668731212616 0.012314275838434696 0.6815626621246338
0.5686351656913757 0.02006111480295658 0.6839644908905029
0.5571517944335938 0.02492782101035118 0.6796847581863403
0.5545721054077148 0.024587523192167282 0.6777960062026978
0.5523794889450073 0.023839857429265976 0.6758941411972046
0.5519658923149109 0.02425350807607174 0.6758941411972046
0.5473850965499878 0.022623933851718903 0.6718772649765015
