ply
format ascii 1.0
element vertex 811
property float x
property float y
property float z
end_header
0.3629104793071747 -0.12223900109529495 0.6817482709884644
0.3640176057815552 -0.12280017882585526 0.6819034814834595
0.3671282231807709 -0.13847550749778748 0.6937288045883179
0.36974474787712097 -0.14010204374790192 0.6943382620811462
0.3728654086589813 -0.1420804113149643 0.6950960755348206
0.37596768140792847 -0.1440470963716507 0.6958494782447815
0.37649592757225037 -0.14422310888767242 0.6958494782447815
0.3795783817768097 -0.14617758989334106 0.6965984106063843
0.38282859325408936 -0.14125721156597137 0.6917482018470764
0.350554883480072 -0.11614157259464264 0.6793859601020813
0.3522377610206604 -0.11692270636558533 0.6795644164085388
0.3544791042804718 -0.11788959801197052 0.6797423362731934
0.35503870248794556 -0.1181492954492569 0.6798017024993896
0.3561585545539856 -0.11859580874443054 0.6798610091209412
0.36612382531166077 -0.12444484978914261 0.681908369064331
0.3680623471736908 -0.1398417353630066 0.6938582062721252
0.3685937225818634 -0.1400187909603119 0.6938582062721252
0.38112857937812805 -0.14641031622886658 0.6956509947776794
0.383285254240036 -0.1363862007856369 0.6869481205940247
0.3487739861011505 -0.11478284001350403 0.6779994368553162
0.34933874011039734 -0.11573057621717453 0.6786163449287415
0.3583044409751892 -0.11976196616888046 0.6794635057449341
0.3588615655899048 -0.1200636476278305 0.6795578002929688
0.3605295419692993 -0.12100476026535034 0.67987060546875
0.36743247509002686 -0.14011985063552856 0.6935306787490845
0.37055790424346924 -0.14209675788879395 0.694290280342102
0.37728017568588257 -0.1461912989616394 0.6957961916923523
0.3803492486476898 -0.1481325477361679 0.6965422034263611
0.38154810667037964 -0.14172153174877167 0.6910091638565063
0.38375627994537354 -0.13136085867881775 0.6819941997528076
0.3492461144924164 -0.11600882560014725 0.6781018972396851
0.36211082339286804 -0.12196550518274307 0.6794610023498535
0.3626628816127777 -0.12233629822731018 0.6796131730079651
0.36432328820228577 -0.12326259911060333 0.6799169778823853
0.36542242765426636 -0.12400095164775848 0.6802199482917786
0.3652290999889374 -0.13949844241142273 0.6928983926773071
0.36941108107566833 -0.14201374351978302 0.6938117742538452
0.3730357885360718 -0.14433571696281433 0.6947192549705505
0.37817904353141785 -0.1475231647491455 0.6959192752838135
0.37921223044395447 -0.14805057644844055 0.6960684061050415
0.38198360800743103 -0.1368573009967804 0.6861965656280518
0.34745535254478455 -0.1141304299235344 0.6762875914573669
0.349153071641922 -0.11616653203964233 0.6774887442588806
0.3502773940563202 -0.11661465466022491 0.6775487065315247
0.35252392292022705 -0.11758352816104889 0.6777282953262329
0.35364580154418945 -0.11810372769832611 0.6778480410575867
0.35420626401901245 -0.11836379766464233 0.6779077649116516
0.3653382360935211 -0.12411488592624664 0.6795749068260193
0.36512303352355957 -0.14013782143592834 0.6927241086959839
0.37033405900001526 -0.14336343109607697 0.6939403414726257
0.3718929886817932 -0.14425304532051086 0.6942425966262817
0.37498489022254944 -0.1462049037218094 0.6949951648712158
0.3780587613582611 -0.14814545214176178 0.6957435607910156
0.3807280361652374 -0.1431407928466797 0.6909277439117432
0.38298672437667847 -0.13202832639217377 0.6812338829040527
0.3563571274280548 -0.11948878318071365 0.677475094795227
0.357476145029068 -0.12000787258148193 0.6775946617126465
0.3580370545387268 -0.12019484490156174 0.6775946617126465
0.360268235206604 -0.12134221941232681 0.6779255867004395
0.36194053292274475 -0.12213074415922165 0.6781148314476013
0.3671073913574219 -0.1420302540063858 0.6930074691772461
0.3707500994205475 -0.14417025446891785 0.6937658786773682
0.3738453984260559 -0.14612245559692383 0.6945200562477112
0.37692251801490784 -0.14806294441223145 0.6952695846557617
0.3812291622161865 -0.137509286403656 0.6854466795921326
0.3461403250694275 -0.11435949802398682 0.6752915382385254
0.3478412330150604 -0.11603324115276337 0.6762007474899292
0.3618536591529846 -0.1222563087940216 0.6774760484695435
0.36240941286087036 -0.12255704402923584 0.6775708198547363
0.3640786409378052 -0.12336231768131256 0.6777753829956055
0.36959585547447205 -0.14426793158054352 0.6934407949447632
0.38023486733436584 -0.14684708416461945 0.6926460266113281
0.3452524244785309 -0.09734741598367691 0.6607458591461182
0.34774985909461975 -0.11651185154914856 0.6758497953414917
0.348312109708786 -0.11667273193597794 0.6758279204368591
0.35056182742118835 -0.11739759147167206 0.6758073568344116
0.3522484004497528 -0.11807536333799362 0.6759025454521179
0.3637652099132538 -0.14132919907569885 0.6918988823890686
0.3648066222667694 -0.14204660058021545 0.6922040581703186
0.3715539574623108 -0.1461360901594162 0.6937204003334045
0.3720666468143463 -0.14648979902267456 0.6938708424568176
0.3746357262134552 -0.1480754017829895 0.6944715976715088
0.377699613571167 -0.15000352263450623 0.6952188611030579
0.37822225689888 -0.1501777470111847 0.6952188611030579
0.34277936816215515 -0.09676191210746765 0.6601300239562988
0.3453902006149292 -0.11477676779031754 0.6742955446243286
0.3515937924385071 -0.11808893084526062 0.6753236651420593
0.35440269112586975 -0.11925798654556274 0.6755159497261047
0.35608604550361633 -0.11996522545814514 0.6756365895271301
0.35664644837379456 -0.1202249526977539 0.6756969690322876
0.3583276569843292 -0.12093115597963333 0.6758174896240234
0.3641818165779114 -0.14232219755649567 0.691879153251648
0.36730170249938965 -0.14428287744522095 0.6926397681236267
0.3803173005580902 -0.150236576795578 0.6939744353294373
0.38157153129577637 -0.1486218422651291 0.6922948360443115
0.34149444103240967 -0.09666214883327484 0.6595882177352905
0.3420889973640442 -0.09690209478139877 0.6596227884292603
0.34446555376052856 -0.097871795296669 0.6597700119018555
0.3458722233772278 -0.1160990297794342 0.6744838356971741
0.35599544644355774 -0.12013415992259979 0.6750311255455017
0.3604775667190552 -0.12205550819635391 0.6753853559494019
0.36214932799339294 -0.1229342445731163 0.6756515502929688
0.3630373775959015 -0.14223970472812653 0.6914021968841553
0.3692653477191925 -0.14614970982074738 0.6929215788841248
0.37235191464424133 -0.1480877697467804 0.6936749815940857
0.37594279646873474 -0.15018871426582336 0.6944239735603333
0.37899190187454224 -0.15210381150245667 0.6951685547828674
0.3801082670688629 -0.1517108678817749 0.6945346593856812
0.3826744556427002 -0.1479901522397995 0.6907431483268738
0.3390246033668518 -0.09622794389724731 0.6590967178344727
0.3437751531600952 -0.0980040580034256 0.6592566967010498
0.34464025497436523 -0.11519383639097214 0.6732998490333557
0.34972113370895386 -0.11805910617113113 0.6742733120918274
0.3598272502422333 -0.1220279335975647 0.6747720241546631
0.36188581585884094 -0.1423387974500656 0.691077709197998
0.36501938104629517 -0.1441175639629364 0.691687822341919
0.36605432629585266 -0.1448287069797516 0.6919921636581421
0.3712172508239746 -0.14800558984279633 0.6932017803192139
0.3742891550064087 -0.14993251860141754 0.6939521431922913
0.3778637945652008 -0.15202191472053528 0.6946980953216553
0.38041919469833374 -0.1533624827861786 0.6951042413711548
0.38233253359794617 -0.15060897171497345 0.6922863721847534
0.38307538628578186 -0.14880666136741638 0.6905831694602966
0.3365578353404999 -0.09585432708263397 0.6586551070213318
0.33715105056762695 -0.09605206549167633 0.6586551070213318
0.34512409567832947 -0.11651456356048584 0.6734902858734131
0.34625545144081116 -0.11735938489437103 0.6738801002502441
0.34850364923477173 -0.11800287663936615 0.6737919449806213
0.3501908481121063 -0.1185123547911644 0.6737478375434875
0.35244089365005493 -0.11923248320817947 0.6737228035926819
0.3541276752948761 -0.11986001580953598 0.673777163028717
0.3546900749206543 -0.12004748731851578 0.673777163028717
0.3563739061355591 -0.12078167498111725 0.6739212870597839
0.3638700842857361 -0.14421524107456207 0.6913644671440125
0.3669796288013458 -0.14616340398788452 0.6921240091323853
0.3736661970615387 -0.15019966661930084 0.693630039691925
0.3741740882396698 -0.15054862201213837 0.6937797665596008
0.37975627183914185 -0.15401630103588104 0.6951187252998352
0.380275160074234 -0.15418928861618042 0.6951187252998352
0.38205936551094055 -0.15259960293769836 0.6932985782623291
0.38400501012802124 -0.14978766441345215 0.6904152035713196
0.3352798819541931 -0.09590116143226624 0.6582345366477966
0.33587315678596497 -0.09610763192176819 0.658241868019104
0.34180426597595215 -0.09816233813762665 0.6583065986633301
0.34389060735702515 -0.11561080068349838 0.6723045706748962
0.3478488624095917 -0.11813424527645111 0.6733105778694153
0.3585272431373596 -0.12190386652946472 0.6734862327575684
0.35908758640289307 -0.12214803695678711 0.673534095287323
0.36020952463150024 -0.12257944792509079 0.673582136631012
0.3658425211906433 -0.1460808962583542 0.6916497945785522
0.3663579821586609 -0.14643430709838867 0.6918014883995056
0.36893707513809204 -0.1480179727077484 0.6924063563346863
0.3755926787853241 -0.15203167498111725 0.6939063668251038
0.38184404373168945 -0.15405836701393127 0.6938585638999939
0.3843800127506256 -0.15080271661281586 0.6904320120811462
0.3850732147693634 -0.1495591104030609 0.6891999244689941
0.3328176438808441 -0.0955553650856018 0.6578161120414734
0.33400291204452515 -0.0959479808807373 0.6578139662742615
0.3345959782600403 -0.09615432471036911 0.6578212976455688
0.33637508749961853 -0.09677336364984512 0.6578431725502014
0.3381534814834595 -0.097383514046669 0.6578575372695923
0.34052470326423645 -0.09819986671209335 0.6578794121742249
0.34230294823646545 -0.09881846606731415 0.6579011678695679
0.34380316734313965 -0.11619022488594055 0.6720375418663025
0.3533805012702942 -0.12015685439109802 0.6726862788200378
0.36158257722854614 -0.14423055946826935 0.6905664205551147
0.3713925778865814 -0.15021073818206787 0.692837119102478
0.3822469413280487 -0.15478001534938812 0.693634033203125
0.3840063810348511 -0.15356238186359406 0.6921224594116211
0.38543984293937683 -0.15064039826393127 0.6892738938331604
0.33036327362060547 -0.09531247615814209 0.6574828624725342
0.33272916078567505 -0.09603701531887054 0.6574289798736572
0.3386540114879608 -0.09804810583591461 0.6574592590332031
0.342576801776886 -0.1158396303653717 0.6713094711303711
0.343141108751297 -0.11602772772312164 0.6713094711303711
0.3454156517982483 -0.11804854869842529 0.6723703742027283
0.3577849566936493 -0.12206301838159561 0.6722791194915771
0.36114269495010376 -0.1394907385110855 0.6859818696975708
0.36356058716773987 -0.14609475433826447 0.6908535957336426
0.3666599690914154 -0.14803045988082886 0.6916118860244751
0.36820805072784424 -0.14890603721141815 0.6919140219688416
0.373324453830719 -0.15204143524169922 0.6931154131889343
0.3763684630393982 -0.15394315123558044 0.6938608288764954
0.3768714964389801 -0.1542876809835434 0.6940094232559204
0.3799119293689728 -0.15600623190402985 0.6946017742156982
0.38041141629219055 -0.15634843707084656 0.6947494149208069
0.38204094767570496 -0.15614007413387299 0.6941179633140564
0.3844091296195984 -0.15428858995437622 0.6918990612030029
0.3851257562637329 -0.1528211534023285 0.6904654502868652
0.38636648654937744 -0.15161456167697906 0.6891040802001953
0.32850417494773865 -0.09526736289262772 0.6571500897407532
0.3314588665962219 -0.09616686403751373 0.6570780873298645
0.33737701177597046 -0.09809393435716629 0.6570396423339844
0.34419986605644226 -0.11801894009113312 0.6719114780426025
0.34644705057144165 -0.1186889037489891 0.6718449592590332
0.34813299775123596 -0.11917175352573395 0.6717782616615295
0.3503822684288025 -0.11984255164861679 0.6717118620872498
0.35094475746154785 -0.1200035810470581 0.6716894507408142
0.35206979513168335 -0.1203521192073822 0.6716670989990234
0.3543201982975006 -0.12107392400503159 0.6716434359550476
0.35600748658180237 -0.12165876477956772 0.6716620922088623
0.35713231563568115 -0.12204110622406006 0.6716683506965637
0.3582550287246704 -0.12250939011573792 0.6717477440834045
0.36049890518188477 -0.12342941015958786 0.6718926429748535
0.3691217601299286 -0.15022166073322296 0.6920452117919922
0.37574875354766846 -0.1542060822248459 0.6935411095619202
0.376251757144928 -0.15455025434494019 0.69368976354599
0.3829692006111145 -0.1569419801235199 0.6938184499740601
0.3841925263404846 -0.15567055344581604 0.6924036145210266
0.3860209882259369 -0.15399961173534393 0.6904821991920471
0.38676536083221436 -0.15239425003528595 0.6889203786849976
0.3874737620353699 -0.15112878382205963 0.6876552104949951
0.3266463875770569 -0.0952005386352539 0.6567996740341187
0.32959869503974915 -0.09609933197498322 0.6567278504371643
0.34182870388031006 -0.11630217730998993 0.6703529953956604
0.36096444725990295 -0.12400659173727036 0.6714732646942139
0.3612815737724304 -0.1461087018251419 0.6900584697723389
0.3649083375930786 -0.1482170820236206 0.6908184885978699
0.3679927587509155 -0.15013982355594635 0.6915743350982666
0.36850330233573914 -0.15048816800117493 0.6917250752449036
0.3710591495037079 -0.15205128490924835 0.6923258304595947
0.3776555061340332 -0.15601341426372528 0.6938157081604004
0.37815603613853455 -0.15635553002357483 0.6939637660980225
0.38116490840911865 -0.1582316756248474 0.6947015523910522
0.3822133541107178 -0.15840832889080048 0.6945555806159973
0.3845931589603424 -0.1563912332057953 0.6921809911727905
0.38638925552368164 -0.15499883890151978 0.6904987096786499
0.3878350555896759 -0.1522083878517151 0.6877335906028748
0.38836410641670227 -0.15238474309444427 0.6877335906028748
0.32420212030410767 -0.0949670746922493 0.6564751863479614
0.32774221897125244 -0.09605380892753601 0.6563959717750549
0.33423641324043274 -0.09802678227424622 0.6562336683273315
0.3401522636413574 -0.10002927482128143 0.6562594175338745
0.3434535562992096 -0.11844205111265182 0.6709276437759399
0.3490721881389618 -0.12010468542575836 0.6707495450973511
0.3558223843574524 -0.1221933662891388 0.6706128716468811
0.36042067408561707 -0.13779984414577484 0.6825371384620667
0.3611816465854645 -0.14673161506652832 0.6898899674415588
0.3637681305408478 -0.14831149578094482 0.6904981732368469
0.3734898567199707 -0.15421445667743683 0.6927539706230164
0.38320332765579224 -0.1586170345544815 0.693740725517273
0.38551250100135803 -0.15728358924388885 0.6919587850570679
0.3861336410045624 -0.1566322147846222 0.6912314295768738
0.38808673620224 -0.15412373840808868 0.6885545253753662
0.3223479986190796 -0.09487929195165634 0.6561083197593689
0.328246146440506 -0.09670903533697128 0.655992329120636
0.33001509308815 -0.09723499417304993 0.6559382081031799
0.3323758542537689 -0.09795808792114258 0.6558840274810791
0.3329659402370453 -0.09813369065523148 0.6558659076690674
0.33414730429649353 -0.0985061377286911 0.65584796667099
0.33651068806648254 -0.09925971180200577 0.65581876039505
0.338285356760025 -0.09987698495388031 0.6558407545089722
0.3388768136501312 -0.10008275508880615 0.6558481454849243
0.34005945920944214 -0.1004856750369072 0.6558555364608765
0.34108930826187134 -0.11707381904125214 0.6696577072143555
0.34785524010658264 -0.12004821747541428 0.670268714427948
0.3603299856185913 -0.13812237977981567 0.682092010974884
0.3621211349964142 -0.14787867665290833 0.6898741126060486
0.3657256066799164 -0.15015079081058502 0.6907837986946106
0.368796706199646 -0.15206113457679749 0.6915372014045715
0.37033143639564514 -0.15292593836784363 0.6918370723724365
0.37540203332901 -0.15602068603038788 0.6930304169654846
0.37891703844070435 -0.15823744237422943 0.6939185857772827
0.3799290359020233 -0.15874813497066498 0.6940657496452332
0.384196013212204 -0.15882627665996552 0.6929237246513367
0.3859110474586487 -0.15800127387046814 0.6917370557785034
0.38720273971557617 -0.15634594857692719 0.6899648904800415
0.38911867141723633 -0.1542365849018097 0.6876298785209656
0.3199036717414856 -0.09457036852836609 0.6557214260101318
0.3204977512359619 -0.09481091797351837 0.6557577848434448
0.32227545976638794 -0.09548857063055038 0.6558301448822021
0.3240438401699066 -0.09605216979980469 0.6558080911636353
0.3263924717903137 -0.09665797650814056 0.655657172203064
0.33110857009887695 -0.09808649867773056 0.6555349230766296
0.3376021385192871 -0.10012763738632202 0.6554297804832458
0.341581255197525 -0.11838506907224655 0.6698551177978516
0.34383174777030945 -0.11926673352718353 0.6699672341346741
0.34439221024513245 -0.11937861144542694 0.6699032187461853
0.3460770845413208 -0.11986521631479263 0.6698393225669861
0.3466387689113617 -0.12001819908618927 0.6698101758956909
0.34832483530044556 -0.12052765488624573 0.6697654724121094
0.35001125931739807 -0.12101119756698608 0.6696984171867371
0.3522610664367676 -0.12168224155902863 0.6696311831474304
0.3533865213394165 -0.12200486660003662 0.6695864200592041
0.35451194643974304 -0.12235371023416519 0.669563889503479
0.3561996519565582 -0.12292300164699554 0.6695698499679565
0.35844942927360535 -0.12369516491889954 0.6695888638496399
0.35957297682762146 -0.12411897629499435 0.6696307063102722
0.3597334623336792 -0.13722345232963562 0.6807501316070557
0.36023932695388794 -0.1384449005126953 0.6816472411155701
0.3607277572154999 -0.1400672048330307 0.6828906536102295
0.3615051209926605 -0.1481473445892334 0.6895542144775391
0.3620206117630005 -0.14849771559238434 0.6897062659263611
0.371233731508255 -0.1542227864265442 0.6919675469398499
0.3778020143508911 -0.15815623104572296 0.6934533715248108
0.380801260471344 -0.16002048552036285 0.6941899061203003
0.3823116421699524 -0.16079522669315338 0.694421112537384
0.3834378123283386 -0.16026394069194794 0.6936485171318054
0.38453271985054016 -0.16004949808120728 0.6931549310684204
0.38816124200820923 -0.15695732831954956 0.6894899606704712
0.39023205637931824 -0.1537761092185974 0.6861913800239563
0.3222028613090515 -0.09609648585319519 0.655552327632904
0.32925257086753845 -0.09801874309778214 0.6551870703697205
0.3454236686229706 -0.12005049735307693 0.6694050431251526
0.36346137523651123 -0.1501617729663849 0.6899941563606262
0.3670561909675598 -0.15224389731884003 0.6907492876052856
0.3721446096897125 -0.1553434431552887 0.691948413848877
0.3731512427330017 -0.15602797269821167 0.6922463774681091
0.38018545508384705 -0.16027703881263733 0.693873405456543
0.3862631618976593 -0.1586538553237915 0.6907557845115662
0.3904339075088501 -0.1559608280658722 0.6872673034667969
0.31620651483535767 -0.09439034759998322 0.6549854278564453
0.32035601139068604 -0.0960274487733841 0.6552028059959412
0.3274059295654297 -0.09805949777364731 0.654930591583252
0.3344697952270508 -0.1001162976026535 0.6546754240989685
0.3391328752040863 -0.11773119866847992 0.6684352159500122
0.34365129470825195 -0.12007226794958115 0.6691505908966064
0.35151293873786926 -0.1221051812171936 0.6686469316482544
0.35770195722579956 -0.12403509020805359 0.6685330271720886
0.3585003912448883 -0.13646334409713745 0.6789528131484985
0.3643912971019745 -0.1512961983680725 0.6899784207344055
0.3659226596355438 -0.15233521163463593 0.6904312372207642
0.36899152398109436 -0.15405996143817902 0.6910324692726135
0.37253645062446594 -0.1562882959842682 0.6919291615486145
0.37555766105651855 -0.15816214680671692 0.6926718354225159
0.37856149673461914 -0.1600252240896225 0.6934100985527039
0.3820595145225525 -0.16204801201820374 0.6941441893577576
0.3854534924030304 -0.16041199862957 0.6917733550071716
0.386801540851593 -0.1582517772912979 0.6895375847816467
0.39011698961257935 -0.15789669752120972 0.6882864832878113
0.3908264636993408 -0.1567324697971344 0.6870863437652588
0.313772976398468 -0.09411557763814926 0.6546276807785034
0.3143633008003235 -0.09432228654623032 0.6546360850334167
0.3191003203392029 -0.09615468233823776 0.6548537015914917
0.32556483149528503 -0.09812892228364944 0.6546987295150757
0.3326129913330078 -0.10004638135433197 0.6543275713920593
0.339053750038147 -0.11842399090528488 0.6682718992233276
0.34132546186447144 -0.1200612485408783 0.6690278053283691
0.3559219241142273 -0.12372521311044693 0.6679955124855042
0.3564845621585846 -0.1239127665758133 0.6679955124855042
0.3594611585140228 -0.13819347321987152 0.6794118285179138
0.35996773838996887 -0.13941141963005066 0.6803133487701416
0.36172032356262207 -0.15034624934196472 0.6892056465148926
0.3647990822792053 -0.15225358307361603 0.6899625062942505
0.3678600490093231 -0.1541498750448227 0.6907150745391846
0.3709034025669098 -0.15603525936603546 0.6914633512496948
0.3779473304748535 -0.16028150916099548 0.6930941939353943
0.3809340000152588 -0.16213209927082062 0.6938288807868958
0.3829820454120636 -0.16278086602687836 0.6937996745109558
0.3840629756450653 -0.16262716054916382 0.6933580636978149
0.3889600932598114 -0.15798990428447723 0.6879715919494629
0.38949599862098694 -0.1580670326948166 0.6878844499588013
0.3900189697742462 -0.15824134647846222 0.6878844499588013
0.3926306962966919 -0.15534479916095734 0.6846480965614319
0.31136152148246765 -0.09401733428239822 0.6544166803359985
0.3172578513622284 -0.09608559310436249 0.6545050740242004
0.3231453001499176 -0.09808400273323059 0.6545359492301941
0.33076199889183044 -0.10004079341888428 0.6540346145629883
0.3319377601146698 -0.10037308186292648 0.6539832353591919
0.33252570033073425 -0.10053945332765579 0.6539577841758728
0.3342917859554291 -0.10107021778821945 0.6539077758789062
0.33605900406837463 -0.10161729902029037 0.6538715958595276
0.33839836716651917 -0.11849924921989441 0.6677435636520386
0.34627121686935425 -0.12141108512878418 0.6679913401603699
0.34851670265197754 -0.12195684760808945 0.6678167581558228
0.34907856583595276 -0.12210690230131149 0.667784571647644
0.3502027094364166 -0.1224067211151123 0.6677201390266418
0.3524521291255951 -0.12304438650608063 0.6676234602928162
0.355829119682312 -0.12400662153959274 0.6674827933311462
0.3563917577266693 -0.12419416755437851 0.6674827933311462
0.35807520151138306 -0.12493593990802765 0.66763836145401
0.36367565393447876 -0.15217189490795135 0.6894939541816711
0.37331604957580566 -0.15816795825958252 0.6918909549713135
0.37982678413391113 -0.16205145418643951 0.693367063999176
0.3861851096153259 -0.16230371594429016 0.691758394241333
0.3922523856163025 -0.15762048959732056 0.6859815120697021
0.30897483229637146 -0.09408670663833618 0.6543449759483337
0.3207319974899292 -0.09803920984268188 0.6543739438056946
0.32598909735679626 -0.0993356928229332 0.6539801955223083
0.3265729546546936 -0.09946508705615997 0.6539236903190613
0.32833123207092285 -0.09993451088666916 0.6538230180740356
0.3289167284965515 -0.10007620602846146 0.6537767052650452
0.3359692096710205 -0.10209378600120544 0.65348881483078
0.3365578055381775 -0.10226832330226898 0.6534700989723206
0.34338119626045227 -0.12128318846225739 0.6679319739341736
0.3444989323616028 -0.12143578380346298 0.6677420139312744
0.3473014235496521 -0.12200798094272614 0.6674293279647827
0.3576955497264862 -0.13688871264457703 0.6772915124893188
0.3582194447517395 -0.13775742053985596 0.6778910160064697
0.3594614863395691 -0.150357186794281 0.6884182095527649
0.36561042070388794 -0.15415826439857483 0.6899310350418091
0.3661274313926697 -0.15433059632778168 0.6899310350418091
0.3691737949848175 -0.15621423721313477 0.6906812191009521
0.3742169141769409 -0.1592738777399063 0.6918720602989197
0.3757120370864868 -0.16028599441051483 0.6923158764839172
0.3821865916252136 -0.16414403915405273 0.6937842965126038
0.38431301712989807 -0.16408023238182068 0.6931169033050537
0.39251428842544556 -0.15926748514175415 0.6865975260734558
0.3931678831577301 -0.15856477618217468 0.6858024001121521
0.3071824610233307 -0.09435147792100906 0.6542738676071167
0.31066253781318665 -0.09515871107578278 0.6539679765701294
0.3124091625213623 -0.09559929370880127 0.653845489025116
0.31416743993759155 -0.09614166617393494 0.6538076400756836
0.31653082370758057 -0.09705709666013718 0.6539180874824524
0.3183010220527649 -0.09773083031177521 0.653990626335144
0.31948328018188477 -0.09820878505706787 0.6540632247924805
0.32182493805885315 -0.09890176355838776 0.653987467288971
0.3224070370197296 -0.09903083741664886 0.6539310812950134
0.3264924883842468 -0.10000267624855042 0.6535931825637817
0.33766570687294006 -0.1192656084895134 0.6670539379119873
0.3388175368309021 -0.12049193680286407 0.6677837371826172
0.3399452865123749 -0.1211182028055191 0.6680005192756653
0.34050169587135315 -0.12119428813457489 0.6679059863090515
0.34496936202049255 -0.12202608585357666 0.6673362851142883
0.35339072346687317 -0.12403411418199539 0.6666440367698669
0.35812586545944214 -0.13819760084152222 0.6775462031364441
0.3614220917224884 -0.1521817445755005 0.6887086629867554
0.3710894286632538 -0.1580059826374054 0.6909624338150024
0.37460243701934814 -0.16020531952381134 0.6918532252311707
0.37759679555892944 -0.16205482184886932 0.6925908327102661
0.38108327984809875 -0.16406364738941193 0.6933242082595825
0.3858713209629059 -0.16396154463291168 0.6918531060218811
0.3863835632801056 -0.16413229703903198 0.6918531060218811
0.3942059576511383 -0.15868481993675232 0.6848753094673157
0.3950309753417969 -0.15691448748111725 0.6831035017967224
0.3048097491264343 -0.09442020207643509 0.6542028188705444
0.3077041804790497 -0.09510393440723419 0.6539584994316101
0.3082819879055023 -0.09522629529237747 0.6538974642753601
0.3117612600326538 -0.09603360295295715 0.6535913944244385
0.3123483657836914 -0.09622929990291595 0.6535913944244385
0.3176456391811371 -0.09813854098320007 0.6537159085273743
0.3182324767112732 -0.0983341634273529 0.6537159085273743
0.3240809142589569 -0.10002174228429794 0.6534885764122009
0.3322658836841583 -0.10203848034143448 0.6528705358505249
0.342643678188324 -0.12201238423585892 0.6672162413597107
0.35698220133781433 -0.1369016468524933 0.675998330116272
0.3638802468776703 -0.15433883666992188 0.6891480684280396
0.3669312000274658 -0.15622127056121826 0.6898998618125916
0.36743634939193726 -0.15656210482120514 0.6900497674942017
0.36996468901634216 -0.1580929011106491 0.690647304058075
0.3734930157661438 -0.16012457013130188 0.6913905739784241
0.3799627423286438 -0.16414617002010345 0.6930105686187744
0.3857022821903229 -0.1648908257484436 0.6919956207275391
0.39019474387168884 -0.15946628153324127 0.6859825849533081
0.3934003412723541 -0.16005805134773254 0.6855683922767639
0.3959041237831116 -0.15815676748752594 0.6831919550895691
0.30245769023895264 -0.09458672255277634 0.6542134284973145
0.30475640296936035 -0.09504947066307068 0.6539491415023804
0.3093886375427246 -0.09617289155721664 0.6535825729370117
0.3158096373081207 -0.09806078672409058 0.6533628106117249
0.3222522735595703 -0.10010365396738052 0.6532716751098633
0.33042582869529724 -0.10214097797870636 0.652673065662384
0.3369348645210266 -0.12002988159656525 0.6663655638694763
0.3408806025981903 -0.12207511812448502 0.667001485824585
0.3492705225944519 -0.12366238981485367 0.665948212146759
0.35039371252059937 -0.12395764887332916 0.6658791899681091
0.35095569491386414 -0.12406576424837112 0.665810227394104
0.35208001732826233 -0.12434827536344528 0.6657297611236572
0.35432952642440796 -0.12498641759157181 0.665632426738739
0.35601699352264404 -0.12550191581249237 0.6655915379524231
0.35741493105888367 -0.1382124125957489 0.676257312297821
0.35865840315818787 -0.15184573829174042 0.6877719759941101
0.35917145013809204 -0.1521913707256317 0.6879240274429321
0.3596840798854828 -0.15253649652004242 0.6880759596824646
0.36581557989120483 -0.1561402529478073 0.6894345879554749
0.3753693699836731 -0.16205833852291107 0.6918156147003174
0.376375287771225 -0.1625628024339676 0.6919631361961365
0.3823130428791046 -0.16621921956539154 0.6934239864349365
0.3844142258167267 -0.166301891207695 0.6928859949111938
0.3860442042350769 -0.16598238050937653 0.6921343803405762
0.388361394405365 -0.16459393501281738 0.6902520656585693
0.3917112946510315 -0.1600116342306137 0.6852878928184509
0.3943810760974884 -0.16053779423236847 0.6849709749221802
0.3962462544441223 -0.15921801328659058 0.6832797527313232
0.3001229166984558 -0.09481388330459595 0.6542753577232361
0.3024011552333832 -0.09517331421375275 0.6539258360862732
0.30643948912620544 -0.0961165577173233 0.6535739302635193
0.3139890432357788 -0.09811108559370041 0.6531181335449219
0.3198472559452057 -0.10005640983581543 0.6531116366386414
0.3204275369644165 -0.10018537938594818 0.6530551910400391
0.3280039429664612 -0.10206541419029236 0.6524913311004639
0.33561423420906067 -0.10407077521085739 0.6520273089408875
0.33856624364852905 -0.12206149846315384 0.6668822169303894
0.3458156883716583 -0.12338767200708389 0.6659300327301025
0.346375048160553 -0.12346474081277847 0.6658344268798828
0.3491781949996948 -0.12404318898916245 0.6655236482620239
0.35732167959213257 -0.13865254819393158 0.6759133338928223
0.3611260950565338 -0.1540043205022812 0.6882151961326599
0.36772945523262024 -0.15809907019138336 0.6898690462112427
0.3682428300380707 -0.1582701951265335 0.6898690462112427
0.3712618947029114 -0.16012941300868988 0.6906141638755798
0.3777416944503784 -0.16414831578731537 0.6922378540039062
0.3812151253223419 -0.1661304086446762 0.6929578185081482
0.38645315170288086 -0.16653503477573395 0.6917861700057983
0.38928550481796265 -0.16532322764396667 0.6899030804634094
0.3965873420238495 -0.1602720469236374 0.6833649277687073
0.3974328339099884 -0.15848536789417267 0.6815581321716309
0.29839786887168884 -0.09535781294107437 0.6544397473335266
0.30006837844848633 -0.09539908170700073 0.6539881229400635
0.3035007417201996 -0.09606055170297623 0.6535653471946716
0.3040752410888672 -0.09618234634399414 0.6535041928291321
0.3115953505039215 -0.09804552793502808 0.6529406905174255
0.32558971643447876 -0.1020156666636467 0.6523323059082031
0.3261715769767761 -0.10214511305093765 0.6522756814956665
0.33084285259246826 -0.10333573073148727 0.651954710483551
0.33201149106025696 -0.10361916571855545 0.651861846446991
0.333768367767334 -0.10409850627183914 0.6517687439918518
0.3343534469604492 -0.10424043983221054 0.651722252368927
0.3356456756591797 -0.12060574442148209 0.6656790375709534
0.33620569109916687 -0.1207924485206604 0.6656790375709534
0.3373585045337677 -0.12201203405857086 0.6664108633995056
0.34293246269226074 -0.12329523265361786 0.6659073829650879
0.3474043607711792 -0.12413104623556137 0.6653338670730591
0.35526561737060547 -0.12609665095806122 0.6647602319717407
0.3577413856983185 -0.14038142561912537 0.6765493154525757
0.35828009247779846 -0.14056098461151123 0.6765493154525757
0.3600015640258789 -0.15409423410892487 0.687900185585022
0.3635765314102173 -0.156147763133049 0.6886550784111023
0.3736550509929657 -0.16223184764385223 0.6910414695739746
0.37663981318473816 -0.16406789422035217 0.6917781233787537
0.38801535964012146 -0.1664198786020279 0.6905170679092407
0.39579278230667114 -0.16150158643722534 0.6839386224746704
0.39830121397972107 -0.15972469747066498 0.6816499829292297
0.2961139976978302 -0.09579642117023468 0.6546792387962341
0.29780113697052 -0.09600407630205154 0.6543676853179932
0.2983551323413849 -0.09601106494665146 0.6542115807533264
0.2994651198387146 -0.09602520614862442 0.6538991332054138
0.3000209629535675 -0.09603247791528702 0.6537427306175232
0.309215784072876 -0.09805241227149963 0.652824878692627
0.3156254291534424 -0.10000932961702347 0.6526671051979065
0.31621143221855164 -0.10021772980690002 0.6526784896850586
0.3237672448158264 -0.10216124355792999 0.6521735191345215
0.3260916769504547 -0.10267893970012665 0.6519476771354675
0.3284236788749695 -0.1032632440328598 0.651777982711792
0.33134299516677856 -0.10400277376174927 0.6515730023384094
0.3367080092430115 -0.12210965156555176 0.6659054160118103
0.3395039439201355 -0.1231265515089035 0.6659799814224243
0.3400591313838959 -0.12320325523614883 0.6658849120140076
0.34451746940612793 -0.12403729557991028 0.6653120517730713
0.3549991548061371 -0.13724975287914276 0.673848032951355
0.3573431074619293 -0.15315398573875427 0.6871304512023926
0.3588835895061493 -0.15401320159435272 0.6874340772628784
0.36903366446495056 -0.16013409197330475 0.6898384094238281
0.3780195713043213 -0.16546154022216797 0.6918867826461792
0.37900108098983765 -0.16612917184829712 0.6921857595443726
0.38243767619132996 -0.16828502714633942 0.6930731534957886
0.3845396339893341 -0.16829775273799896 0.6924689412117004
0.3861461877822876 -0.1681223064661026 0.6918444633483887
0.38951048254966736 -0.16685505211353302 0.6897464394569397
0.39009588956832886 -0.16650472581386566 0.6892675757408142
0.39248889684677124 -0.16120663285255432 0.6839136481285095
0.3972996175289154 -0.1621571183204651 0.6833398342132568
0.3986383080482483 -0.16078293323516846 0.6817411184310913
0.29384201765060425 -0.09623274952173233 0.6549174785614014
0.2943919003009796 -0.09623993188142776 0.6547622680664062
0.30684971809387207 -0.09811504930257797 0.65275639295578
0.31381747126579285 -0.10012396425008774 0.6524801850318909
0.32078850269317627 -0.10202270746231079 0.6521060466766357
0.3219444155693054 -0.10224556177854538 0.65196293592453
0.32252389192581177 -0.10236982256174088 0.6519021987915039
0.32426947355270386 -0.10282335430383682 0.6517892479896545
0.32951033115386963 -0.10412119328975677 0.6513936519622803
0.33550718426704407 -0.12220808863639832 0.6655625700950623
0.34219682216644287 -0.12402094900608063 0.6651952862739563
0.3517075181007385 -0.12580496072769165 0.6639744639396667
0.3522695004940033 -0.12591345608234406 0.6639050841331482
0.3528309762477875 -0.12610064446926117 0.6639050841331482
0.3545166254043579 -0.1265963464975357 0.6638467907905579
0.3559807240962982 -0.13865551352500916 0.6740375757217407
0.3570338785648346 -0.140348419547081 0.6752194166183472
0.36134031414985657 -0.15615515410900116 0.6878764033317566
0.36184805631637573 -0.15649546682834625 0.6880271434783936
0.3643859624862671 -0.15802428126335144 0.6886283755302429
0.3679257333278656 -0.1600533127784729 0.6893762946128845
0.37043678760528564 -0.1615661382675171 0.6899715662002563
0.3714331090450287 -0.16223488748073578 0.6902680397033691
0.3744223415851593 -0.16406813263893127 0.6910048723220825
0.37790364027023315 -0.16604101657867432 0.6917204260826111
0.3783930540084839 -0.16638503968715668 0.6918798685073853
0.38134321570396423 -0.16820526123046875 0.6926167607307434
0.38818666338920593 -0.1683596670627594 0.6907438039779663
0.39506635069847107 -0.16203302145004272 0.6831521987915039
0.3982833921909332 -0.16263847053050995 0.6827408671379089
0.40036624670028687 -0.16023395955562592 0.6800117492675781
0.29159608483314514 -0.09675352275371552 0.6552267670631409
0.29713696241378784 -0.09711261093616486 0.6539125442504883
0.30391818284988403 -0.09805583208799362 0.6527493596076965
0.304491251707077 -0.0981777161359787 0.6526883840560913
0.3114311993122101 -0.10005099326372147 0.652299702167511
0.31840452551841736 -0.10209748893976212 0.6520542502403259
0.31897997856140137 -0.10219830274581909 0.6519739627838135
0.3270983099937439 -0.10406876355409622 0.6512358784675598
0.3398829698562622 -0.12401778995990753 0.6650902032852173
0.34043774008750916 -0.12408429384231567 0.6649856567382812
0.34824928641319275 -0.1254914551973343 0.6639286875724792
0.3510529398918152 -0.12607644498348236 0.6636200547218323
0.3548116087913513 -0.13833177089691162 0.6733366847038269
0.3566439747810364 -0.15402184426784515 0.6866537928581238
0.36378011107444763 -0.1582818329334259 0.6883152723312378
0.370328813791275 -0.1621544361114502 0.6898074746131897
0.3738175332546234 -0.16430217027664185 0.690677285194397
0.38586634397506714 -0.16950401663780212 0.6917242407798767
0.38972702622413635 -0.16842800378799438 0.6896375417709351
0.3902961313724518 -0.16818593442440033 0.6892562508583069
0.39200758934020996 -0.16749435663223267 0.6881416440010071
0.39391136169433594 -0.16208107769489288 0.6828004121780396
0.3993087708950043 -0.16288205981254578 0.6819190382957458
0.28994879126548767 -0.09752155840396881 0.6555829048156738
0.29599347710609436 -0.09774594008922577 0.6539972424507141
0.3004687428474426 -0.09818102419376373 0.6530613899230957
0.3096282184123993 -0.10013002157211304 0.652083694934845
0.3160264790058136 -0.10215362161397934 0.6519870758056641
0.32469335198402405 -0.10403013229370117 0.6510905623435974
0.33284270763397217 -0.1060536801815033 0.6504767537117004
0.33592864871025085 -0.12403932958841324 0.665493369102478
0.3364845812320709 -0.12421374022960663 0.6654837727546692
0.3453623056411743 -0.1253952980041504 0.6639094948768616
0.3464790880680084 -0.12555058300495148 0.6637173891067505
0.3492776155471802 -0.12605240941047668 0.6633356213569641
0.3591069281101227 -0.15616199374198914 0.6870982050895691
0.3621571362018585 -0.15803004801273346 0.6878522634506226
0.3657010495662689 -0.1600576937198639 0.6886016130447388
0.369213730096817 -0.16223840415477753 0.6894958019256592
0.3756929636001587 -0.16603983938694 0.6909497380256653
0.3791378140449524 -0.16820497810840607 0.6918501257896423
0.3801305592060089 -0.16870035231113434 0.6919957995414734
0.382076621055603 -0.17000502347946167 0.6925767064094543
0.3841407299041748 -0.1702648252248764 0.6921976208686829
0.38468047976493835 -0.17014658451080322 0.6919336318969727
0.38627612590789795 -0.17002204060554504 0.6913521885871887
0.3924112319946289 -0.16808392107486725 0.6878248453140259
0.39754748344421387 -0.16321371495723724 0.6819958686828613
0.4002127945423126 -0.16383376717567444 0.6817581653594971
0.2872265577316284 -0.09825767576694489 0.6562336683273315
0.28774672746658325 -0.09814754873514175 0.6559820175170898
0.2882682681083679 -0.0980398952960968 0.6557320356369019
0.29044172167778015 -0.09806924313306808 0.6551149487495422
0.2920877933502197 -0.09815310686826706 0.6547019481658936
0.29427698254585266 -0.09818406403064728 0.6540815234184265
0.29540374875068665 -0.09838483482599258 0.6539262533187866
0.2965036928653717 -0.09840136021375656 0.6536152958869934
0.29818519949913025 -0.0986110121011734 0.6533037424087524
0.30725786089897156 -0.10010289400815964 0.6519430875778198
0.308411568403244 -0.10040535777807236 0.6518701314926147
0.3101578950881958 -0.10099015384912491 0.651872456073761
0.31248652935028076 -0.10177013278007507 0.6518759727478027
0.31364691257476807 -0.1021236777305603 0.6518463492393494
0.3142259418964386 -0.10228723287582397 0.6518202424049377
0.3223010003566742 -0.10407038033008575 0.6510133147239685
0.33100780844688416 -0.10610473901033401 0.6502426266670227
0.33358538150787354 -0.12306078523397446 0.6645367741584778
0.3424862027168274 -0.12533551454544067 0.663922131061554
0.3469477891921997 -0.1261378675699234 0.6633140444755554
0.35355401039123535 -0.1380447894334793 0.6719317436218262
0.355697363615036 -0.14029724895954132 0.6732974648475647
0.35594722628593445 -0.1548861712217331 0.6861786842346191
0.3579936623573303 -0.1560809463262558 0.6866338849067688
0.3615529537200928 -0.15828724205493927 0.6875394582748413
0.3716064691543579 -0.16427434980869293 0.6898801326751709
0.3814716041088104 -0.1702507734298706 0.6922671794891357
0.38828882575035095 -0.17041605710983276 0.6903958916664124
0.389407217502594 -0.17000965774059296 0.6897041201591492
0.3921939432621002 -0.16922029852867126 0.688178300857544
0.39531275629997253 -0.16310089826583862 0.6818211674690247
0.3995756208896637 -0.1640680581331253 0.6814180612564087
0.4001100957393646 -0.1641855239868164 0.6813642382621765
0.4022413194179535 -0.16163016855716705 0.6784640550613403
0.2850763499736786 -0.09906553477048874 0.6567851305007935
0.30322134494781494 -0.10002555698156357 0.6522544622421265
0.3043515980243683 -0.10018046945333481 0.6520568132400513
0.30491727590560913 -0.1002579778432846 0.6519579291343689
0.3112680912017822 -0.10204366594552994 0.6516630053520203
0.31934401392936707 -0.10403849929571152 0.6510423421859741
0.3205013871192932 -0.10433413833379745 0.6509619951248169
0.3285976052284241 -0.1060500219464302 0.6500868201255798
0.330343633890152 -0.10650471597909927 0.649973452091217
0.33209094405174255 -0.10695949196815491 0.6498598456382751
0.34017708897590637 -0.12542866170406342 0.6639053821563721
0.34406808018684387 -0.1260879933834076 0.6633376479148865
0.3539973795413971 -0.13926780223846436 0.6721261739730835
0.36347904801368713 -0.1600622683763504 0.6878279447555542
0.36699777841567993 -0.16223207116127014 0.6887156963348389
0.3724999725818634 -0.16535010933876038 0.6898590922355652
0.3734849691390991 -0.1660386621952057 0.6901798248291016
0.37693560123443604 -0.16820067167282104 0.6910807490348816
0.3803815245628357 -0.17017139494419098 0.6918128132820129
0.3838939964771271 -0.1714247465133667 0.6918862462043762
0.3903213143348694 -0.17072804272174835 0.6893582940101624
0.39202871918678284 -0.17001281678676605 0.6882146000862122
0.3943246901035309 -0.16907498240470886 0.6866979598999023
0.3978814482688904 -0.16401027143001556 0.681132435798645
0.4022175669670105 -0.1646190583705902 0.6803876757621765
0.4030999541282654 -0.1628635674715042 0.678562581539154
0.28242987394332886 -0.09997490793466568 0.6575809717178345
0.29310712218284607 -0.09945543110370636 0.6539393067359924
0.29976892471313477 -0.1000211238861084 0.6524617671966553
0.30034777522087097 -0.10021407157182693 0.6524617671966553
0.3037441670894623 -0.10079435259103775 0.6519691348075867
0.30947113037109375 -0.10212016105651855 0.6514482498168945
0.31640490889549255 -0.1040768027305603 0.6511315107345581
0.32620471715927124 -0.1061566025018692 0.6500720381736755
0.32736077904701233 -0.10638096183538437 0.6499282717704773
0.3285178542137146 -0.10660538077354431 0.6497842669487
0.33288314938545227 -0.12416457384824753 0.6641632318496704
0.3389892578125 -0.12589678168296814 0.6638924479484558
0.3412015736103058 -0.12612587213516235 0.6634386777877808
0.34230944514274597 -0.12619927525520325 0.663174569606781
0.35068193078041077 -0.12759435176849365 0.661928117275238
0.35236361622810364 -0.12809424102306366 0.661873996257782
0.3552528917789459 -0.1557473987340927 0.6857049465179443
0.3557637333869934 -0.15608783066272736 0.6858569383621216
0.35932856798171997 -0.15829263627529144 0.686764657497406
0.364383339881897 -0.1613231748342514 0.6879659295082092
0.36589550971984863 -0.16214290261268616 0.6882479190826416
0.36939796805381775 -0.16424338519573212 0.6890810132026672
0.37288111448287964 -0.1662941575050354 0.6898753046989441
0.3758432865142822 -0.16811315715312958 0.6906179189682007
0.37927502393722534 -0.1702493280172348 0.6915037631988525
0.3827032744884491 -0.17220263183116913 0.6922275424003601
0.383762001991272 -0.17207728326320648 0.6918004155158997
0.3848075270652771 -0.17208550870418549 0.6914966106414795
0.3924351632595062 -0.17056401073932648 0.6878679990768433
0.39409396052360535 -0.1702558994293213 0.687099277973175
0.2807319164276123 -0.10020484030246735 0.657492458820343
0.2824101448059082 -0.10063951462507248 0.6573808789253235
0.2840029299259186 -0.10061527043581009 0.6568837761878967
0.2860625684261322 -0.10018587857484818 0.6558847427368164
0.28818899393081665 -0.10005258768796921 0.6551306247711182
0.2919800877571106 -0.10007897019386292 0.6540229320526123
0.2925248444080353 -0.10008826851844788 0.653868556022644
0.29416272044181824 -0.10011601448059082 0.6534046530723572
0.2963825464248657 -0.10033595561981201 0.6529391407966614
0.30199649930000305 -0.10113581269979477 0.651979923248291
0.3071115016937256 -0.10211396962404251 0.651328980922699
0.3134775459766388 -0.10411068052053452 0.6512168049812317
0.3140532076358795 -0.1042603999376297 0.6511791348457336
0.3232390582561493 -0.10608892142772675 0.6500747203826904
0.32381463050842285 -0.10619328171014786 0.6499965190887451
0.3243911564350128 -0.10630543529987335 0.649924635887146
0.3339647948741913 -0.12604914605617523 0.6647446751594543
0.3345111608505249 -0.12607449293136597 0.6646043658256531
0.3361574113368988 -0.12624603509902954 0.6642665266990662
0.33725205063819885 -0.12623269855976105 0.6639280915260315
0.3383561372756958 -0.12641142308712006 0.6637585163116455
0.3477917015552521 -0.12754347920417786 0.6619560718536377
0.34835049510002136 -0.12761132419109344 0.6618501543998718
0.3505893051624298 -0.12800203263759613 0.6615316271781921
0.3538096249103546 -0.14054864645004272 0.6718037724494934
0.3561820983886719 -0.15702569484710693 0.68584805727005
0.3612598180770874 -0.16006727516651154 0.6870558857917786
0.3647932708263397 -0.16205380856990814 0.6877800822257996
0.37127968668937683 -0.16603748500347137 0.6894108653068542
0.38161805272102356 -0.17211338877677917 0.6917653679847717
0.38627901673316956 -0.1724867969751358 0.6907086968421936
0.3884173631668091 -0.17225942015647888 0.6898670196533203
0.390022873878479 -0.1721394658088684 0.6892804503440857
0.40246424078941345 -0.16588473320007324 0.6799673438072205
0.4046480059623718 -0.16320420801639557 0.6769155859947205
0.2855232059955597 -0.10095977783203125 0.6559357643127441
0.2913745641708374 -0.1005532518029213 0.653819739818573
0.303097128868103 -0.10209435969591141 0.651695191860199
0.3042234182357788 -0.10224999487400055 0.6514979600906372
0.3111060559749603 -0.10402325540781021 0.6510303020477295
0.32028889656066895 -0.10607726871967316 0.6501261591911316
0.32143503427505493 -0.10626740753650665 0.6499538421630859
0.3295217752456665 -0.10804647207260132 0.6491312384605408
0.3301001787185669 -0.10815894603729248 0.6490591168403625
0.3316291570663452 -0.12507866322994232 0.6637915372848511
0.34546929597854614 -0.1275852918624878 0.6619002223014832
0.3482590615749359 -0.1280430555343628 0.6614763736724854
0.3515636920928955 -0.13929098844528198 0.6705853343009949
0.3571109473705292 -0.1581314504146576 0.685839831829071
0.3636835813522339 -0.16211965680122375 0.6874535083770752
0.3672005832195282 -0.16406293213367462 0.688145637512207
0.37364470958709717 -0.16810424625873566 0.6898453235626221
0.37413489818573 -0.16843794286251068 0.689998209476471
0.37709638476371765 -0.1700904816389084 0.6905955076217651
0.3921051025390625 -0.17213687300682068 0.6879413723945618
0.39660653471946716 -0.17087127268314362 0.6854580640792847
0.3981092870235443 -0.16518083214759827 0.6798995137214661
0.4002338647842407 -0.16570794582366943 0.6797370314598083
0.40182623267173767 -0.1661180555820465 0.6796286702156067
0.4023608863353729 -0.1662357747554779 0.6795743703842163
0.4040769338607788 -0.16600662469863892 0.6788550615310669
0.40550169348716736 -0.16443461179733276 0.677017331123352
0.2813531160354614 -0.10217463970184326 0.6574764847755432
0.2990969121456146 -0.10200724750757217 0.6520015001296997
0.2996568977832794 -0.10208486020565033 0.6519032716751099
0.30023372173309326 -0.10227713733911514 0.6519032716751099
0.308756947517395 -0.10407978296279907 0.6509683728218079
0.3173602223396301 -0.10617101192474365 0.6502692103385925
0.31849896907806396 -0.10632666945457458 0.6500678062438965
0.31906893849372864 -0.10640451312065125 0.649966835975647
0.3271276652812958 -0.10808049142360687 0.6490572094917297
0.33435070514678955 -0.12708519399166107 0.6639983057975769
0.3431554138660431 -0.12768565118312836 0.6618969440460205
0.34537944197654724 -0.12801620364189148 0.6615272164344788
0.34649449586868286 -0.12827031314373016 0.6614213585853577
0.3534480035305023 -0.15669314563274384 0.6849217414855957
0.35599881410598755 -0.15821820497512817 0.6855291724205017
0.3580320477485657 -0.15940003097057343 0.6859829425811768
0.3590436577796936 -0.16006359457969666 0.686276912689209
0.36609214544296265 -0.1641448736190796 0.6878358125686646
0.36907702684402466 -0.1660362035036087 0.6886427402496338
0.3759925067424774 -0.17016832530498505 0.6902874112129211
0.37942761182785034 -0.17212168872356415 0.6910151243209839
0.3875974714756012 -0.1736793965101242 0.6899657845497131
0.39194583892822266 -0.1728871762752533 0.6879478096961975
0.3941617012023926 -0.17238415777683258 0.6868300437927246
0.2796945869922638 -0.10254504531621933 0.6575107574462891
0.28235143423080444 -0.10262434184551239 0.656782865524292
