ply
format ascii 1.0
element vertex 812
property float x
property float y
property float z
end_header
0.6029202342033386 -0.04635713994503021 0.6615708470344543
0.6059207320213318 -0.05017256364226341 0.6632344722747803
0.6093282103538513 -0.05464455112814903 0.6652064919471741
0.610944926738739 -0.05628526955842972 0.6658583879470825
0.614287257194519 -0.060674626380205154 0.6677941679954529
0.6158777475357056 -0.062286779284477234 0.668433666229248
0.6178861260414124 -0.06457044929265976 0.669387936592102
0.6183105111122131 -0.06524728983640671 0.6697041988372803
0.6203361749649048 -0.06619258970022202 0.6698639988899231
0.6220004558563232 -0.06637749820947647 0.6696452498435974
0.6325446367263794 -0.06804324686527252 0.6685526371002197
0.6342746615409851 -0.06816542148590088 0.6682835221290588
0.6366612315177917 -0.06863540410995483 0.6680914163589478
0.5617491006851196 -0.0017278132727369666 0.6423145532608032
0.5632510185241699 -0.00818476639688015 0.6458470225334167
0.5640373826026917 -0.008446943014860153 0.6458470225334167
0.5647196173667908 -0.014492794871330261 0.6492971181869507
0.5656633377075195 -0.016241425648331642 0.6501481533050537
0.5659921765327454 -0.01919487677514553 0.6518338918685913
0.5670850872993469 -0.022369997575879097 0.6535014510154724
0.5675589442253113 -0.026689764112234116 0.6559692025184631
0.5683192014694214 -0.02694321610033512 0.6559692025184631
0.5685502290725708 -0.028218628838658333 0.6566798090934753
0.5721014142036438 -0.026544800028204918 0.6549854874610901
0.5740516185760498 -0.026250600814819336 0.6544252038002014
0.5752434730529785 -0.025699762627482414 0.6538626551628113
0.5783964991569519 -0.02487288787961006 0.6527491807937622
0.5863357186317444 -0.025344161316752434 0.6514595746994019
0.5876172184944153 -0.02632620744407177 0.6517887115478516
0.5923203825950623 -0.03406039625406265 0.6554453372955322
0.5937409400939941 -0.03628974035382271 0.656486988067627
0.5954394340515137 -0.03801971301436424 0.6571767926216125
0.59637451171875 -0.0394895076751709 0.6578632593154907
0.6001953482627869 -0.04363508149981499 0.6595665216445923
0.600654125213623 -0.044358305633068085 0.6599045395851135
0.6036780476570129 -0.04819817468523979 0.6615840196609497
0.604129433631897 -0.048911336809396744 0.661917507648468
0.6074084639549255 -0.052241250872612 0.6632443070411682
0.6082966923713684 -0.05364822596311569 0.663902759552002
0.611672043800354 -0.058075450360774994 0.6658612489700317
0.6124067902565002 -0.05832037702202797 0.6658612489700317
0.6137087941169739 -0.06038842722773552 0.6668304204940796
0.615302324295044 -0.062002673745155334 0.6674723625183105
0.6185882687568665 -0.06631890684366226 0.669382631778717
0.6280142664909363 -0.06823498010635376 0.6686553359031677
0.6305225491523743 -0.06851973384618759 0.6683285236358643
0.6338152289390564 -0.06898202002048492 0.6679520606994629
0.6346413493156433 -0.06909540295600891 0.6678557991981506
0.636198103427887 -0.06945230811834335 0.6677598357200623
0.56117844581604 -0.0030515824910253286 0.6422265768051147
0.5621519088745117 -0.004870573058724403 0.6431159973144531
0.5636418461799622 -0.011259566061198711 0.6466212272644043
0.5638139843940735 -0.012768605723977089 0.647484540939331
0.5639852285385132 -0.014268815517425537 0.6483432650566101
0.5649317502975464 -0.016019480302929878 0.6491971015930176
0.5654306411743164 -0.020442744717001915 0.6517296433448792
0.5655950307846069 -0.021900488063693047 0.6525639295578003
0.5677607655525208 -0.028158564120531082 0.6558576226234436
0.5692410469055176 -0.028736189007759094 0.6559078693389893
0.570405900478363 -0.028211690485477448 0.6553650498390198
0.5746906995773315 -0.026881814002990723 0.6537235975265503
0.5778294205665588 -0.026072252541780472 0.6526198983192444
0.5802220702171326 -0.02499970607459545 0.6515076160430908
0.5834052562713623 -0.024176999926567078 0.6503867506980896
0.5883215069770813 -0.028479304164648056 0.6519712209701538
0.5896440148353577 -0.03096902370452881 0.6531901359558105
0.5935909748077393 -0.03670695051550865 0.6558211445808411
0.5943499207496643 -0.0369599312543869 0.6558211445808411
0.596980631351471 -0.040156494826078415 0.6572009325027466
0.601419985294342 -0.046210650354623795 0.6599224805831909
0.6021683216094971 -0.0464601032435894 0.6599224805831909
0.6051760315895081 -0.05027858167886734 0.6615972518920898
0.6081492900848389 -0.05405344069004059 0.6632534861564636
0.6131290793418884 -0.060101404786109924 0.6658639907836914
0.6160134673118591 -0.06376516073942184 0.667471706867218
0.6164408326148987 -0.06444452702999115 0.6677912473678589
0.6202197074890137 -0.06800547987222672 0.6691601872444153
0.6227819323539734 -0.06818577647209167 0.668759286403656
0.6243400573730469 -0.06852079927921295 0.6686497926712036
0.6260067224502563 -0.06870753318071365 0.6684303283691406
0.6300711631774902 -0.06933043152093887 0.6679948568344116
0.6350073218345642 -0.07002391666173935 0.6674286127090454
0.6364868879318237 -0.07048141211271286 0.6674075126647949
0.6380848288536072 -0.07078346610069275 0.6672704815864563
0.5606103539466858 -0.004369727335870266 0.6421384215354919
0.5615828633308411 -0.006181835662573576 0.6430262923240662
0.5619409680366516 -0.009250238537788391 0.6447867751121521
0.5621185898780823 -0.010770549066364765 0.6456584930419922
0.5632497072219849 -0.014044875279068947 0.6473875641822815
0.5635941028594971 -0.017023799940943718 0.649097204208374
0.5645371675491333 -0.01875823736190796 0.6499448418617249
0.5650371313095093 -0.0231364443898201 0.6524583697319031
0.56596440076828 -0.024836793541908264 0.6532884836196899
0.5676053762435913 -0.030308960005640984 0.6562281847000122
0.5729579329490662 -0.028597494587302208 0.6541420221328735
0.5741339325904846 -0.02807058021426201 0.6535932421684265
0.5784552693367004 -0.026734912768006325 0.651936411857605
0.5839515328407288 -0.024996737018227577 0.6498053073883057
0.5846580266952515 -0.02537376433610916 0.6498898863792419
0.5859403610229492 -0.026360096409916878 0.6502231955528259
0.5899121165275574 -0.032249365001916885 0.6529484391212463
0.590303897857666 -0.03315088897943497 0.6534085273742676
0.5915442109107971 -0.03415251523256302 0.6537594199180603
0.5946706533432007 -0.03811539337038994 0.6555026769638062
0.5977602601051331 -0.04203188791871071 0.6572252511978149
0.5982236862182617 -0.04275926575064659 0.6575674414634705
0.5998975038528442 -0.044459689408540726 0.658249020576477
0.6029285192489624 -0.04830288887023926 0.6599398255348206
0.6059247255325317 -0.05210157111287117 0.661611020565033
0.6063715815544128 -0.05280658230185509 0.661942720413208
0.6096246838569641 -0.056102607399225235 0.6632630228996277
0.6100645065307617 -0.056799232959747314 0.6635911464691162
0.6145792007446289 -0.06211799010634422 0.6658674478530884
0.615867555141449 -0.06416338682174683 0.6668320298194885
0.6178731918334961 -0.0664372518658638 0.667789876461029
0.6194443702697754 -0.06802508234977722 0.6684249043464661
0.6263940334320068 -0.06961075961589813 0.6679887175559998
0.6287863850593567 -0.07004357129335403 0.6677709221839905
0.6304566860198975 -0.07023359835147858 0.66755211353302
0.6320757269859314 -0.0704958587884903 0.6673866510391235
0.5611968636512756 -0.00901985727250576 0.6438189744949341
0.5613768100738525 -0.01054205559194088 0.6446941494941711
0.5615556836128235 -0.012055573053658009 0.64556485414505
0.5623373985290527 -0.012316141277551651 0.64556485414505
0.5630348920822144 -0.01828169822692871 0.6489975452423096
0.5639773011207581 -0.02000909298658371 0.6498438715934753
0.5643140077590942 -0.02292359247803688 0.6515215635299683
0.5654086470603943 -0.026060491800308228 0.6531810760498047
0.5655706524848938 -0.0274906475096941 0.6540049314498901
0.5657336115837097 -0.028909310698509216 0.6548222899436951
0.5658945441246033 -0.030322499573230743 0.6556359529495239
0.566650390625 -0.03057444840669632 0.6556359529495239
0.5681315660476685 -0.031136782839894295 0.6556771993637085
0.570446789264679 -0.030109422281384468 0.6546000242233276
0.5735597610473633 -0.029291659593582153 0.6534889936447144
0.5766961574554443 -0.02846810407936573 0.6523698568344116
0.5778893232345581 -0.027928439900279045 0.651808500289917
0.5802774429321289 -0.02686496637761593 0.6506953239440918
0.5822478532791138 -0.026586826890707016 0.6501357555389404
0.5834543108940125 -0.02605089731514454 0.6495742201805115
0.5843782424926758 -0.02603204920887947 0.6493781208992004
0.5865132212638855 -0.027126546949148178 0.6496075987815857
0.5876302719116211 -0.02839634008705616 0.6501448154449463
0.5893194079399109 -0.030254270881414413 0.6509197950363159
0.5900033712387085 -0.03224958851933479 0.651978611946106
0.5923449993133545 -0.03605986759066582 0.6537920832633972
0.5954591035842896 -0.040001850575208664 0.6555308699607849
0.5966817736625671 -0.040985945612192154 0.6558759212493896
0.599288284778595 -0.04414837062358856 0.6572490930557251
0.6002078056335449 -0.04559344798326492 0.657931387424469
0.6036853194236755 -0.05013655126094818 0.6599574685096741
0.6044299602508545 -0.050384800881147385 0.6599574685096741
0.6074103116989136 -0.054162509739398956 0.6616246700286865
0.6107946634292603 -0.058589860796928406 0.663599967956543
0.613701343536377 -0.06227392330765724 0.6652251482009888
0.6181511282920837 -0.06750728189945221 0.6674705743789673
0.618574321269989 -0.06817907094955444 0.6677885055541992
0.6226248145103455 -0.07004205882549286 0.6680952310562134
0.6234549880027771 -0.07013585418462753 0.6679859161376953
0.6242859363555908 -0.07022950053215027 0.6678763031959534
0.6266741156578064 -0.07065898925065994 0.667656660079956
0.6355413794517517 -0.0721355453133583 0.6667707562446594
0.6363158822059631 -0.07231581956148148 0.6667243838310242
0.6387152075767517 -0.07275906205177307 0.6665107011795044
0.5594804286956787 -0.006990778259932995 0.6419645547866821
0.5602695345878601 -0.0072538102976977825 0.6419645547866821
0.5606338381767273 -0.010313055478036404 0.6437288522720337
0.5619524121284485 -0.015092738904058933 0.6463357210159302
0.5621283054351807 -0.016581745818257332 0.6471945643424988
0.5635898113250732 -0.02270989492535591 0.6505833864212036
0.5637592077255249 -0.024156387895345688 0.6514183878898621
0.5639262199401855 -0.025596940889954567 0.6522496938705444
0.5650187134742737 -0.02870240807533264 0.6538963913917542
0.5666999816894531 -0.03232097998261452 0.6557332277297974
0.5718053579330444 -0.03105359710752964 0.6539498567581177
0.5729811787605286 -0.030520671978592873 0.6533941030502319
0.5772998929023743 -0.02916494943201542 0.651715099811554
0.5784952640533447 -0.028624439612030983 0.6511512398719788
0.5868650078773499 -0.028285887092351913 0.6492721438407898
0.5939006209373474 -0.03821088746190071 0.6538251042366028
0.5969979763031006 -0.042130645364522934 0.6555594801902771
0.6000591516494751 -0.04600474610924721 0.6572733521461487
0.6051807999610901 -0.05220924690365791 0.6599742770195007
0.6081498265266418 -0.05596722662448883 0.6616372466087341
0.6085920929908752 -0.05666469782590866 0.6619678735733032
0.6122550368309021 -0.06061630696058273 0.6636081337928772
0.6151466369628906 -0.0642801895737648 0.6652296781539917
0.6160032153129578 -0.06563705205917358 0.6658735275268555
0.6199953556060791 -0.07015315443277359 0.6677868366241455
0.6205375790596008 -0.07064715027809143 0.6679744720458984
0.6302816867828369 -0.07208800315856934 0.6668892502784729
0.6328088045120239 -0.07234343886375427 0.6665364503860474
0.558918833732605 -0.00829333532601595 0.6418774724006653
0.5598900318145752 -0.010083155706524849 0.6427613496780396
0.5604371428489685 -0.014609786681830883 0.645378589630127
0.5613940954208374 -0.01636013388633728 0.6462411880493164
0.5617474317550659 -0.01931660994887352 0.647951602935791
0.5619228482246399 -0.020782407373189926 0.648800253868103
0.5628646612167358 -0.022495605051517487 0.649643063545227
0.5633748173713684 -0.026818400248885155 0.6521450281143188
0.5647959113121033 -0.03272034600377083 0.655415952205658
0.5682029128074646 -0.03296813368797302 0.6548812985420227
0.5700643062591553 -0.032801710069179535 0.654407262802124
0.5712325572967529 -0.0322742722928524 0.6538548469543457
0.5747631192207336 -0.03067988157272339 0.6521847248077393
0.5767115950584412 -0.030398530885577202 0.6516239643096924
0.5803002715110779 -0.028781553730368614 0.6499288082122803
0.5822737216949463 -0.028494449332356453 0.6493592262268066
0.5851790904998779 -0.02818584255874157 0.6485896706581116
0.5877727270126343 -0.030074063688516617 0.6492066383361816
0.5883285999298096 -0.03070462867617607 0.6494747996330261
0.5899488925933838 -0.03266221284866333 0.6503288149833679
0.5905537605285645 -0.0347726047039032 0.6514789462089539
0.5915700197219849 -0.03615380823612213 0.6521070003509521
0.5942219495773315 -0.03936440125107765 0.6535093188285828
0.5946917533874512 -0.04009907692670822 0.6538574695587158
0.5982393622398376 -0.04472262039780617 0.6559308767318726
0.5999106764793396 -0.04641598463058472 0.6566157937049866
0.6015740633010864 -0.048101481050252914 0.6572969555854797
0.6020297408103943 -0.04881653934717178 0.6576366424560547
0.6059284806251526 -0.054024603217840195 0.6599917411804199
0.6066696643829346 -0.05427166074514389 0.6599917411804199
0.6096229553222656 -0.058009229600429535 0.6616507768630981
0.6100622415542603 -0.05870245024561882 0.6619800925254822
0.6109381914138794 -0.060084402561187744 0.662636935710907
0.6129761934280396 -0.06238936632871628 0.6636162996292114
0.6141400933265686 -0.06331649422645569 0.663941502571106
0.6158570647239685 -0.06603450328111649 0.6652343273162842
0.616584837436676 -0.06627709418535233 0.6652343273162842
0.6178603768348694 -0.06829863786697388 0.6661964058876038
0.6250613927841187 -0.07202579081058502 0.6669957637786865
0.6266151070594788 -0.07236142456531525 0.6668857336044312
0.6282763481140137 -0.07255344837903976 0.6666679382324219
0.6362197995185852 -0.07404422760009766 0.6659706234931946
0.6371674537658691 -0.07399601489305496 0.6657513976097107
0.6386294960975647 -0.07446808367967606 0.6657418608665466
0.5595149397850037 -0.0128838662058115 0.643549382686615
0.5596988201141357 -0.014385782182216644 0.644420325756073
0.56065833568573 -0.01613815687596798 0.645286500453949
0.5611937642097473 -0.020565815269947052 0.6478551030158997
0.5613700747489929 -0.022025154903531075 0.6487014293670654
0.5626553297042847 -0.02660846896469593 0.6512129902839661
0.5628257989883423 -0.028034640476107597 0.652040421962738
0.5639196634292603 -0.031115133315324783 0.6536825299263
0.5650012493133545 -0.0341627262532711 0.6553071141242981
0.5667741894721985 -0.03414509817957878 0.6549390554428101
0.5694972276687622 -0.03401413932442665 0.6543111801147461
0.5730045437812805 -0.03243587911128998 0.6526504755020142
0.5749418139457703 -0.032158903777599335 0.652092456817627
0.5785064101219177 -0.030558103695511818 0.6504065990447998
0.5796840786933899 -0.03005588985979557 0.6498658061027527
0.5804493427276611 -0.0303109772503376 0.6498658061027527
0.5894437432289124 -0.03211023285984993 0.6491408944129944
0.591671884059906 -0.03614122420549393 0.6511284708976746
0.5962339043617249 -0.042229942977428436 0.6538903713226318
0.5976279973983765 -0.04441094398498535 0.6549274325370789
0.5993027091026306 -0.04610686004161835 0.6556157469749451
0.6027889847755432 -0.05065051466226578 0.6576594710350037
0.6074119210243225 -0.05607786029577255 0.6600085496902466
0.6107913851737976 -0.06048598140478134 0.6619922518730164
0.6144242882728577 -0.06439746916294098 0.6636248230934143
0.6172903776168823 -0.0680227130651474 0.6652389168739319
0.6181378364562988 -0.06936488300561905 0.6658794283866882
0.6205431818962097 -0.07227098196744919 0.6671514511108398
0.6220172047615051 -0.07270795851945877 0.6671187877655029
0.6310796141624451 -0.07384184002876282 0.6659777164459229
0.6326848864555359 -0.0741158276796341 0.6658201217651367
0.6341567039489746 -0.07456918060779572 0.665797770023346
0.5578023791313171 -0.010882270522415638 0.6417055726051331
0.558586597442627 -0.011143682524561882 0.6417055726051331
0.5589590668678284 -0.014161273837089539 0.6434600949287415
0.5593276619911194 -0.01714327558875084 0.645193874835968
0.5617609024047852 -0.024962477385997772 0.6494439840316772
0.5619350075721741 -0.026397189125418663 0.6502789258956909
0.5622787475585938 -0.02924642339348793 0.6519371271133423
0.5633734464645386 -0.03231455385684967 0.6535767316818237
0.5635400414466858 -0.0337107814848423 0.6543894410133362
0.5637056827545166 -0.035099614411592484 0.6551978588104248
0.57009357213974 -0.03470074012875557 0.6536646485328674
0.575542151927948 -0.0328509546816349 0.651441752910614
0.5767132639884949 -0.03234544396400452 0.6508985161781311
0.5821300745010376 -0.030700502917170525 0.6488061547279358
0.584482729434967 -0.02974116802215576 0.647749125957489
0.586030125617981 -0.03023654781281948 0.6477367281913757
0.5901762843132019 -0.03417031466960907 0.6492838263511658
0.5920265316963196 -0.03725282847881317 0.650779128074646
0.5922693014144897 -0.03838680684566498 0.6514177918434143
0.5939226150512695 -0.040196847170591354 0.652181088924408
0.5953295826911926 -0.04239257425069809 0.6532282829284668
0.5970155000686646 -0.04409899190068245 0.6539223790168762
0.6000722646713257 -0.047955773770809174 0.6556434035301208
0.6005297899246216 -0.04867203161120415 0.6559851765632629
0.6038378477096558 -0.05201634019613266 0.657344400882721
0.6042883992195129 -0.05272354558110237 0.6576820015907288
0.6072648167610168 -0.05648236349225044 0.6593599319458008
0.6138471364974976 -0.06411529332399368 0.6626580953598022
0.6151374578475952 -0.06615292280912399 0.6636330485343933
0.6162930727005005 -0.06707174330949783 0.6639567613601685
0.6187170147895813 -0.07000137120485306 0.66524338722229
0.619979202747345 -0.07200068980455399 0.6662004590034485
0.6265565156936646 -0.07405734807252884 0.6661181449890137
0.6282146573066711 -0.07425007969141006 0.6658999919891357
0.6306276917457581 -0.07464495301246643 0.665651798248291
0.6368495225906372 -0.07600609958171844 0.6652194857597351
0.6385444402694702 -0.07617036998271942 0.6649764180183411
0.5572479367256165 -0.01216885820031166 0.6416205167770386
0.5580305457115173 -0.012429734691977501 0.6416205167770386
0.5587763786315918 -0.01840265654027462 0.6451026797294617
0.5597319006919861 -0.02013171836733818 0.6459604501724243
0.5599127411842346 -0.021594591438770294 0.6468139886856079
0.5600927472114563 -0.023049289360642433 0.6476625204086304
0.5612126588821411 -0.02618783712387085 0.6493445038795471
0.561560332775116 -0.029040688648819923 0.6510095596313477
0.5617340803146362 -0.030453162267804146 0.6518335342407227
0.5624907612800598 -0.030705399811267853 0.6518335342407227
0.5631900429725647 -0.03623161464929581 0.655053973197937
0.5649062991142273 -0.03630847483873367 0.6547526717185974
0.5678218007087708 -0.03578827530145645 0.6538448929786682
0.5685734152793884 -0.03603880852460861 0.6538448929786682
0.5695498585700989 -0.035864993929862976 0.653541088104248
0.5730201005935669 -0.03435647860169411 0.6519196629524231
0.5749213099479675 -0.03414275124669075 0.651404082775116
0.5783798098564148 -0.032735131680965424 0.6498461365699768
0.5803036093711853 -0.03251709043979645 0.6493233442306519
0.5838149189949036 -0.03109109029173851 0.6477444171905518
0.5845818519592285 -0.03134678676724434 0.6477444171905518
0.5877088308334351 -0.03226635232567787 0.6476697325706482
0.5884760618209839 -0.032522112131118774 0.6476697325706482
0.5916905403137207 -0.03643340617418289 0.6493971943855286
0.5921024084091187 -0.03728584945201874 0.6498320698738098
0.5937733054161072 -0.040612898766994476 0.6515172719955444
0.5942434668540955 -0.041345883160829544 0.651867687702179
0.5985445380210876 -0.04620951786637306 0.6539547443389893
0.599923849105835 -0.04836619272828102 0.6549866199493408
0.601584792137146 -0.0500447079539299 0.6556705832481384
0.6050388216972351 -0.05453921854496002 0.6577049493789673
0.6080039739608765 -0.05827866494655609 0.659378707408905
0.611668586730957 -0.06221998482942581 0.6610334515571594
0.6121034026145935 -0.06290505826473236 0.661361813545227
0.616573691368103 -0.06814271211624146 0.6636414527893066
0.6178471446037292 -0.0701550617814064 0.6646072268486023
0.6198775172233582 -0.07233355939388275 0.6655207872390747
0.6204655766487122 -0.07276079803705215 0.6656613945960999
0.622361421585083 -0.07385404407978058 0.6659421920776367
0.6228379011154175 -0.07443061470985413 0.6661962866783142
0.62445068359375 -0.07467515021562576 0.6660178303718567
0.6252855658531189 -0.07475998997688293 0.665900468826294
0.62611323595047 -0.07485520094633102 0.6657906174659729
0.6332389116287231 -0.07618185877799988 0.6651526689529419
0.6340058445930481 -0.0763649195432663 0.6651083827018738
0.5576655864715576 -0.015210224315524101 0.6424118876457214
0.5578538179397583 -0.016700642183423042 0.6432834267616272
0.5593644976615906 -0.02283518947660923 0.6467195153236389
0.5595453977584839 -0.02428349480032921 0.6475667953491211
0.5597255825996399 -0.025723494589328766 0.6484090089797974
0.5622871518135071 -0.034698862582445145 0.6533653736114502
0.5663989782333374 -0.03695390000939369 0.6539050340652466
0.5701209902763367 -0.036595433950424194 0.65292888879776
0.5765787959098816 -0.03453310951590538 0.6503567099571228
0.5777320265769958 -0.034065745770931244 0.6498367190361023
0.5784920454025269 -0.034319084137678146 0.6498367190361023
0.5831500887870789 -0.032434411346912384 0.647739589214325
0.585091233253479 -0.03221482038497925 0.6472101211547852
0.589374840259552 -0.03429759293794632 0.6476103067398071
0.592435896396637 -0.0384305864572525 0.6495093107223511
0.5945634841918945 -0.04249223694205284 0.6515557765960693
0.5976443886756897 -0.046371087431907654 0.6532959342002869
0.5993167161941528 -0.048059962689876556 0.6539865136146545
0.6023452877998352 -0.05187506973743439 0.6556984782218933
0.6060799956321716 -0.055893633514642715 0.657391369342804
0.606525719165802 -0.056592993438243866 0.6577273011207581
0.6078571677207947 -0.058681946247816086 0.6587317585945129
0.6094752550125122 -0.060311801731586456 0.6593969464302063
0.6128242015838623 -0.06466981023550034 0.6613752245903015
0.6177019476890564 -0.07055016607046127 0.6639718413352966
0.6184262037277222 -0.0707915723323822 0.6639718413352966
0.6222866773605347 -0.07414982467889786 0.6652357578277588
0.6280462741851807 -0.07608345150947571 0.6652438640594482
0.6305427551269531 -0.0763603150844574 0.6649051308631897
0.6376240849494934 -0.07658903300762177 0.6636044383049011
0.5559507012367249 -0.013226225040853024 0.6405714154243469
0.5561452507972717 -0.014726272784173489 0.6414501667022705
0.5574926733970642 -0.01943836733698845 0.6440601348876953
0.5576804280281067 -0.020905524492263794 0.6449201703071594
0.5586351752281189 -0.02262061834335327 0.6457750201225281
0.5591817498207092 -0.026946093887090683 0.6483115553855896
0.5602976679801941 -0.030045567080378532 0.6499819159507751
0.5606505870819092 -0.032853223383426666 0.651628315448761
0.561576247215271 -0.0344979465007782 0.6524465084075928
0.5619175434112549 -0.03726237639784813 0.6540691256523132
0.5623044371604919 -0.03821085765957832 0.6545710563659668
0.5640182495117188 -0.03828297555446625 0.6542656421661377
0.5649842619895935 -0.03811226040124893 0.6539639234542847
0.5659523010253906 -0.03794119134545326 0.6536616086959839
0.5676641464233398 -0.03803399205207825 0.6533687114715576
0.571738600730896 -0.037026602774858475 0.6519202589988708
0.5724915862083435 -0.037277597934007645 0.6519202589988708
0.5747727155685425 -0.03635317459702492 0.6508890986442566
0.5801429152488708 -0.03473909944295883 0.6488052606582642
0.583237886428833 -0.0340508408844471 0.6477522253990173
0.5902368426322937 -0.036122098565101624 0.6475924253463745
0.5938428640365601 -0.04082607850432396 0.6497361063957214
0.596103310585022 -0.04461364820599556 0.6515931487083435
0.602197527885437 -0.0522831454873085 0.655045211315155
0.6051918864250183 -0.056052032858133316 0.6567416787147522
0.6072671413421631 -0.05839109048247337 0.6577501893043518
0.6102055311203003 -0.06209058687090874 0.659415066242218
0.6142706871032715 -0.06666924804449081 0.6613888144493103
0.6151284575462341 -0.06801989674568176 0.6620407104492188
0.6194053888320923 -0.07212299853563309 0.663679838180542
0.6242462396621704 -0.07656446099281311 0.6654108166694641
0.6260559558868408 -0.07654073089361191 0.6650271415710449
0.6339154839515686 -0.07807442545890808 0.6643621325492859
0.5554019212722778 -0.014503143727779388 0.6404885053634644
0.5563749670982361 -0.016256319358944893 0.6413657665252686
0.5567574501037598 -0.01921984925866127 0.6431077718734741
0.5569469332695007 -0.020688779652118683 0.643970787525177
0.5571355223655701 -0.0221494659781456 0.644829511642456
0.5602094531059265 -0.02499132975935936 0.6459457278251648
0.5623236298561096 -0.024335911497473717 0.6451103091239929
0.5636789798736572 -0.02342042699456215 0.6442704796791077
0.5599356889724731 -0.03265053778886795 0.650705099105835
0.5601121187210083 -0.03404612094163895 0.6515266299247742
0.5612095594406128 -0.03706451132893562 0.6531556248664856
0.5613807439804077 -0.03843715041875839 0.6539633274078369
0.5618058443069458 -0.03930845111608505 0.6544118523597717
0.5681069493293762 -0.03899908810853958 0.6529315710067749
0.5700047612190247 -0.03875002637505531 0.6523901224136353
0.5710868835449219 -0.038381438702344894 0.6519421935081482
0.5729727149009705 -0.038173969835042953 0.6514289379119873
0.5764003396034241 -0.03679076209664345 0.6498776078224182
0.5783042907714844 -0.03658660128712654 0.6493624448776245
0.5817437171936035 -0.035256948322057724 0.6478418707847595
0.5848199129104614 -0.034617830067873 0.6468194127082825
0.5868521928787231 -0.034242261201143265 0.6461725234985352
0.5894838571548462 -0.03600884974002838 0.6467187404632568
0.5918568968772888 -0.03819243982434273 0.647574245929718
0.5922800302505493 -0.03902164101600647 0.6479968428611755
0.5942428112030029 -0.041844721883535385 0.6493290662765503
0.5945515632629395 -0.042844418436288834 0.6498794555664062
0.5956144332885742 -0.04409226030111313 0.6504284143447876
0.5968839526176453 -0.04647395759820938 0.6516312956809998
0.5980984568595886 -0.047445155680179596 0.6519793272018433
0.5999367833137512 -0.05031094700098038 0.6533623933792114
0.600684404373169 -0.050560154020786285 0.6533623933792114
0.6036977767944336 -0.05435142666101456 0.6550740599632263
0.6041476130485535 -0.05505507439374924 0.6554144620895386
0.6083006262779236 -0.059734027832746506 0.6574378609657288
0.6087415814399719 -0.060425885021686554 0.6577723026275635
0.6116646528244019 -0.06410491466522217 0.6594336032867432
0.6120988130569458 -0.06478708982467651 0.6597635746002197
0.6136941909790039 -0.06638986617326736 0.6604214906692505
0.6149829626083374 -0.06841669976711273 0.6614023447036743
0.6161371469497681 -0.06933135539293289 0.6617276668548584
0.6204574704170227 -0.0733463391661644 0.6633092761039734
0.62165766954422 -0.0741666853427887 0.6635672450065613
0.6221346259117126 -0.07474513351917267 0.6638249754905701
0.6229343414306641 -0.07610620558261871 0.6644970774650574
0.6303913593292236 -0.07815761119127274 0.664230465888977
0.5550516843795776 -0.0172627791762352 0.6412820816040039
0.5575470924377441 -0.025089580565690994 0.6455915570259094
0.5581071376800537 -0.02576347067952156 0.6458916068077087
0.5607888102531433 -0.02394387498497963 0.644219696521759
0.5629117488861084 -0.02328336052596569 0.6433767080307007
0.5642734169960022 -0.022361617535352707 0.6425290703773499
0.5595754384994507 -0.03523442894220352 0.6514247059822083
0.561258852481842 -0.04049905389547348 0.6543229222297668
0.5620023012161255 -0.04074687883257866 0.6543229222297668
0.5630291104316711 -0.04045012220740318 0.6539293527603149
0.564001202583313 -0.04026251286268234 0.6536142826080322
0.5666354894638062 -0.04025356471538544 0.6530675292015076
0.574562668800354 -0.03866494446992874 0.6504610776901245
0.575690746307373 -0.038231588900089264 0.649961531162262
0.5764452219009399 -0.03848307207226753 0.649961531162262
0.5810015797615051 -0.03673674166202545 0.6479504108428955
0.5829107165336609 -0.036549974232912064 0.6474429965019226
0.5840645432472229 -0.03610857576131821 0.6469342112541199
0.5863392949104309 -0.03529931977391243 0.6459686160087585
0.5926129817962646 -0.040163617581129074 0.6476768255233765
0.5957356095314026 -0.04405994713306427 0.6494364738464355
0.5960411429405212 -0.045052967965602875 0.6499855518341064
0.5984113812446594 -0.048575203865766525 0.6516688466072083
0.601447582244873 -0.052390970289707184 0.6533958911895752
0.6044491529464722 -0.05616283416748047 0.6551034450531006
0.6060839295387268 -0.057807352393865585 0.6557806134223938
0.6094743013381958 -0.062205951660871506 0.6577943563461304
0.6099125742912292 -0.06289234012365341 0.6581275463104248
0.6131167411804199 -0.06610983610153198 0.6594516038894653
0.6166225075721741 -0.07010578364133835 0.6611934304237366
0.6184431314468384 -0.07133673876523972 0.6615779995918274
0.622713029384613 -0.07660282403230667 0.6639456152915955
0.6241826415061951 -0.07825522869825363 0.6646621227264404
0.6267170906066895 -0.07845959812402725 0.6642672419548035
0.6283679008483887 -0.0786532461643219 0.6640476584434509
0.6291895508766174 -0.07875632494688034 0.663942277431488
0.6306586265563965 -0.07919535785913467 0.6639111042022705
0.6321775913238525 -0.07956955581903458 0.6638297438621521
0.5545081496238708 -0.018523380160331726 0.6411978006362915
0.5554767847061157 -0.020254116505384445 0.6420681476593018
0.5558618903160095 -0.023174379020929337 0.6437934041023254
0.5570506453514099 -0.02622596174478531 0.6454347968101501
0.559764564037323 -0.024328647181391716 0.6437029838562012
0.5611334443092346 -0.023371756076812744 0.6428294777870178
0.5632825493812561 -0.022667115554213524 0.6419512033462524
0.564669132232666 -0.021700093522667885 0.6410678625106812
0.5590412020683289 -0.03641822561621666 0.6513239741325378
0.5599658489227295 -0.038043588399887085 0.6521377563476562
0.5603130459785461 -0.040773943066596985 0.6537537574768066
0.5614050030708313 -0.04203054681420326 0.6543051600456238
0.5689235925674438 -0.04104958847165108 0.6521506309509277
0.569878339767456 -0.040912263095378876 0.6518686413764954
0.5706263184547424 -0.04116157069802284 0.6518686413764954
0.5727109909057617 -0.040577489882707596 0.6510785222053528
0.5791061520576477 -0.038673583418130875 0.6485840082168579
0.58024662733078 -0.038238417357206345 0.6480802297592163
0.5821494460105896 -0.038054823875427246 0.647574782371521
0.5862477421760559 -0.03720783814787865 0.6462072134017944
0.5873672366142273 -0.036840103566646576 0.6457492113113403
0.588252604007721 -0.03688237443566322 0.6455928683280945
0.5903044939041138 -0.03805598244071007 0.64589524269104
0.5941354036331177 -0.0423562154173851 0.6477642059326172
0.5964668393135071 -0.046012166887521744 0.6495428085327148
0.5978450179100037 -0.04819773510098457 0.650610089302063
0.5991823077201843 -0.05041687563061714 0.6517056822776794
0.6022070646286011 -0.05421283841133118 0.6534287333488464
0.6059368252754211 -0.058211784809827805 0.655131995677948
0.6063821315765381 -0.0589074045419693 0.6554700136184692
0.6072695255279541 -0.060294102877378464 0.6561444401741028
0.6105002164840698 -0.06353756785392761 0.6574832201004028
0.6109365820884705 -0.0642218142747879 0.6578165888786316
0.6143192648887634 -0.06845561414957047 0.659736156463623
0.6177513599395752 -0.06996552646160126 0.65996253490448
0.6194493770599365 -0.06883532553911209 0.6589142084121704
0.6201796531677246 -0.06907874345779419 0.6589142084121704
0.6218926310539246 -0.06794122606515884 0.6578582525253296
0.6194030046463013 -0.07269858568906784 0.6613112688064575
0.6203042268753052 -0.07394261658191681 0.6618943214416504
0.6210269927978516 -0.07418354600667953 0.6618943214416504
0.6234595775604248 -0.0782175362110138 0.663886547088623
0.6237348914146423 -0.07905641198158264 0.6643484234809875
0.6271000504493713 -0.07934456318616867 0.6638330221176147
0.6309635639190674 -0.08018025755882263 0.6635536551475525
0.5537684559822083 -0.018303202465176582 0.6402403116226196
0.5547402501106262 -0.02003634348511696 0.6411145925521851
0.5553224086761475 -0.024409761652350426 0.6437053680419922
0.5555147528648376 -0.025850431993603706 0.6445589065551758
0.5612190961837769 -0.02332293801009655 0.6418128609657288
0.5596078634262085 -0.04058040305972099 0.6528452634811401
0.5618308782577515 -0.04301667958498001 0.6538963913917542
0.5628541707992554 -0.04272410646080971 0.6535037159919739
0.5648192763328552 -0.042306262999773026 0.6528385281562805
0.5664921402931213 -0.042453136295080185 0.6525839567184448
0.5683550834655762 -0.0422503724694252 0.6520730257034302
0.5693046450614929 -0.04211987927556038 0.6517960429191589
0.5700510144233704 -0.042368676513433456 0.6517960429191589
0.5742238759994507 -0.04119924083352089 0.6502084732055664
0.5760989189147949 -0.041022274643182755 0.6497113108634949
0.5783594846725464 -0.0401635505259037 0.6487115621566772
0.5802167654037476 -0.04004471004009247 0.6482543349266052
0.5813168883323669 -0.039684779942035675 0.6478037238121033
0.5846371054649353 -0.03859797120094299 0.646443784236908
0.5865116119384766 -0.038486968725919724 0.6459875702857971
0.588565468788147 -0.038075704127550125 0.6453081965446472
0.5917466282844543 -0.0404171459376812 0.6461021900177002
0.594910740852356 -0.044256970286369324 0.6478291153907776
0.5979674458503723 -0.04816988855600357 0.6496233940124512
0.6002398729324341 -0.051788389682769775 0.6513974070549011
0.6006963849067688 -0.05249864235520363 0.6517432332038879
0.6037051677703857 -0.05627348646521568 0.6534619331359863
0.6041545271873474 -0.05697367340326309 0.6538030505180359
0.6066796183586121 -0.06000485271215439 0.6551607847213745
0.6083015203475952 -0.06163274869322777 0.6558345556259155
0.6167129278182983 -0.07035472244024277 0.6595038771629333
0.6197672486305237 -0.06857668608427048 0.6577702164649963
0.6204986572265625 -0.06882049888372421 0.6577702164649963
0.6222176551818848 -0.06767760217189789 0.6567064523696899
0.623948872089386 -0.06652632355690002 0.6556345820426941
0.6215685606002808 -0.0761033222079277 0.6620643734931946
0.6241636872291565 -0.0798787847161293 0.6638689041137695
0.6257352232933044 -0.0801694318652153 0.6637243032455444
0.6266038417816162 -0.08020494878292084 0.6635667085647583
0.6282824873924255 -0.08035774528980255 0.6633146405220032
0.631956160068512 -0.07907422631978989 0.6617594957351685
0.5534281134605408 -0.0210286732763052 0.6410308480262756
0.5543959140777588 -0.022745409980416298 0.6418981552124023
0.5551007390022278 -0.026822945103049278 0.6442877650260925
0.5572128295898438 -0.026134518906474113 0.6434217691421509
0.5599333643913269 -0.024233130738139153 0.641675591468811
0.563459038734436 -0.02256806567311287 0.639909029006958
0.5648488402366638 -0.021599052473902702 0.639018177986145
0.5577982664108276 -0.03739958256483078 0.6503067016601562
0.5579788088798523 -0.03877156227827072 0.6511227488517761
0.5587251782417297 -0.0390203520655632 0.6511227488517761
0.5589014291763306 -0.04038679972290993 0.6519360542297363
0.5592541098594666 -0.04309216886758804 0.6535452604293823
0.5594801902770996 -0.04433456063270569 0.6542713046073914
0.5602186918258667 -0.04458072781562805 0.6542713046073914
0.5612360835075378 -0.044291265308856964 0.6538805365562439
0.5622560381889343 -0.0440010130405426 0.6534883379936218
0.5678287148475647 -0.04337243363261223 0.6519421935081482
0.5723804235458374 -0.04309365153312683 0.6508252620697021
0.5742444396018982 -0.04292045533657074 0.6503307223320007
0.5753650069236755 -0.04249682277441025 0.6498350501060486
0.5764599442481995 -0.04212453216314316 0.6493763327598572
0.581586480140686 -0.04095065966248512 0.6475834250450134
0.5826886296272278 -0.040591731667518616 0.6471316814422607
0.5845515131950378 -0.040484461933374405 0.6466792821884155
0.5909231305122375 -0.04043383523821831 0.6453266143798828
0.5920616388320923 -0.04158730059862137 0.6458082795143127
0.5933382511138916 -0.042499955743551254 0.6461109519004822
0.5960174202919006 -0.0455978587269783 0.6474825143814087
0.5964374542236328 -0.04639912769198418 0.6478935480117798
0.5980333089828491 -0.04823436588048935 0.6487044095993042
0.6014584302902222 -0.054322127252817154 0.6517800688743591
0.6019118428230286 -0.055027153342962265 0.6521244645118713
0.6044557690620422 -0.05807720869779587 0.6534942984580994
0.6081549525260925 -0.06203465163707733 0.6551888585090637
0.6094740629196167 -0.06409404426813126 0.656196117401123
0.6117300391197205 -0.06606750190258026 0.6569554209709167
0.6122444868087769 -0.06662946194410324 0.6571990251541138
0.614000678062439 -0.06799344718456268 0.6576831936836243
0.6145114898681641 -0.06855260580778122 0.6579248905181885
0.6195626258850098 -0.07411062717437744 0.6603341698646545
0.6213468313217163 -0.07660144567489624 0.66151362657547
0.6205042600631714 -0.08020325750112534 0.6639285683631897
0.6220641732215881 -0.08050131052732468 0.6637902855873108
0.5528914928436279 -0.022273821756243706 0.6409482955932617
0.5542506575584412 -0.02686510980129242 0.6435300707817078
0.5570862293243408 -0.03720146790146828 0.6493887305259705
0.5587273836135864 -0.044244781136512756 0.6534419059753418
0.5644435882568359 -0.04494104161858559 0.6526879668235779
0.5663760900497437 -0.044589582830667496 0.6520662307739258
0.5673043131828308 -0.04449025169014931 0.6518116593360901
0.568233847618103 -0.04439083859324455 0.6515560150146484
0.5708428621292114 -0.04444006457924843 0.6510441899299622
0.5727453231811523 -0.04418410360813141 0.6504889726638794
0.5745712518692017 -0.0440787672996521 0.6500434279441833
0.5785726308822632 -0.04327477887272835 0.6487100720405579
0.5807577967643738 -0.042567674070596695 0.6478140354156494
0.5837113261222839 -0.042107850313186646 0.6469133496284485
0.5870368480682373 -0.04103371128439903 0.6455511450767517
0.5881518721580505 -0.040673669427633286 0.6450946927070618
0.5918403267860413 -0.04212505370378494 0.6452330946922302
0.5925996899604797 -0.04237816855311394 0.6452330946922302
0.597213864326477 -0.04826302081346512 0.6479453444480896
0.5988340377807617 -0.050040103495121 0.6487169861793518
0.6004297733306885 -0.051834266632795334 0.6495044827461243
0.6007930040359497 -0.0526944175362587 0.6499654650688171
0.6027211546897888 -0.05534952133893967 0.6512210965156555
0.603142261505127 -0.05610081925988197 0.6516024470329285
0.606015145778656 -0.060006383806467056 0.6534416675567627
0.6095680594444275 -0.06413700431585312 0.6552795171737671
0.6103023886680603 -0.06438177078962326 0.6552795171737671
0.6139879822731018 -0.06819841265678406 0.6568940281867981
0.6161056756973267 -0.07031869143247604 0.6577771306037903
0.6217431426048279 -0.068729929625988 0.6556129455566406
0.619005560874939 -0.07382794469594955 0.6593630909919739
0.6193556189537048 -0.07459103316068649 0.6597665548324585
0.6192595958709717 -0.08088377863168716 0.6637123227119446
0.5521549582481384 -0.02205834724009037 0.6399965882301331
0.5533239245414734 -0.02521648444235325 0.6417296528816223
0.553521454334259 -0.026654670014977455 0.642588198184967
0.5537179708480835 -0.028085127472877502 0.6434425115585327
0.5555145144462585 -0.028033563867211342 0.643035352230072
0.5582369565963745 -0.026107298210263252 0.6412621736526489
0.5609907507896423 -0.024158377200365067 0.6394672393798828
0.5565583109855652 -0.03837813436985016 0.6492919325828552
0.5569227337837219 -0.04111023619771004 0.6509256362915039
0.557846188545227 -0.042710307985544205 0.651734471321106
0.5583800077438354 -0.04672326147556305 0.6541345715522766
0.5600540041923523 -0.04682338982820511 0.6538478136062622
0.5620844960212708 -0.046251412481069565 0.6530661582946777
0.5658558011054993 -0.0457020178437233 0.6519358158111572
0.5748106241226196 -0.0453905388712883 0.6498730182647705
0.5769797563552856 -0.044678691774606705 0.6489746570587158
0.5788186192512512 -0.04457084462046623 0.64852374792099
0.5850765109062195 -0.043020524084568024 0.6462482810020447
0.5861875414848328 -0.04265771061182022 0.6457891464233398
0.588055431842804 -0.04255354031920433 0.6453343033790588
0.5934110283851624 -0.04423026368021965 0.6452663540840149
0.5944397449493408 -0.04554004594683647 0.6458713412284851
0.5957077741622925 -0.04644468054175377 0.6461732387542725
0.5983341932296753 -0.049557626247406006 0.6475735306739807
0.598767876625061 -0.05031941086053848 0.6479600071907043
0.6016713380813599 -0.05433838814496994 0.6498693227767944
0.6041008830070496 -0.0575902946293354 0.6513974666595459
0.6045193672180176 -0.05833626538515091 0.6517771482467651
0.6082753539085388 -0.062217827886343 0.6534231305122375
0.6118099689483643 -0.06632070243358612 0.6552534699440002
0.6122717261314392 -0.06696054339408875 0.6555573344230652
0.6186527013778687 -0.07199428230524063 0.6573764681816101
0.6204319000244141 -0.07076192647218704 0.6562342047691345
0.6193532347679138 -0.07603109627962112 0.6597570180892944
0.6200747489929199 -0.07627160102128983 0.6597570180892944
0.6221137046813965 -0.08202728629112244 0.6629339456558228
0.624491810798645 -0.08242332190275192 0.6626858711242676
0.6261235475540161 -0.08262868225574493 0.6624736189842224
0.6284596920013428 -0.08309052884578705 0.6622754335403442
0.5516212582588196 -0.02329975925385952 0.6399158835411072
0.5518243312835693 -0.024748729541897774 0.6407831311225891
0.5527909994125366 -0.02644428238272667 0.6416450142860413
0.5566343665122986 -0.027678880840539932 0.6416158676147461
0.5593697428703308 -0.025745771825313568 0.6398300528526306
0.5558460354804993 -0.03818124905228615 0.6483744978904724
0.5575015544891357 -0.045204050838947296 0.6524369120597839
0.5576807260513306 -0.04653611406683922 0.6532363295555115
0.5578586459159851 -0.04786079004406929 0.6540303826332092
0.558592677116394 -0.04810548201203346 0.6540303826332092
0.5594671368598938 -0.048080924898386 0.6538321375846863
0.564265251159668 -0.047189414501190186 0.6522681713104248
0.5652879476547241 -0.046903423964977264 0.6518747806549072
0.5662610530853271 -0.04671374335885048 0.6515520811080933
0.5687971115112305 -0.046873025596141815 0.6511212587356567
0.5705638527870178 -0.04684736952185631 0.6507353782653809
0.5721915364265442 -0.04708219692111015 0.6505419611930847
0.5750470161437988 -0.04670070856809616 0.6497048735618591
0.5761287212371826 -0.04634777456521988 0.649257481098175
0.5801417231559753 -0.04553256928920746 0.6479052305221558
0.5830879807472229 -0.04506862536072731 0.6469974517822266
0.5841913223266602 -0.04471002519130707 0.6465415954589844
0.5871631503105164 -0.04424149915575981 0.6456255912780762
0.5942185521125793 -0.04607367515563965 0.6452994346618652
0.599565327167511 -0.05211617425084114 0.6479740738868713
0.6003143787384033 -0.05236586928367615 0.6479740738868713
0.6020543575286865 -0.05533159524202347 0.649471640586853
0.6032429933547974 -0.056298404932022095 0.6498299241065979
0.6061888337135315 -0.060101769864559174 0.6516010165214539
0.609636664390564 -0.06440194696187973 0.6535794734954834
0.6103718280792236 -0.06464701145887375 0.6535794734954834
0.613398015499115 -0.06812535226345062 0.6551300883293152
0.6143152117729187 -0.0693979561328888 0.6557371616363525
0.6147240400314331 -0.07010189443826675 0.6560932993888855
0.6166699528694153 -0.07244666665792465 0.6571580767631531
0.6181085705757141 -0.07421088963747025 0.6579649448394775
0.6167900562286377 -0.08222740143537521 0.6632735133171082
0.6184767484664917 -0.08233983814716339 0.662991464138031
0.6200336217880249 -0.08263310045003891 0.6628496646881104
0.6272962689399719 -0.0836421474814415 0.6619632244110107
0.628010630607605 -0.08388028293848038 0.6619632244110107
0.5510897636413574 -0.024536587297916412 0.6398360729217529
0.5527665615081787 -0.03028831258416176 0.64310622215271
0.5562412142753601 -0.02860277332365513 0.6413151621818542
0.5589887499809265 -0.026641225442290306 0.6395026445388794
0.5555059313774109 -0.04072289168834686 0.6491028666496277
0.5556919574737549 -0.04207843914628029 0.6499171853065491
0.5558770895004272 -0.043427158147096634 0.6507278084754944
0.5567994713783264 -0.04501501843333244 0.6515344381332397
0.5573391914367676 -0.04899431765079498 0.6539267897605896
0.5609011054039001 -0.04876991733908653 0.6530377864837646
0.5626503825187683 -0.04873267188668251 0.6526473164558411
0.5646639466285706 -0.04820849001407623 0.6518940329551697
0.567307710647583 -0.04815005511045456 0.6513025760650635
0.5681895017623901 -0.048133134841918945 0.6511065363883972
0.5708351731300354 -0.04809660464525223 0.6505286693572998
0.5724604725837708 -0.04833162948489189 0.6503347158432007
0.5742327570915222 -0.04830784723162651 0.6499481797218323
0.5760263800621033 -0.04825413227081299 0.6495376825332642
0.5781919956207275 -0.04755328968167305 0.6486417055130005
0.5803702473640442 -0.046848099678754807 0.6477401256561279
0.5822136998176575 -0.04674370586872101 0.6472878456115723
0.5843908190727234 -0.046072520315647125 0.6464076042175293
0.5862038135528564 -0.046042300760746 0.6460080742835999
0.5882701277732849 -0.0455901175737381 0.6452893614768982
0.5903463959693909 -0.04513557627797127 0.6445673704147339
0.5933268070220947 -0.04621465131640434 0.6446216702461243
0.5957762598991394 -0.04815927892923355 0.6453321576118469
0.5962806344032288 -0.048816975206136703 0.6456403136253357
0.6011067032814026 -0.054153766483068466 0.6479883790016174
0.6040626168251038 -0.05800635740160942 0.6497941017150879
0.6082240343093872 -0.06265928596258163 0.6518503427505493
0.6112145185470581 -0.06624485552310944 0.6534806489944458
0.6144933104515076 -0.0706208348274231 0.6555484533309937
0.6174430847167969 -0.07407686114311218 0.6571056842803955
0.6140178442001343 -0.0825943574309349 0.6631892323493958
0.6235775351524353 -0.0840376615524292 0.6620911359786987
0.6243909001350403 -0.08414043486118317 0.6619850397109985
0.6260195374488831 -0.08434655517339706 0.661773145198822
0.6283721923828125 -0.08478022366762161 0.6615524291992188
0.5507656931877136 -0.0272043589502573 0.640619695186615
0.551731288433075 -0.0288865827023983 0.6414793133735657
0.5519325137138367 -0.03030579537153244 0.6423335671424866
0.5542669892311096 -0.030951213091611862 0.6422498226165771
0.5556236505508423 -0.029985135421156883 0.6413533687591553
0.5583609938621521 -0.02803625725209713 0.6395459771156311
0.5538598299026489 -0.03891380503773689 0.6473655700683594
0.5546069145202637 -0.03916287049651146 0.6473655700683594
0.5553568601608276 -0.044579293578863144 0.6506296992301941
0.5562789440155029 -0.046160757541656494 0.6514343023300171
0.5568220615386963 -0.05012330040335655 0.6538232564926147
0.5581207871437073 -0.05092479661107063 0.6540563106536865
0.5592660307884216 -0.050376348197460175 0.6534687280654907
0.5603105425834656 -0.05002642795443535 0.6530277132987976
0.5620093941688538 -0.050076745450496674 0.6527014970779419
0.573612630367279 -0.04956640303134918 0.6499355435371399
0.5784227848052979 -0.04885905981063843 0.6484761238098145
0.5802469253540039 -0.04877131059765816 0.6480367183685303
0.5813026428222656 -0.048481058329343796 0.6476303935050964
0.5823413729667664 -0.048224497586488724 0.6472499370574951
0.5851349234580994 -0.04803008586168289 0.646539032459259
0.5871904492378235 -0.04758403077721596 0.6458242535591125
0.5882219076156616 -0.04736047610640526 0.6454658508300781
0.5900086164474487 -0.04738719016313553 0.6451066136360168
0.59654700756073 -0.05002891272306442 0.6453984379768372
0.6026601195335388 -0.056152354925870895 0.6479797959327698
0.6039992570877075 -0.05828266963362694 0.649043619632721
0.6069695949554443 -0.06201508641242981 0.6507758498191833
0.6090611219406128 -0.0642857626080513 0.6517696380615234
0.6119123697280884 -0.06804300099611282 0.6535429358482361
0.6126443147659302 -0.06828698515892029 0.6535429358482361
0.6138597130775452 -0.07042914628982544 0.6546403765678406
0.6153926849365234 -0.07209085673093796 0.6553674936294556
0.6128015518188477 -0.08325249701738358 0.6629647612571716
