ply
format ascii 1.0
element vertex 827
property float x
property float y
property float z
end_header
0.5606335401535034 0.04315604269504547 0.6619129180908203
0.556247889995575 0.04604828730225563 0.660827100276947
0.5560556650161743 0.048344869166612625 0.6623571515083313
0.5548136830329895 0.05441266670823097 0.6658658981323242
0.5540404915809631 0.058413438498973846 0.668212890625
0.5527409315109253 0.06028334051370621 0.6686274409294128
0.5503910183906555 0.06650412827730179 0.6714419722557068
0.5495885610580444 0.0702572762966156 0.673587441444397
0.5499051213264465 0.07201267778873444 0.6750940680503845
0.5509481430053711 0.07439296692609787 0.6775831580162048
0.5442664623260498 0.08220165222883224 0.6784026026725769
0.5422185659408569 0.08401214331388474 0.6782300472259521
0.5389499664306641 0.08692416548728943 0.6779706478118896
0.5376973152160645 0.08799827098846436 0.6778408288955688
0.5327784419059753 0.08970706909894943 0.6755067706108093
0.5257367491722107 0.08999168872833252 0.670593798160553
0.581835925579071 0.014204469509422779 0.65544593334198
0.580482006072998 0.020188331604003906 0.6588220000267029
0.5786645412445068 0.020633015781641006 0.6578210592269897
0.5762966275215149 0.02228425443172455 0.6572983264923096
0.5749146938323975 0.02427804283797741 0.6577444672584534
0.5747873783111572 0.032426029443740845 0.6635929346084595
0.5740934610366821 0.03605272248387337 0.6657313704490662
0.574021577835083 0.03685101121664047 0.6662609577178955
0.5730510950088501 0.040069032460451126 0.6678998470306396
0.5690561532974243 0.042311374098062515 0.6666219234466553
0.564344048500061 0.042966995388269424 0.6636641621589661
0.5592272877693176 0.04415423050522804 0.6607987880706787
0.5563098788261414 0.04859938845038414 0.6619128584861755
0.5559040904045105 0.0490051805973053 0.6619128584861755
0.5556522607803345 0.052025482058525085 0.6639314889907837
0.5544240474700928 0.058006759732961655 0.6673973798751831
0.553967297077179 0.059133220463991165 0.6678855419158936
0.552247166633606 0.06214854493737221 0.6688300371170044
0.5512252449989319 0.06425837427377701 0.6696231961250305
0.5503649711608887 0.06800398230552673 0.6717270612716675
0.5503429770469666 0.06873199343681335 0.6722419261932373
0.5504339933395386 0.07030107825994492 0.6734525561332703
0.5501898527145386 0.07155781984329224 0.6741908192634583
0.5506585240364075 0.07270870357751846 0.6753717064857483
0.5421976447105408 0.08473161607980728 0.6779690980911255
0.5418145656585693 0.08511479198932648 0.6779690980911255
0.5385140180587769 0.08800029754638672 0.6776664853096008
0.5310043096542358 0.08981361240148544 0.6735127568244934
0.5306147336959839 0.09020306915044785 0.6735127568244934
0.5254083871841431 0.09050193428993225 0.6699343323707581
0.5825064778327942 0.018004998564720154 0.6578806638717651
0.5753681063652039 0.025729753077030182 0.6583094000816345
0.5755707621574402 0.026923909783363342 0.6593309640884399
0.574127197265625 0.03868906572461128 0.6668784618377686
0.5718072652816772 0.042021721601486206 0.6676188707351685
0.5687462091445923 0.042778030037879944 0.6659336090087891
0.5622324347496033 0.04400995001196861 0.6620712876319885
0.5615168809890747 0.04407554492354393 0.6615959405899048
0.5583319664001465 0.04486536607146263 0.6598445773124695
0.5578335523605347 0.045177072286605835 0.6597080826759338
0.5570323467254639 0.046009890735149384 0.6597312688827515
0.5560944676399231 0.0500180684030056 0.6619762778282166
0.556030809879303 0.0507739782333374 0.6624825596809387
0.5548542737960815 0.05605459213256836 0.6654836535453796
0.5541571378707886 0.060107458382844925 0.6679374575614929
0.552121639251709 0.06434860080480576 0.6695502996444702
0.5511001944541931 0.07602532207965851 0.677341639995575
0.550506055355072 0.0783676952123642 0.6786200404167175
0.548396110534668 0.08010624349117279 0.6783485412597656
0.5450524687767029 0.08292848616838455 0.6779674291610718
0.5357708930969238 0.08935794979333878 0.6758817434310913
0.5287943482398987 0.09029579907655716 0.671466052532196
0.5829066038131714 0.010472619906067848 0.6518232226371765
0.5833695530891418 0.020078957080841064 0.6592068076133728
0.5805677771568298 0.02109348587691784 0.6578962802886963
0.5760006904602051 0.029257386922836304 0.6605337858200073
0.5759239196777344 0.03008045069873333 0.6610812544822693
0.5751428604125977 0.03455148637294769 0.6637871265411377
0.5744489431381226 0.03814838081598282 0.6659157872200012
0.5721307992935181 0.0423588789999485 0.6673035025596619
0.5626713037490845 0.04446752741932869 0.6619130373001099
0.5561569333076477 0.0525304414331913 0.6630485653877258
0.554103434085846 0.06162136420607567 0.6682091951370239
0.5467854738235474 0.0823042020201683 0.6780098080635071
0.5462738275527954 0.08257952332496643 0.6778364777565002
0.544647753238678 0.08402938395738602 0.6777071952819824
0.5421890020370483 0.08619373291730881 0.6774913668632507
0.5401427149772644 0.08800427615642548 0.6773185133934021
0.5376839637756348 0.09018015116453171 0.6771111488342285
0.5336342453956604 0.08984988182783127 0.6738991141319275
0.5309249758720398 0.08988291025161743 0.6719366908073425
0.530534565448761 0.09027335047721863 0.6719366908073425
0.5277615189552307 0.0902937725186348 0.6699182391166687
0.5836596488952637 0.008370802737772465 0.6499870419502258
0.5787107348442078 0.022364886477589607 0.6566386222839355
0.5764597654342651 0.024168025702238083 0.6563091278076172
0.575840175151825 0.026194635778665543 0.6573439240455627
0.5761776566505432 0.030336158350110054 0.6606377363204956
0.575620174407959 0.03237621486186981 0.661728024482727
0.5749186277389526 0.03600939363241196 0.6638837456703186
0.5741553902626038 0.04037541151046753 0.6665332317352295
0.5670380592346191 0.04419161006808281 0.6641057729721069
0.5663377642631531 0.04425683990120888 0.6636387705802917
0.5656351447105408 0.04432239383459091 0.6631700992584229
0.5581598877906799 0.04633478447794914 0.6591528654098511
0.5558806657791138 0.05467616021633148 0.6636109352111816
0.5552331209182739 0.0580240860581398 0.6655966639518738
0.5545349717140198 0.06204555183649063 0.6680405735969543
0.5526490211486816 0.06639547646045685 0.6698524355888367
0.5525697469711304 0.06707870215177536 0.6702967286109924
0.5524126291275024 0.06843911856412888 0.6711815595626831
0.5521440505981445 0.07043244689702988 0.6724498867988586
0.5524223446846008 0.07216158509254456 0.6739261746406555
0.552179753780365 0.07341008633375168 0.6746658682823181
0.5521255135536194 0.07409118115901947 0.6751267910003662
0.5520179271697998 0.07544645667076111 0.676044225692749
0.551423966884613 0.07851243764162064 0.677862286567688
0.5479648113250732 0.08192502707242966 0.6778280138969421
0.5384918451309204 0.09017478674650192 0.6769284605979919
0.5348933935165405 0.08949515223503113 0.6737823486328125
0.5285671949386597 0.09026449173688889 0.6696961522102356
0.5836191177368164 0.004018989857286215 0.6458985209465027
0.5849940776824951 0.020192977041006088 0.6588401198387146
0.5828669667243958 0.02114272117614746 0.6579719185829163
0.5806719660758972 0.02202400006353855 0.6570031046867371
0.5778722167015076 0.02308700978755951 0.6557222604751587
0.5771781802177429 0.02408059686422348 0.6559433937072754
0.5761096477508545 0.02646971121430397 0.6569170355796814
0.5765088796615601 0.029769573360681534 0.6596450805664062
0.5762770175933838 0.03222677484154701 0.6612861752510071
0.5710528492927551 0.04360617324709892 0.665825366973877
0.5706549286842346 0.044003937393426895 0.665825366973877
0.5699491500854492 0.044049348682165146 0.6653382182121277
0.5610315203666687 0.04602330923080444 0.6602177023887634
0.5603232979774475 0.04610361531376839 0.6597545742988586
0.5575327277183533 0.048171233385801315 0.6592214703559875
0.5567257404327393 0.05228610336780548 0.6616608500480652
0.5561954379081726 0.05418426916003227 0.6626695394515991
0.5560063719749451 0.05640628561377525 0.664168655872345
0.5547826290130615 0.06229281425476074 0.6676074862480164
0.554269552230835 0.0641176700592041 0.6685746908187866
0.5526670217514038 0.07018618285655975 0.6718683242797852
0.551874577999115 0.07607034593820572 0.6756231784820557
0.5507999062538147 0.08013490587472916 0.6778281331062317
0.5483565330505371 0.08228977024555206 0.6776155233383179
0.5462273955345154 0.08401455730199814 0.6773171424865723
0.5324973464012146 0.08980977535247803 0.6714656949043274
0.5266108512878418 0.09028154611587524 0.6674724221229553
0.5822134613990784 0.022093992680311203 0.6573657393455505
0.5788154006004333 0.02329767681658268 0.6557429432868958
0.5759636759757996 0.02808190882205963 0.6571720838546753
0.5766853094100952 0.03084772452712059 0.6597511768341064
0.5759730935096741 0.03450562432408333 0.6619296669960022
0.5747254490852356 0.04008952155709267 0.6651365160942078
0.5742737054824829 0.0421619638800621 0.6663351058959961
0.5683088898658752 0.04471058398485184 0.6638086438179016
0.5651457905769348 0.0454229861497879 0.6619961261749268
0.5626458525657654 0.046064343303442 0.660621702671051
0.5571747422218323 0.05027729645371437 0.6596912145614624
0.556256890296936 0.0566568449139595 0.6637305617332458
0.5558568835258484 0.05705695599317551 0.6637305617332458
0.5552117228507996 0.06037677079439163 0.6657086610794067
0.5542891621589661 0.06644097715616226 0.6695109605789185
0.5521153211593628 0.07631020247936249 0.6752021908760071
0.5520079731941223 0.07765348255634308 0.6761162281036377
0.5445808172225952 0.08617883920669556 0.6769283413887024
0.5400840640068054 0.09014936536550522 0.6765392422676086
0.5376542806625366 0.09234090894460678 0.6763629913330078
0.5314713716506958 0.0897965058684349 0.6699087619781494
0.5301750302314758 0.09020612388849258 0.6692529320716858
0.5283402800559998 0.09023408591747284 0.6679167747497559
0.584153950214386 0.021755725145339966 0.6577261686325073
0.5801783800125122 0.023113306611776352 0.6557846069335938
0.5781382322311401 0.02423252910375595 0.6551014184951782
0.5768317580223083 0.02631709724664688 0.6556785106658936
0.5761900544166565 0.028302328661084175 0.6566749811172485
0.5762249231338501 0.03475923463702202 0.6614896655082703
0.576148509979248 0.03556421771645546 0.6620299220085144
0.5760725736618042 0.03636620193719864 0.6625683307647705
0.5755217671394348 0.03836066275835037 0.6636390686035156
0.5730330944061279 0.04411006718873978 0.6660574078559875
0.5725982785224915 0.04446137323975563 0.6659953594207764
0.5652399063110352 0.04634791612625122 0.6619373559951782
0.5585103631019592 0.04833880811929703 0.6584230065345764
0.5566989183425903 0.054688092321157455 0.6617884039878845
0.5560446977615356 0.05804145708680153 0.663790225982666
0.5547631978988647 0.06461047381162643 0.6677115559577942
0.5540775656700134 0.06852792203426361 0.670108437538147
0.5529053807258606 0.07413329929113388 0.6733962893486023
0.5521944761276245 0.07856051623821259 0.6761524081230164
0.5384349822998047 0.09231431782245636 0.6761482357978821
0.5322704315185547 0.08976779878139496 0.6696876883506775
0.5263121724128723 0.09020531922578812 0.6655934453010559
0.5259153842926025 0.09060215950012207 0.6655934453010559
0.5856409668922424 0.002404279774054885 0.6436130404472351
0.5845004320144653 0.022139640524983406 0.6574428081512451
0.5771137475967407 0.03217644244432449 0.6594138741493225
0.5750763416290283 0.04215777665376663 0.6653220057487488
0.5688915252685547 0.0461554192006588 0.6636952757835388
0.5675156712532043 0.046308036893606186 0.6627855896949768
0.5661364793777466 0.046467605978250504 0.6618785262107849
0.5580887794494629 0.050380438566207886 0.6588031053543091
0.5575500726699829 0.05229444429278374 0.6598260998725891
0.5561691522598267 0.05975079536437988 0.6643445491790771
0.5561068654060364 0.06047673150897026 0.6648381352424622
0.555586576461792 0.06231694668531418 0.6658198237419128
0.5543805956840515 0.06807249039411545 0.6692034602165222
0.5542061924934387 0.07016376405954361 0.67062908411026
0.5524879097938538 0.07813135534524918 0.6752771139144897
0.5486839413642883 0.08407264947891235 0.6768666505813599
0.5461897850036621 0.08618620783090591 0.6765836477279663
0.5392528176307678 0.0923166498541832 0.675983726978302
0.530312180519104 0.08975649625062943 0.6674302220344543
0.5868244767189026 0.01034380029886961 0.6495510935783386
0.5860215425491333 0.02220887318253517 0.6578018069267273
0.5820719003677368 0.023564781993627548 0.655867338180542
0.5804704427719116 0.024294119328260422 0.6552167534828186
0.577054500579834 0.028336456045508385 0.6556839942932129
0.5766512751579285 0.036070358008146286 0.6611514687538147
0.5760971903800964 0.03806954622268677 0.6622294783592224
0.57587069272995 0.04044293612241745 0.6638306379318237
0.5745030045509338 0.044029220938682556 0.6654853820800781
0.5725570321083069 0.046045731753110886 0.6655378341674805
0.5718750953674316 0.04611387103796005 0.665080189704895
0.563448965549469 0.04771615192294121 0.659990668296814
0.5630456209182739 0.048119544982910156 0.659990668296814
0.5616410374641418 0.04828619584441185 0.6590673923492432
0.5592901110649109 0.0491337813436985 0.6579460501670837
0.5570729374885559 0.05667205527424812 0.6619147658348083
0.5551363825798035 0.0665193498134613 0.667815089225769
0.5539457201957703 0.07217635959386826 0.6711462140083313
0.553221583366394 0.07664553821086884 0.6739394068717957
0.5522378087043762 0.08008395880460739 0.6757701635360718
0.5521844625473022 0.08074619621038437 0.676224410533905
0.5445466041564941 0.08834581077098846 0.6761959195137024
0.5425114035606384 0.09014929085969925 0.676023006439209
0.5420975685119629 0.0905052050948143 0.675979733467102
0.5416834950447083 0.0908612608909607 0.6759364604949951
0.5400691628456116 0.09231904149055481 0.6758198142051697
0.5320180058479309 0.08970775455236435 0.6678672432899475
0.5288287401199341 0.09010689705610275 0.6657863855361938
0.5259218811988831 0.09006460011005402 0.6635866761207581
0.5875940918922424 0.008245357312262058 0.6477081775665283
0.5782985091209412 0.026109931990504265 0.6541173458099365
0.5769906640052795 0.030047548934817314 0.6560843586921692
0.5770584940910339 0.03471360728144646 0.6596250534057617
0.5763477087020874 0.03832155093550682 0.6617918014526367
0.5761196613311768 0.04069343954324722 0.663395345211029
0.5703409314155579 0.0468810573220253 0.6637011170387268
0.5660730600357056 0.048034295439720154 0.6613715291023254
0.565371572971344 0.04810656979680061 0.6609011292457581
0.5589110255241394 0.05038796365261078 0.6577751636505127
0.5581236481666565 0.052049338817596436 0.6584287881851196
0.5579229593276978 0.05429737642407417 0.6599600911140442
0.556859016418457 0.058058954775333405 0.6619778871536255
0.556667685508728 0.060249004513025284 0.6634728908538818
0.556144654750824 0.06209303066134453 0.6644608378410339
0.5559587478637695 0.0642436072230339 0.6659303307533264
0.5546935796737671 0.0706501379609108 0.6697758436203003
0.5541887283325195 0.07241860032081604 0.6707208752632141
0.5536872148513794 0.07417523115873337 0.6716597676277161
0.552316427230835 0.08230088651180267 0.6767120957374573
0.5503054261207581 0.08410457521677017 0.6765570640563965
0.5436981916427612 0.08976845443248749 0.6758513450622559
0.5388243794441223 0.09411244839429855 0.6754552125930786
0.529899001121521 0.08958493918180466 0.6653929948806763
0.5275449752807617 0.08993025869131088 0.6638907194137573
0.5255656838417053 0.08987980335950851 0.6623725891113281
0.5879496932029724 0.006550519727170467 0.6458494663238525
0.5882816910743713 0.02225390449166298 0.6578770279884338
0.5843605995178223 0.023605505004525185 0.6559496521949768
0.5839527249336243 0.02401324175298214 0.6559496521949768
0.5799766778945923 0.025385499000549316 0.6539967060089111
0.5790149569511414 0.026022085919976234 0.653752863407135
0.5772166848182678 0.030267657712101936 0.6555885076522827
0.5758954882621765 0.04212551191449165 0.6634917259216309
0.5741716027259827 0.04613225907087326 0.6652039289474487
0.568397581577301 0.048052188009023666 0.6623131036758423
0.564501941204071 0.04881663993000984 0.6599646210670471
0.560219943523407 0.05008701607584953 0.657705545425415
0.5581750273704529 0.05454971268773079 0.6595190763473511
0.556205689907074 0.064490407705307 0.6654981374740601
0.5551756024360657 0.06810548901557922 0.667436957359314
0.5543159246444702 0.07403002679347992 0.6712358593940735
0.553263247013092 0.07817966490983963 0.6735588312149048
0.5485603213310242 0.086171455681324 0.6760256886482239
0.5481485724449158 0.08652562648057938 0.6759825944900513
0.5477686524391174 0.0869055837392807 0.6759825944900513
0.5461203455924988 0.08832365274429321 0.6758099794387817
0.5305302739143372 0.0894266739487648 0.6649436354637146
0.528179407119751 0.08977112174034119 0.6634387969970703
0.526203453540802 0.08971981704235077 0.6619182825088501
0.5887312293052673 0.004414701368659735 0.6439716219902039
0.5842993855476379 0.024395732209086418 0.6556675434112549
0.5803279876708984 0.025769708678126335 0.6537138819694519
0.5780467391014099 0.0284628514200449 0.6540234684944153
0.5781264305114746 0.033196888864040375 0.6576443910598755
0.5780461430549622 0.03400919586420059 0.6581951379776001
0.5774838924407959 0.03602703660726547 0.6592899560928345
0.5766943097114563 0.0404077023267746 0.6619910001754761
0.5761440396308899 0.04237557575106621 0.6630574464797974
0.5709884166717529 0.04839492216706276 0.6637071371078491
0.5682328939437866 0.04868458956480026 0.6618523597717285
0.5625266432762146 0.0500180721282959 0.6585631966590881
0.561837375164032 0.05011802911758423 0.6581199169158936
0.5589604377746582 0.05207411199808121 0.657427191734314
0.5566413998603821 0.06258929520845413 0.6635922193527222
0.5547330975532532 0.07221542298793793 0.6693974733352661
0.5540568828582764 0.07601580768823624 0.6717473864555359
0.5540001392364502 0.07669132947921753 0.6722127199172974
0.5528461337089539 0.08211760222911835 0.6754262447357178
0.5505595803260803 0.08508829772472382 0.675940752029419
0.5497691631317139 0.08582139760255814 0.6758979558944702
0.5424710512161255 0.09229732304811478 0.6752793192863464
0.5404160618782043 0.09408508241176605 0.6750784516334534
0.5257066488265991 0.08943305164575577 0.6605151295661926
0.586230993270874 0.02405761368572712 0.6560384035110474
0.5806789398193359 0.026153400540351868 0.653431236743927
0.5785263180732727 0.028070319443941116 0.6532536149024963
0.577724039554596 0.029848257079720497 0.6539893746376038
0.5782987475395203 0.034263718873262405 0.657753586769104
0.5778948068618774 0.034667741507291794 0.657753586769104
0.5771763324737549 0.03828226029872894 0.6599382758140564
0.5762416124343872 0.04418228939175606 0.6636835932731628
0.5761665105819702 0.04495641961693764 0.6642107367515564
0.5738059282302856 0.04818541929125786 0.6648659110069275
0.5651755332946777 0.050341684371232986 0.6599823236465454
0.5582097172737122 0.056199200451374054 0.659146249294281
0.5580765008926392 0.057675786316394806 0.660159707069397
0.5580102801322937 0.05841018632054329 0.6606637835502625
0.557479977607727 0.060269929468631744 0.6616663932800293
0.5562431812286377 0.06608819961547852 0.6651222705841064
0.5561196208000183 0.0675007551908493 0.6660946011543274
0.5560580492019653 0.06820344924926758 0.6665782332420349
0.5501545667648315 0.08617880940437317 0.6756840944290161
0.528422474861145 0.08870590478181839 0.6611975431442261
0.5260471105575562 0.08905722945928574 0.659670889377594
0.5250877737998962 0.08905937522649765 0.6589488983154297
0.5898752212524414 0.008008820004761219 0.645825207233429
0.5865944623947144 0.02446538209915161 0.6557918787002563
0.5826354026794434 0.02581225149333477 0.6538158059120178
0.5822264552116394 0.026221036911010742 0.6538158059120178
0.5780119895935059 0.03014708310365677 0.6535976529121399
0.5778305530548096 0.030846253037452698 0.6539892554283142
0.5767175555229187 0.042093321681022644 0.661655068397522
0.5745369791984558 0.0481429360806942 0.6645817756652832
0.5724222660064697 0.04910903424024582 0.6637129783630371
0.5688893795013428 0.05019780620932579 0.6618640422821045
0.5675046443939209 0.050348468124866486 0.6609305143356323
0.5661166906356812 0.05050622671842575 0.6599999666213989
0.5606397986412048 0.052150119096040726 0.6571005582809448
0.5590003728866577 0.0545622855424881 0.6576852202415466
0.5570103526115417 0.06451794505119324 0.6637105941772461
0.5557896494865417 0.0702359601855278 0.6671124696731567
0.555101215839386 0.07407190650701523 0.6694933176040649
0.5540403723716736 0.0782276913523674 0.671834409236908
0.5538706183433533 0.08022952824831009 0.6732205152511597
0.5485183000564575 0.08832873404026031 0.6752982139587402
0.5440787672996521 0.09229335188865662 0.674938976764679
0.5420402884483337 0.09408638626337051 0.6747532486915588
0.5395690202713013 0.09622572362422943 0.6745023727416992
0.5280636548995972 0.08851084858179092 0.6599634885787964
0.5912649035453796 0.018184633925557137 0.6537401676177979
0.5891165733337402 0.02400287240743637 0.6565239429473877
0.5781320929527283 0.03208865225315094 0.6543250679969788
0.578238844871521 0.0367874838411808 0.6579705476760864
0.5781588554382324 0.03758840262889862 0.6585173606872559
0.5780788064002991 0.03838616609573364 0.659061849117279
0.5761909484863281 0.04661799967288971 0.6638740301132202
0.5760198831558228 0.047272391617298126 0.6642407178878784
0.5725441575050354 0.05005624517798424 0.6637158989906311
0.5718643069267273 0.050130609422922134 0.6632565855979919
0.5631588101387024 0.052305106073617935 0.6583024859428406
0.5624731183052063 0.05240815132856369 0.6578603982925415
0.5585781931877136 0.05817742273211479 0.6592822670936584
0.558044970035553 0.06004108116030693 0.6602914929389954
0.5578479170799255 0.06221675127744675 0.6617923378944397
0.5565486550331116 0.06869309395551682 0.6657196283340454
0.5560340881347656 0.07047996670007706 0.6666846871376038
0.5555229783058167 0.07225465029478073 0.6676432490348816
0.5541667342185974 0.07980324327945709 0.672340452671051
0.5541098713874817 0.08046788722276688 0.6728015542030334
0.5536160469055176 0.08217116445302963 0.6737191081047058
0.5403817892074585 0.09622425585985184 0.6743402481079102
0.5219142436981201 0.08410445600748062 0.65113765001297
0.5915148258209229 0.0081217922270298 0.6454394459724426
0.5913139581680298 0.0140758715569973 0.6498159766197205
0.5916262865066528 0.01657983474433422 0.6519583463668823
0.5906373262405396 0.02410036511719227 0.6569269299507141
0.5888938903808594 0.024563433602452278 0.6559528708457947
0.5851485729217529 0.026155563071370125 0.6543148756027222
0.5845572352409363 0.026313185691833496 0.6539851427078247
0.580186128616333 0.028117656707763672 0.6520326733589172
0.5783359408378601 0.03228069469332695 0.6537919640541077
0.577770471572876 0.04062367603182793 0.6597083806991577
0.5770613551139832 0.04415388032793999 0.6618543267250061
0.576032280921936 0.048099227249622345 0.6640728712081909
0.5741285085678101 0.05013830587267876 0.6641757488250732
0.5703344941139221 0.05090862512588501 0.6618756651878357
0.5668428540229797 0.05208456888794899 0.6601141095161438
0.566167950630188 0.05218648165464401 0.6596782207489014
0.5654910206794739 0.05228866636753082 0.6592410802841187
0.5602273344993591 0.054173123091459274 0.6566704511642456
0.5590692162513733 0.05625063553452492 0.6573697924613953
0.5582950115203857 0.060290995985269547 0.6598543524742126
0.5580965876579285 0.06246525049209595 0.6613575220108032
0.5570464134216309 0.06611824780702591 0.6633373498916626
0.5563401579856873 0.0700279250741005 0.6657742857933044
0.556155800819397 0.07210861891508102 0.6672168970108032
0.5550808310508728 0.07630141824483871 0.6695886850357056
0.5544062852859497 0.08004191517829895 0.6719210743904114
0.5525040626525879 0.08616414666175842 0.6751310229301453
0.5500781536102295 0.08830670267343521 0.6749154925346375
0.5480589866638184 0.09009893238544464 0.6747428774833679
0.5232294797897339 0.0844196304678917 0.6515346765518188
0.591886579990387 0.0064279972575604916 0.6435718536376953
0.5861021876335144 0.02640470676124096 0.654398500919342
0.5809788107872009 0.02813197672367096 0.6518078446388245
0.5798135995864868 0.029443776234984398 0.6519196033477783
0.5793090462684631 0.035281576216220856 0.6559879779815674
0.5786610841751099 0.038094110786914825 0.6576393842697144
0.5780996680259705 0.040084872394800186 0.6587297916412354
0.5764027833938599 0.048490919172763824 0.6638478636741638
0.5756515860557556 0.0493176206946373 0.6639055013656616
0.569139838218689 0.052069298923015594 0.6610369682312012
0.557817280292511 0.06454545259475708 0.6619170904159546
0.5558890104293823 0.07411392033100128 0.6677454710006714
0.554093062877655 0.08264609426259995 0.6728842854499817
0.5444273352622986 0.09405998140573502 0.6742178797721863
0.5420027375221252 0.09622129797935486 0.6740170121192932
0.5415856838226318 0.09657256305217743 0.6739667057991028
0.5213958621025085 0.08528782427310944 0.649956226348877
0.592883825302124 0.009944960474967957 0.6461612582206726
0.5930068492889404 0.022375989705324173 0.6557650566101074
0.5929064154624939 0.02419901452958584 0.6570829153060913
0.5901938676834106 0.02521873265504837 0.6557878255844116
0.588042676448822 0.02609066292643547 0.6548091769218445
0.5831316113471985 0.028049925342202187 0.6525511741638184
0.5798146724700928 0.030310971662402153 0.6517431735992432
0.5781113505363464 0.042697153985500336 0.6599156260490417
0.5777133107185364 0.04309505224227905 0.6599156260490417
0.5756645202636719 0.05014095455408096 0.663738489151001
0.5714150667190552 0.05205417051911354 0.6619511246681213
0.5649390816688538 0.054146599024534225 0.6585979461669922
0.5636112093925476 0.05439141020178795 0.6577692627906799
0.5604327917098999 0.05600525066256523 0.6565724015235901
0.5593992471694946 0.058195196092128754 0.6574570536613464
0.558660626411438 0.06224077194929123 0.6599869132041931
0.55813068151474 0.06407732516527176 0.6609864830970764
0.5574118494987488 0.06802426278591156 0.6634560227394104
0.5561317205429077 0.07435601204633713 0.6673204302787781
0.5560103058815002 0.07571910321712494 0.6682702898979187
0.5554450750350952 0.0781312808394432 0.6696832776069641
0.5542184114456177 0.0841938704252243 0.6733828783035278
0.5537833571434021 0.08522464334964752 0.6738384962081909
0.5440222024917603 0.09513990581035614 0.6739563941955566
0.5436061024665833 0.09549041837453842 0.6739062070846558
0.5427731871604919 0.09619192034006119 0.6738057136535645
0.524032711982727 0.08514054119586945 0.6510148048400879
0.587243378162384 0.026823632419109344 0.6539260745048523
0.5840973258018494 0.028303727507591248 0.6526480913162231
0.5823326706886292 0.028809277340769768 0.6516821384429932
0.5804583430290222 0.030132267624139786 0.6512591242790222
0.5791357755661011 0.034936729818582535 0.6539304256439209
0.5793276429176331 0.036999281495809555 0.6556599140167236
0.5786001682281494 0.04058871418237686 0.6578555703163147
0.5776493549346924 0.04644717648625374 0.6616204977035522
0.5763919353485107 0.0500977598130703 0.6634564995765686
0.5745707154273987 0.052218999713659286 0.6636865735054016
0.5739298462867737 0.052331745624542236 0.6632813811302185
0.5719922184944153 0.052667997777462006 0.6620528697967529
0.5679585933685303 0.05405837297439575 0.6600251197814941
0.5673041343688965 0.05417969450354576 0.6596160531044006
0.5642678141593933 0.05506853014230728 0.6579685211181641
0.5581815838813782 0.06646355986595154 0.6620413064956665
0.5569491386413574 0.07214769721031189 0.6654565334320068
0.5558658838272095 0.07634682953357697 0.6678467988967896
0.5550088286399841 0.08208170533180237 0.6715890765190125
0.5524541735649109 0.08831170946359634 0.6744086146354675
0.550442099571228 0.09009894728660583 0.6742361187934875
0.5480180978775024 0.09224158525466919 0.6740201115608215
0.5476083755493164 0.0925949439406395 0.6739768981933594
0.546036422252655 0.09406135976314545 0.6738959550857544
0.5234173536300659 0.08546965569257736 0.6499521732330322
0.5920642614364624 0.02571556158363819 0.6559479832649231
0.5909096002578735 0.02602650783956051 0.6552991271018982
0.579538881778717 0.032615210860967636 0.6516201496124268
0.5794969797134399 0.038054414093494415 0.65577232837677
0.5781320333480835 0.04437510296702385 0.6595849990844727
0.5780531167984009 0.04515146091580391 0.660121500492096
0.5702936053276062 0.05409170687198639 0.6610296964645386
0.5696457028388977 0.05421251058578491 0.6606243252754211
0.563195526599884 0.056391794234514236 0.657338559627533
0.5602357387542725 0.05822860449552536 0.6564746499061584
0.5597626566886902 0.06016247719526291 0.6575984954833984
0.5584943294525146 0.06600018590688705 0.6611138582229614
0.5573832988739014 0.07030866295099258 0.6635737419128418
0.5566791892051697 0.07415606081485748 0.6659919619560242
0.5564942955970764 0.07620154321193695 0.6674232482910156
0.5554238557815552 0.08033176511526108 0.6697771549224854
0.5504166483879089 0.0908038541674614 0.6739815473556519
0.5495989322662354 0.09150920063257217 0.6738951802253723
0.5443853139877319 0.09618917852640152 0.6734846234321594
0.5245078206062317 0.08491121977567673 0.6495157480239868
0.522714376449585 0.08431429415941238 0.6476768851280212
0.520898699760437 0.08370991051197052 0.6458150148391724
0.52048259973526 0.08412586897611618 0.6458150148391724
0.5944709777832031 0.008798914030194283 0.6439251899719238
0.5950705409049988 0.018045321106910706 0.6515213251113892
0.5924198031425476 0.026117898523807526 0.6557042598724365
0.5885671377182007 0.027497518807649612 0.653796374797821
0.5875841379165649 0.02806851826608181 0.6534784436225891
0.584286630153656 0.029341567307710648 0.6519166827201843
0.5821333527565002 0.03028200753033161 0.6509810090065002
0.5800507664680481 0.03227051720023155 0.650908350944519
0.5794486403465271 0.03428373858332634 0.6519970893859863
0.5782220363616943 0.04617373272776604 0.6602237820625305
0.5776709318161011 0.04810551181435585 0.6612889170646667
0.5760924220085144 0.052208010107278824 0.663236141204834
0.5733209848403931 0.054089318960905075 0.6625494956970215
0.5669004321098328 0.05618024989962578 0.6592090725898743
0.565572202205658 0.0564136765897274 0.6583645939826965
0.5649126768112183 0.056538648903369904 0.6579521298408508
0.5600489377975464 0.060448575764894485 0.6572162508964539
0.5589423775672913 0.06410429626703262 0.6591829061508179
0.5582154393196106 0.06805722415447235 0.6616716980934143
0.558150053024292 0.06876114010810852 0.6621642708778381
0.5580200552940369 0.07016174495220184 0.6631447076797485
0.5562279224395752 0.07817929238080978 0.6679474711418152
0.5561676025390625 0.07885100692510605 0.6684191823005676
0.5549890398979187 0.08425057679414749 0.6716757416725159
0.5540003776550293 0.08828980475664139 0.6740291714668274
0.5532160401344299 0.08901826292276382 0.6739860773086548
0.5954481959342957 0.016442783176898956 0.6497328281402588
0.5883750915527344 0.0281022060662508 0.6532812714576721
0.5795320868492126 0.03707185760140419 0.6533790826797485
0.5798335671424866 0.04015277326107025 0.6559960246086121
0.5792689919471741 0.0421319305896759 0.657090425491333
0.5784695744514465 0.046422600746154785 0.6597915887832642
0.5755068063735962 0.054014917463064194 0.6633731126785278
0.5706291198730469 0.05606049671769142 0.661182165145874
0.5699761509895325 0.05617505684494972 0.660765528678894
0.5686643123626709 0.056405097246170044 0.6599287390708923
0.5632136464118958 0.058020059019327164 0.6569610238075256
0.5597254633903503 0.06251437962055206 0.6577394008636475
0.5577450394630432 0.07218699902296066 0.6636907458305359
0.5557844042778015 0.082135409116745 0.6698706150054932
0.554786741733551 0.0882914811372757 0.6738613843917847
0.5527814626693726 0.09007406234741211 0.673689067363739
0.5503654479980469 0.09221106022596359 0.6734732985496521
0.548401951789856 0.09403520822525024 0.6733654737472534
0.595808744430542 0.006305209826678038 0.6413018107414246
0.5958290696144104 0.014825917780399323 0.6479282975196838
0.596383810043335 0.01976681314408779 0.6521920561790466
0.5952443480491638 0.02605401910841465 0.6561859846115112
0.5946763157844543 0.026212027296423912 0.655867874622345
0.5904771685600281 0.02802860364317894 0.6540191769599915
0.586068868637085 0.029658924788236618 0.6518641710281372
0.5856631398200989 0.030064785853028297 0.6518641710281372
0.5817725658416748 0.03154223784804344 0.6499919295310974
0.5802009701728821 0.03418184071779251 0.6508204936981201
0.5795419216156006 0.036109909415245056 0.6518052816390991
0.5802514553070068 0.03881425783038139 0.6544537544250488
0.5800840854644775 0.040405020117759705 0.6555580496788025
0.5789574384689331 0.04434657096862793 0.6577420234680176
0.5781638622283936 0.04860099405050278 0.6604271531105042
0.5780075192451477 0.05012376978993416 0.6614872217178345
0.5736539959907532 0.05605608969926834 0.662712037563324
0.5723634362220764 0.05628388747572899 0.6618877053260803
0.5663335919380188 0.058002032339572906 0.6585425138473511
0.5656692981719971 0.058120276778936386 0.658118724822998
0.5646075010299683 0.05863914266228676 0.6576974987983704
0.560151219367981 0.062145594507455826 0.6569606065750122
0.5593037605285645 0.06603018194437027 0.6593168377876282
0.5572827458381653 0.07624686509370804 0.6656754612922668
0.5562039613723755 0.08038313686847687 0.6680477857589722
0.5560235977172852 0.08237364143133163 0.6694520115852356
0.5560906529426575 0.088036447763443 0.6738975644111633
0.5467549562454224 0.0961572527885437 0.6729550957679749
0.5963494777679443 0.010233786888420582 0.6439100503921509
0.5967654585838318 0.022230347618460655 0.6535671949386597
0.597031831741333 0.02461603283882141 0.6556307077407837
0.5967304110527039 0.026144638657569885 0.6565853357315063
0.5908673405647278 0.028475839644670486 0.6538375020027161
0.5864660739898682 0.030108043923974037 0.6516830325126648
0.5821759700775146 0.03199237585067749 0.6498114466667175
0.5817570090293884 0.032386161386966705 0.6497917771339417
0.5802515149116516 0.03875481337308884 0.6535753607749939
0.5784894227981567 0.04808351770043373 0.6594624519348145
0.577782928943634 0.05151929706335068 0.6615858674049377
0.5770502686500549 0.05403372645378113 0.6629721522331238
0.5753645300865173 0.0562780424952507 0.6634069085121155
0.5690165758132935 0.05837824195623398 0.6601018905639648
0.5683608651161194 0.058496225625276566 0.6596836447715759
0.5630608797073364 0.06027274578809738 0.6569422483444214
0.5600853562355042 0.06445261836051941 0.6578792333602905
0.5596883893013 0.06484963744878769 0.6578792333602905
0.5590214133262634 0.06809049099683762 0.6598818898200989
0.5588217973709106 0.07019809633493423 0.66136634349823
0.5582338571548462 0.07267456501722336 0.6628357172012329
0.5581044554710388 0.07405222952365875 0.6638067960739136
0.5577153563499451 0.07444123923778534 0.6638067960739136
0.5568280816078186 0.08023873716592789 0.6676270365715027
0.5543544292449951 0.0900740921497345 0.6733546853065491
0.5971547961235046 0.012408356182277203 0.6453733444213867
0.5975511074066162 0.020260365679860115 0.6518089175224304
0.5933496952056885 0.028000149875879288 0.6545696258544922
0.5885803699493408 0.03002619743347168 0.6524291634559631
0.5837414860725403 0.03208176791667938 0.6502576470375061
0.5831606388092041 0.03226151689887047 0.6499446630477905
0.5810142755508423 0.03415638580918312 0.6497483849525452
0.5803849697113037 0.03612658753991127 0.6507945656776428
0.5801010727882385 0.042099278420209885 0.6552331447601318
0.5792924165725708 0.046397555619478226 0.6579557657241821
0.5779502987861633 0.05251825600862503 0.6616841554641724
0.5761569738388062 0.056310445070266724 0.6632437109947205
0.5726995468139648 0.05824127793312073 0.6620526909828186
0.5720545053482056 0.0583580881357193 0.661640465259552
0.5714074373245239 0.05847516655921936 0.6612269282341003
0.5667600035667419 0.06004244089126587 0.6588236689567566
0.5654963254928589 0.06034611910581589 0.658074676990509
0.564862072467804 0.06049855798482895 0.6576987504959106
0.5585435628890991 0.07222642749547958 0.661919355392456
0.5572550296783447 0.07846825569868088 0.6657838821411133
0.5527312159538269 0.0922052189707756 0.6729722619056702
0.5483521223068237 0.0961545929312706 0.6726369261741638
0.5983105301856995 0.026271384209394455 0.6562669277191162
0.5948625206947327 0.02811039239168167 0.65500807762146
0.5884026288986206 0.030649330466985703 0.6519402265548706
0.5845479369163513 0.03212318196892738 0.6500774621963501
0.580272912979126 0.03866149112582207 0.651848316192627
0.5809143781661987 0.04036169871687889 0.6536804437637329
0.5801013112068176 0.044699233025312424 0.6564380526542664
0.5788233280181885 0.05010523274540901 0.6596679091453552
0.5782729983329773 0.052011534571647644 0.6607288718223572
0.5780396461486816 0.054260365664958954 0.6623057723045349
0.5755746960639954 0.05809810012578964 0.6633798480033875
0.5691563487052917 0.06011652573943138 0.65993732213974
0.5633204579353333 0.06212911754846573 0.6569457650184631
0.5602077841758728 0.06614946573972702 0.6576560139656067
0.5600849390029907 0.06680919975042343 0.6580759882926941
0.5580737590789795 0.07629233598709106 0.6639221906661987
0.5580096244812012 0.07697160542011261 0.6644036173820496
0.5604292750358582 0.08627337217330933 0.6735745072364807
0.5914779305458069 0.030000226572155952 0.6530051827430725
0.5866761803627014 0.032034628093242645 0.6508339643478394
0.5849469900131226 0.032570600509643555 0.6498978137969971
0.582000732421875 0.034351896494627 0.6489838361740112
0.5811623334884644 0.036059390753507614 0.6496655941009521
0.5804333686828613 0.04417005553841591 0.6554573774337769
0.5782834887504578 0.05450504645705223 0.6618795394897461
0.5763016939163208 0.058059174567461014 0.6631132364273071
0.5721438527107239 0.0600399449467659 0.6614051461219788
0.5715273022651672 0.060189809650182724 0.6610389947891235
0.5698973536491394 0.06088259816169739 0.6603035926818848
0.5664247274398804 0.06208691745996475 0.6585239768028259
0.5658273100852966 0.06227414682507515 0.658202052116394
0.5648332834243774 0.06285714358091354 0.657879650592804
0.5621466636657715 0.06413011997938156 0.6567703485488892
0.5601950883865356 0.06847278028726578 0.6586465239524841
0.5596263408660889 0.07023482769727707 0.6595826148986816
0.5576175451278687 0.08029519021511078 0.6659001708030701
0.5566731095314026 0.0900493860244751 0.6728124618530273
0.5542708039283752 0.09217681735754013 0.6725967526435852
0.5992048978805542 0.0243891142308712 0.6538347005844116
0.5930023193359375 0.030108390375971794 0.6534544229507446
0.5807231664657593 0.040007296949625015 0.6515815854072571
0.5809355974197388 0.042066361755132675 0.6533688902854919
0.5801180601119995 0.04637249931693077 0.6561138033866882
0.5798714756965637 0.0486811064183712 0.6577362418174744
0.5791549682617188 0.05211183801293373 0.6598717570304871
0.5751266479492188 0.060001447796821594 0.6629101037979126
0.5734843015670776 0.06065124273300171 0.6621289849281311
0.5695010423660278 0.0620601586997509 0.6601033806800842
0.5685188174247742 0.06263812631368637 0.6597855091094971
0.5645545721054077 0.06415972113609314 0.657863438129425
0.5606447458267212 0.06814134865999222 0.6579200029373169
0.5591445565223694 0.07433775067329407 0.6616150736808777
0.5584390759468079 0.07813936471939087 0.6640512347221375
0.5507005453109741 0.09612296521663666 0.6721122860908508
0.5490901470184326 0.09754198044538498 0.671961784362793
0.5483027696609497 0.0982658788561821 0.6719117164611816
0.5997483134269714 0.02003001980483532 0.6499911546707153
0.5901693105697632 0.031837042421102524 0.6517490744590759
0.5896003842353821 0.03201304003596306 0.6514391899108887
0.586333692073822 0.033303402364254 0.6498796939849854
0.5847741365432739 0.03406662121415138 0.6492513418197632
0.5820435881614685 0.036122970283031464 0.6487194299697876
0.5809654593467712 0.03843357041478157 0.6496917605400085
0.5803661942481995 0.04662208631634712 0.6556801199913025
0.5802006721496582 0.048163048923015594 0.6567652821540833
0.579642117023468 0.05008670315146446 0.6578426361083984
0.5783032178878784 0.056126195937395096 0.6615513563156128
0.5782256126403809 0.05686546862125397 0.6620733737945557
0.5727274417877197 0.062237996608018875 0.6619743704795837
0.5715627074241638 0.06260766088962555 0.661346971988678
0.5676456689834595 0.06411848962306976 0.6594483852386475
0.565471351146698 0.06507796049118042 0.6584897637367249
0.5632824301719666 0.06604378670454025 0.6575247645378113
0.560359537601471 0.07018939405679703 0.658489465713501
0.5600770711898804 0.07220882177352905 0.6598600745201111
0.5596857666969299 0.07260020077228546 0.6598600745201111
0.5627626180648804 0.08629312366247177 0.6730920672416687
0.5514923334121704 0.09612163156270981 0.6719545125961304
0.6005105972290039 0.022085051983594894 0.6513769030570984
0.59586501121521 0.03009677305817604 0.6540403366088867
0.5953073501586914 0.030269363895058632 0.6537356972694397
0.5911338925361633 0.032115329056978226 0.6518940329551697
0.581265389919281 0.04414092376828194 0.653600811958313
0.5782502889633179 0.05850871279835701 0.6625836491584778
0.5737335681915283 0.06328967958688736 0.6627927422523499
0.5714080333709717 0.06402646750211716 0.6615356802940369
0.5698482394218445 0.06478657573461533 0.6609029769897461
0.566506028175354 0.06611443310976028 0.6593090891838074
0.5659114122390747 0.06630334258079529 0.6589881777763367
0.563806414604187 0.0673438161611557 0.6581457257270813
0.5623746514320374 0.06827838718891144 0.657752275466919
0.5593283176422119 0.07603683322668076 0.661480724811554
0.5566153526306152 0.09217111766338348 0.6721006035804749
0.5554020404815674 0.0932210385799408 0.6719712615013123
0.5538130402565002 0.09464655071496964 0.6718418598175049
0.5522828698158264 0.09612037986516953 0.6717973351478577
0.6013117432594299 0.02011830173432827 0.6496126055717468
0.6006955504417419 0.028238531202077866 0.6555670499801636
0.596809446811676 0.030375836417078972 0.6541792750358582
0.5962538719177246 0.030548369511961937 0.6538753509521484
0.5877209305763245 0.034043166786432266 0.649877667427063
0.5830438733100891 0.03633866831660271 0.6479879021644592
0.5812926888465881 0.04053695127367973 0.6499295830726624
0.5806950330734253 0.04866017773747444 0.6559008955955505
0.5801347494125366 0.05058184638619423 0.656981348991394
0.5793377757072449 0.05473921447992325 0.6596477627754211
0.5786331295967102 0.05808854475617409 0.6617460250854492
0.5714598894119263 0.06565146893262863 0.6620553731918335
0.5702933669090271 0.066024549305439 0.6614257097244263
0.5697082877159119 0.06621181964874268 0.6611102223396301
0.5675554275512695 0.0671655461192131 0.6601585745811462
0.5660567283630371 0.0680089071393013 0.659638524055481
0.5655191540718079 0.0682545155286789 0.6594070196151733
0.5635098814964294 0.06938547641038895 0.6587101817131042
0.562127411365509 0.07036225497722626 0.6583881378173828
0.5604468584060669 0.07409518957138062 0.660016655921936
0.5666855573654175 0.08419410139322281 0.6729801893234253
0.5642760396003723 0.08627540618181229 0.6727197766304016
0.5622702240943909 0.08801768720149994 0.6725106835365295
0.5581716299057007 0.09144598245620728 0.6719790101051331
0.5577679872512817 0.09179532527923584 0.6719356179237366
0.5573939681053162 0.09216924011707306 0.6719356179237366
0.5506466627120972 0.09822855144739151 0.6713896989822388
0.6017135381698608 0.01853901334106922 0.6478314995765686
0.5934514403343201 0.03226859122514725 0.6521819829940796
0.5892614126205444 0.034136757254600525 0.6503344178199768
0.5881454944610596 0.03452743589878082 0.649757444858551
0.5843668580055237 0.03611406311392784 0.6480132937431335
0.5824400186538696 0.0382685512304306 0.6481943726539612
0.5811479091644287 0.04210292175412178 0.6502171754837036
0.5815927982330322 0.04619970545172691 0.6538310050964355
0.580216646194458 0.05234348401427269 0.6576247811317444
0.580134928226471 0.053096331655979156 0.6581588387489319
0.5718970894813538 0.06687980890274048 0.6625714898109436
0.5691964626312256 0.06803350150585175 0.6613404750823975
0.5677452683448792 0.06890972703695297 0.6608829498291016
0.5652185082435608 0.0702812597155571 0.6599639058113098
0.5625914931297302 0.0723423883318901 0.6595134139060974
0.5613093376159668 0.07416170090436935 0.6599408984184265
0.5606284737586975 0.09010790288448334 0.6720876693725586
0.5581415891647339 0.09214290231466293 0.6717281937599182
0.6022947430610657 0.014050887897610664 0.6438648700714111
0.6027438044548035 0.02810346893966198 0.6554364562034607
0.6000531911849976 0.030001921579241753 0.6548042893409729
0.5864867568016052 0.036004092544317245 0.6487686038017273
0.5847974419593811 0.03659830242395401 0.6478946805000305
0.5830999612808228 0.038120370358228683 0.6477547883987427
0.581337571144104 0.0422799326479435 0.6496676206588745
0.5820134282112122 0.04489362984895706 0.6522924304008484
0.5807104706764221 0.050316158682107925 0.6555794477462769
0.5799880623817444 0.05373423919081688 0.6577305197715759
0.5796651244163513 0.056713733822107315 0.6598502993583679
0.5789605975151062 0.06003651022911072 0.6619395613670349
0.5698003768920898 0.06941432505846024 0.6621133089065552
0.5688858032226562 0.07004452496767044 0.6618862748146057
0.5679967403411865 0.07070230692625046 0.6617017388343811
0.5663517713546753 0.07215255498886108 0.6615462899208069
0.5659319758415222 0.07250740379095078 0.6614944934844971
0.5643560290336609 0.07402736693620682 0.6614498496055603
0.5705890655517578 0.08210691064596176 0.6728705167770386
0.5682222843170166 0.08421091735363007 0.6726608276367188
0.5618135333061218 0.08976881206035614 0.6719818115234375
0.5614048838615417 0.09011118859052658 0.671929121017456
0.5565281510353088 0.09426047652959824 0.6713485717773438
0.5522258877754211 0.09822198003530502 0.671076774597168
0.6017099022865295 0.01825619675219059 0.6459019780158997
0.6029200553894043 0.024241559207439423 0.6516597270965576
0.5989168882369995 0.031155509874224663 0.6539890170097351
0.5942357182502747 0.0331699438393116 0.6518550515174866
0.5822396874427795 0.04062943533062935 0.6482248902320862
0.581886887550354 0.04468527436256409 0.65118807554245
0.5820894837379456 0.04669952392578125 0.6529619693756104
0.5801513195037842 0.05472875386476517 0.6578359603881836
0.580069899559021 0.055474452674388885 0.6583675146102905
0.5794395208358765 0.05808374285697937 0.6599510312080383
0.5720928311347961 0.07017677277326584 0.6637490391731262
0.5702028870582581 0.07211856544017792 0.6637904644012451
0.5665879845619202 0.08629491925239563 0.6722415685653687
0.5645896792411804 0.08803247660398483 0.6720330119132996
0.5641825199127197 0.08837417513132095 0.6719805002212524
0.5637754201889038 0.0887160673737526 0.671928346157074
0.5621798634529114 0.09011436998844147 0.6717705726623535
0.6014255285263062 0.017672177404165268 0.644351065158844
0.6037256121635437 0.022297143936157227 0.6499079465866089
0.590924859046936 0.03518072888255119 0.6499744653701782
0.5888577699661255 0.03617056831717491 0.6491100192070007
0.58621746301651 0.037364643067121506 0.6479496359825134
0.5846877098083496 0.03816745802760124 0.6473661661148071
0.5827429890632629 0.04028784856200218 0.6475071310997009
0.5821518301963806 0.042270462960004807 0.6486237645149231
0.5824247002601624 0.0461738146841526 0.6519749760627747
0.5818544626235962 0.0481189601123333 0.6530781388282776
0.5810360908508301 0.05232881382107735 0.6557996273040771
0.5802325010299683 0.056462135165929794 0.6584715247154236
0.5783622860908508 0.06417588889598846 0.663160502910614
0.5721168518066406 0.08212972432374954 0.6725558042526245
0.5665440559387207 0.08698320388793945 0.6719784736633301
0.5657317042350769 0.08766556531190872 0.6718742847442627
0.5604651570320129 0.0921373963356018 0.671236515045166
0.558081328868866 0.0942528173327446 0.6710211038589478
0.5561094284057617 0.09603201597929001 0.6708665490150452
0.6015093922615051 0.017663273960351944 0.6435531973838806
0.6029994487762451 0.030100520700216293 0.6547602415084839
0.6001721024513245 0.03179071843624115 0.6538451910018921
0.5860829949378967 0.038044679909944534 0.6475404500961304
