ply
format ascii 1.0
element vertex 809
property float x
property float y
property float z
end_header
0.550710916519165 -0.02682664431631565 0.6603133678436279
0.5518345832824707 -0.026294099166989326 0.6597772240638733
0.5529624819755554 -0.02575995959341526 0.6592392921447754
0.5540943741798401 -0.025223704054951668 0.6586988568305969
0.5560149550437927 -0.024879608303308487 0.6581171751022339
0.5572225451469421 -0.024205531924962997 0.657480776309967
0.5584354996681213 -0.023527873679995537 0.6568412184715271
0.5608776807785034 -0.02216324210166931 0.6555535197257996
0.5628753304481506 -0.021723872050642967 0.654900312423706
0.5641176104545593 -0.021022163331508636 0.6542404890060425
0.5653654932975769 -0.02031771093606949 0.6535782814025879
0.4481394588947296 -0.02926088683307171 0.681099534034729
0.4501272439956665 -0.03036736138164997 0.6813626885414124
0.45211127400398254 -0.031471673399209976 0.6816250681877136
0.4527249038219452 -0.032029908150434494 0.6818348169326782
0.45542871952056885 -0.036181941628456116 0.6837626099586487
0.45584535598754883 -0.03747114911675453 0.6844449043273926
0.45628100633621216 -0.03867194429039955 0.6850709915161133
0.4558188021183014 -0.04330966994166374 0.6879124641418457
0.45649656653404236 -0.043535586446523666 0.6879124641418457
0.46042966842651367 -0.04806886985898018 0.6898232102394104
0.4619162976741791 -0.06084485352039337 0.6971056461334229
0.46292391419410706 -0.062311917543411255 0.6977764368057251
0.4646724462509155 -0.0660620853304863 0.6996546387672424
0.46604448556900024 -0.0662376806139946 0.6994875073432922
0.46691054105758667 -0.065736323595047 0.6990191340446472
0.4684300720691681 -0.06544964015483856 0.6985486149787903
0.4701808989048004 -0.06443831324577332 0.6976028084754944
0.47260013222694397 -0.06363753229379654 0.6966497302055359
0.4743802547454834 -0.06261149048805237 0.6956896781921387
0.4761733114719391 -0.06157839670777321 0.6947225332260132
0.47864314913749695 -0.06075771898031235 0.6937476396560669
0.48046669363975525 -0.0597086101770401 0.6927648186683655
0.48205050826072693 -0.059402287006378174 0.692270040512085
0.4829723536968231 -0.05887371674180031 0.6917745471000671
0.48492231965065 -0.05753163993358612 0.6905934810638428
0.49049216508865356 -0.048023127019405365 0.6838536262512207
0.4928908348083496 -0.04558931291103363 0.6819363236427307
0.4947982728481293 -0.04459249973297119 0.6809681057929993
0.49602198600769043 -0.043353643268346786 0.679991602897644
0.5072680115699768 -0.03864618018269539 0.6749769449234009
0.5092900991439819 -0.03756754845380783 0.6739374995231628
0.5106109976768494 -0.03624163940548897 0.6728902459144592
0.5119419097900391 -0.03490621596574783 0.6718353033065796
0.5186806917190552 -0.03641410171985626 0.67139732837677
0.5205451846122742 -0.03785151615738869 0.6718810796737671
0.5228219032287598 -0.040233414620161057 0.672843873500824
0.5240993499755859 -0.0410771518945694 0.673091471195221
0.526290774345398 -0.03978750854730606 0.6718934774398804
0.5281273126602173 -0.039349500089883804 0.6712710857391357
0.5303766131401062 -0.03798471763730049 0.6700169444084167
0.5315088629722595 -0.037297651171684265 0.6693854928016663
0.5326462388038635 -0.03660760447382927 0.6687514781951904
0.5345177054405212 -0.036157287657260895 0.6681146025657654
0.535667359828949 -0.035461410880088806 0.6674748659133911
0.5368219614028931 -0.03476247563958168 0.6668322086334229
0.5387157201766968 -0.034304872155189514 0.6661863327026367
0.5398683547973633 -0.033631451427936554 0.6655592918395996
0.5406599640846252 -0.0337538868188858 0.665475070476532
0.5429832339286804 -0.0324014350771904 0.664214015007019
0.545192539691925 -0.03132559731602669 0.6631395220756531
0.5464220643043518 -0.03053131513297558 0.6624251008033752
0.5475268959999084 -0.030010947957634926 0.6618981957435608
0.5486359000205994 -0.029488801956176758 0.6613693833351135
0.5504966974258423 -0.029213612899184227 0.6608384251594543
0.5527380108833313 -0.028160460293293 0.6597709655761719
0.5538647174835205 -0.027630897238850594 0.659233808517456
0.5546166300773621 -0.02788153477013111 0.659233808517456
0.5569483041763306 -0.026689885184168816 0.6580668687820435
0.5581550598144531 -0.026020588353276253 0.6574310064315796
0.559367299079895 -0.025348633527755737 0.656792938709259
0.5601255297660828 -0.025601375848054886 0.656792938709259
0.5625714659690857 -0.024244850501418114 0.6555051207542419
0.5638077855110168 -0.023552119731903076 0.6548501253128052
0.5650495290756226 -0.02285604551434517 0.6541920304298401
0.5670633316040039 -0.02241240255534649 0.6535306572914124
0.45193547010421753 -0.032067324966192245 0.6811519861221313
0.4534827470779419 -0.0349004752933979 0.6825305819511414
0.45632457733154297 -0.04410039633512497 0.6874400973320007
0.4579603970050812 -0.046259500086307526 0.6884000301361084
0.46133121848106384 -0.05004667863249779 0.6899847388267517
0.4620020091533661 -0.05027028173208237 0.6899847388267517
0.46142369508743286 -0.0600079745054245 0.6958925127983093
0.4639168381690979 -0.06617159396409988 0.6990649700164795
0.4685274064540863 -0.06742674857378006 0.6988973021507263
0.47027191519737244 -0.0664268210530281 0.6979565024375916
0.4726824462413788 -0.06563634425401688 0.6970081925392151
0.47445592284202576 -0.06462160497903824 0.6960528492927551
0.4753476083278656 -0.06411150842905045 0.6955724358558655
0.4760039746761322 -0.06433030217885971 0.6955724358558655
0.4769003987312317 -0.06381889432668686 0.6950905323028564
0.47870373725891113 -0.06278905272483826 0.6941203474998474
0.47961029410362244 -0.062271978706121445 0.6936330795288086
0.48027169704437256 -0.06249244138598442 0.6936330795288086
0.4812827706336975 -0.06167825311422348 0.692948043346405
0.4824102520942688 -0.06053333356976509 0.6920433044433594
0.4846891760826111 -0.05821928754448891 0.6902148127555847
0.4926456809043884 -0.04630277678370476 0.6815477609634399
0.4957713186740875 -0.04407631233334541 0.679603099822998
0.49869874119758606 -0.04248679801821709 0.6780772805213928
0.4997081458568573 -0.041881054639816284 0.6775168180465698
0.5057043433189392 -0.040693800896406174 0.6756212115287781
0.509019672870636 -0.038316335529088974 0.6735496520996094
0.5129967331886292 -0.03434358909726143 0.6703974008560181
0.5146989822387695 -0.0341687947511673 0.6699557900428772
0.5161215662956238 -0.034706421196460724 0.6699934005737305
0.5179957151412964 -0.03615041822195053 0.6704807877540588
0.5204350352287292 -0.03818747401237488 0.6712092161178589
0.5221280455589294 -0.040013208985328674 0.6719593405723572
0.5245007276535034 -0.04212957248091698 0.6727480292320251
0.526120126247406 -0.042168956249952316 0.6724501848220825
0.5279480218887329 -0.04173802584409714 0.6718313694000244
0.5290651321411133 -0.04106556996703148 0.6712099313735962
0.5301868915557861 -0.040389955043792725 0.6705856323242188
0.5313137769699097 -0.03971143439412117 0.669958233833313
0.5320362448692322 -0.03995225578546524 0.669958233833313
0.5343084335327148 -0.038586996495723724 0.6686955094337463
0.5365399122238159 -0.03734518960118294 0.6675142645835876
0.5381909012794495 -0.03740658611059189 0.6672231554985046
0.5403948426246643 -0.03443193435668945 0.6650166511535645
0.5426051020622253 -0.03332104533910751 0.663917601108551
0.5441377758979797 -0.033691808581352234 0.6638340353965759
0.5447747707366943 -0.03415404260158539 0.6639825701713562
0.5460047721862793 -0.03335421159863472 0.6632633805274963
0.5480694770812988 -0.032613661140203476 0.6624127626419067
0.5491747856140137 -0.0320984423160553 0.6618870496749878
0.5502842664718628 -0.03158096224069595 0.6613592505455017
0.5525155663490295 -0.03054092638194561 0.6602985858917236
0.5543860793113708 -0.03026755154132843 0.6597651243209839
0.5555132627487183 -0.029743004590272903 0.6592289805412292
0.5566762089729309 -0.029152248054742813 0.658646821975708
0.5586304664611816 -0.028742685914039612 0.6580155491828918
0.559838593006134 -0.028079576790332794 0.6573820114135742
0.5610519051551819 -0.02741333283483982 0.6567450761795044
0.5622714161872864 -0.026741938665509224 0.6561037302017212
0.5635004639625549 -0.026059525087475777 0.6554538607597351
0.5642603635787964 -0.026312820613384247 0.6554538607597351
0.5654977560043335 -0.02562594972550869 0.6547999978065491
0.5667405128479004 -0.02493627555668354 0.6541433930397034
0.5679886341094971 -0.024243390187621117 0.6534833908081055
0.44810065627098083 -0.029131360352039337 0.679299533367157
0.44934895634651184 -0.030208054929971695 0.6796936988830566
0.44989925622940063 -0.0310501866042614 0.6800870299339294
0.4527253806591034 -0.03482366353273392 0.6817765831947327
0.4525589048862457 -0.04144749417901039 0.6857632994651794
0.4537913203239441 -0.042402561753988266 0.6860881447792053
0.45544004440307617 -0.044577375054359436 0.68705815076828
0.45720747113227844 -0.046243228018283844 0.6877007484436035
0.45950642228126526 -0.0486149862408638 0.6886589527130127
0.4628678560256958 -0.052334968000650406 0.6902100443840027
0.4623457193374634 -0.061740778386592865 0.6959277987480164
0.4630887508392334 -0.06410396099090576 0.6971902847290039
0.46759602427482605 -0.06810497492551804 0.6986812353134155
0.46831080317497253 -0.06810163706541061 0.6985371708869934
0.4704597294330597 -0.06809172034263611 0.6981040239334106
0.4718852639198303 -0.06811944395303726 0.6978366374969482
0.4727637767791748 -0.06762127578258514 0.6973649263381958
0.47453078627586365 -0.06661814451217651 0.6964146494865417
0.47607359290122986 -0.0663304403424263 0.6959357857704163
0.47817009687423706 -0.06439339369535446 0.6943626403808594
0.4821818470954895 -0.06121154874563217 0.6916656494140625
0.4844573140144348 -0.058903660625219345 0.6898354291915894
0.48882755637168884 -0.05063087120652199 0.684028685092926
0.49430322647094727 -0.04602424055337906 0.6801900863647461
0.4977984130382538 -0.042829181998968124 0.6775879263877869
0.4984995424747467 -0.04306289181113243 0.6775879263877869
0.5004423260688782 -0.04206427186727524 0.6766053438186646
0.5022021532058716 -0.04158719629049301 0.6759703755378723
0.5067334175109863 -0.04013461619615555 0.6742021441459656
0.5113914608955383 -0.036420099437236786 0.6710583567619324
0.5127273201942444 -0.03508390113711357 0.6699953079223633
0.5178849101066589 -0.036487165838479996 0.669806718826294
0.5195925235748291 -0.03831479325890541 0.6705577969551086
0.5219787359237671 -0.040441978722810745 0.6713526844978333
0.5261138081550598 -0.04415460303425789 0.6727458834648132
0.5288820862770081 -0.043441638350486755 0.6717693209648132
0.5307164192199707 -0.04301353171467781 0.6711493134498596
0.5329676270484924 -0.0416712611913681 0.6699002385139465
0.5350512862205505 -0.04073229432106018 0.6689252853393555
0.5371184349060059 -0.03985448554158211 0.6679899096488953
0.538639485836029 -0.03836119920015335 0.6667963862419128
0.5413295030593872 -0.03434384614229202 0.6638638377189636
0.5431230664253235 -0.03414442762732506 0.6633879542350769
0.5466328859329224 -0.03574952855706215 0.6636474132537842
0.5489693284034729 -0.03443977236747742 0.6624008417129517
0.5500738620758057 -0.03392871096730232 0.6618761420249939
0.5530391335487366 -0.03314967453479767 0.6608213782310486
0.554157018661499 -0.03263367339968681 0.6602911353111267
0.5552791953086853 -0.03211566060781479 0.6597582101821899
0.556406557559967 -0.0315936803817749 0.6592227816581726
0.5583518743515015 -0.031191164627671242 0.6585954427719116
0.5595537424087524 -0.030536217615008354 0.6579651236534119
0.5607610940933228 -0.029878446832299232 0.6573328971862793
0.5627301335334778 -0.029466256499290466 0.6566948890686035
0.5651836395263672 -0.02811901457607746 0.6554027795791626
0.5664202570915222 -0.02743764966726303 0.6547502875328064
0.5684240460395813 -0.027007373049855232 0.6540949940681458
0.5696730017662048 -0.026320872828364372 0.6534364819526672
0.4473024606704712 -0.029185639694333076 0.6786238551139832
0.4478566348552704 -0.03003060445189476 0.6790193319320679
0.45198139548301697 -0.034690193831920624 0.6809858679771423
0.45123642683029175 -0.04072452709078789 0.6847473978996277
0.45234623551368713 -0.04218416288495064 0.6853998303413391
0.4580927789211273 -0.04834139719605446 0.6879398226737976
0.46215343475341797 -0.05221478268504143 0.689448356628418
0.46225205063819885 -0.06201503425836563 0.6952963471412659
0.4637317955493927 -0.06671618670225143 0.6978158950805664
0.46437934041023254 -0.06693203002214432 0.6978158950805664
0.46474313735961914 -0.06809215992689133 0.6984379887580872
0.4688622057437897 -0.06860192865133286 0.6979207992553711
0.47237950563430786 -0.06880605965852737 0.6973412036895752
0.4744687080383301 -0.06901675462722778 0.6970502138137817
0.47614267468452454 -0.06831531226634979 0.6962962746620178
0.4779481291770935 -0.06506031006574631 0.6939870715141296
0.47971397638320923 -0.0641564130783081 0.693093478679657
0.48195406794548035 -0.061887823045253754 0.6912879943847656
0.48858901858329773 -0.051331087946891785 0.6836434602737427
0.49095869064331055 -0.048936303704977036 0.681736409664154
0.4940563440322876 -0.04673813283443451 0.679801881313324
0.4964991807937622 -0.04427838325500488 0.6778420209884644
0.5011740326881409 -0.042258381843566895 0.6756995320320129
0.5020574927330017 -0.042012281715869904 0.6753759980201721
0.5043585300445557 -0.042226582765579224 0.6750447154045105
0.5064669251441956 -0.040876712650060654 0.6738160252571106
0.5097935199737549 -0.038497112691402435 0.6717270016670227
0.5131707191467285 -0.03608240559697151 0.6696072220802307
0.5183249711990356 -0.03748141974210739 0.6694161891937256
0.518884539604187 -0.03811388090252876 0.6696830987930298
0.5201623439788818 -0.03898471221327782 0.6699497699737549
0.5236289501190186 -0.04241306707262993 0.671310544013977
0.5241640210151672 -0.04307275637984276 0.6715985536575317
0.525231659412384 -0.04438775032758713 0.6721729636192322
0.527780294418335 -0.04603106901049614 0.6726479530334473
0.5287037491798401 -0.045790985226631165 0.6723201274871826
0.5294167399406433 -0.04602852836251259 0.6723201274871826
0.5305266380310059 -0.045376285910606384 0.6717079281806946
0.5330811142921448 -0.043353114277124405 0.6699866652488708
0.5352928638458252 -0.042129166424274445 0.6688128113746643
0.5367981195449829 -0.040653329342603683 0.6676284670829773
0.5464819669723511 -0.03617602214217186 0.6630153656005859
0.5483824014663696 -0.037557438015937805 0.6634629964828491
0.5506032705307007 -0.03650323301553726 0.6623884439468384
0.5517081618309021 -0.03599734604358673 0.6618651151657104
0.5528171062469482 -0.03548974171280861 0.6613399386405945
0.5550470948219299 -0.03446859493851662 0.6602830290794373
0.5569136738777161 -0.03420371189713478 0.659752368927002
0.5580754280090332 -0.03361847624182701 0.6591700315475464
0.5604730248451233 -0.03232192248106003 0.657914936542511
0.5624324083328247 -0.03191818296909332 0.6572823524475098
0.5648726224899292 -0.030589895322918892 0.6559999585151672
0.566102921962738 -0.029917331412434578 0.6553519368171692
0.5668593645095825 -0.030169524252414703 0.6553519368171692
0.5680971145629883 -0.029494179412722588 0.654700756072998
0.5705879926681519 -0.028135979548096657 0.6533898711204529
0.4494149684906006 -0.0328085832297802 0.6795088052749634
0.44922804832458496 -0.039771925657987595 0.6837284564971924
0.45158061385154724 -0.04219049587845802 0.6847103238105774
0.45393338799476624 -0.04452235624194145 0.6856399774551392
0.45448872447013855 -0.04522068053483963 0.6859482526779175
0.45571795105934143 -0.046142786741256714 0.6862558722496033
0.45736950635910034 -0.04822291061282158 0.6871744990348816
0.45968058705329895 -0.050512056797742844 0.6880869269371033
0.46150439977645874 -0.06207132712006569 0.6946650147438049
0.46290257573127747 -0.06465080380439758 0.6959343552589417
0.4646509289741516 -0.06836417317390442 0.6978147029876709
0.46662408113479614 -0.06889490783214569 0.6977382898330688
0.47719115018844604 -0.06951139867305756 0.6959930658340454
0.48060452938079834 -0.06369805335998535 0.6918178796768188
0.48285678029060364 -0.061420079320669174 0.6899985074996948
0.4846632778644562 -0.06049186736345291 0.6890792846679688
0.48835092782974243 -0.052029937505722046 0.6832582950592041
0.49260321259498596 -0.048665568232536316 0.6803863048553467
0.4938099980354309 -0.047450952231884 0.6794151067733765
0.498074471950531 -0.044287193566560745 0.6766607761383057
0.4991491734981537 -0.04350002855062485 0.6759730577468872
0.5082107782363892 -0.040554966777563095 0.6723896265029907
0.5205695629119873 -0.04004412889480591 0.6696079969406128
0.5245299935340881 -0.04420194402337074 0.6713128685951233
0.5263078808784485 -0.045750007033348083 0.671886682510376
0.5283743739128113 -0.04662272334098816 0.6719971895217896
0.5327680706977844 -0.04414072632789612 0.6696264743804932
0.5455941557884216 -0.03635690361261368 0.6623831987380981
0.5482051372528076 -0.038037944585084915 0.6628704071044922
0.5501630902290344 -0.039283573627471924 0.663226306438446
0.5525971055030823 -0.03781053051352501 0.6618545055389404
0.5544446110725403 -0.03755376487970352 0.6613304615020752
0.5566753149032593 -0.03654252365231514 0.6602759957313538
0.5578014850616455 -0.036024924367666245 0.6597394943237305
0.5589918494224548 -0.03538598120212555 0.659117579460144
0.5609344840049744 -0.03499298542737961 0.6584926247596741
0.5621375441551208 -0.034347765147686005 0.6578640341758728
0.5633465051651001 -0.0336984284222126 0.6572322249412537
0.5645641088485718 -0.03303960710763931 0.6565922498703003
0.5665417909622192 -0.03262621909379959 0.6559480428695679
0.5690099596977234 -0.03128979355096817 0.6546516418457031
0.5702518224716187 -0.030617766082286835 0.6539990305900574
0.5722593069076538 -0.03019583225250244 0.6533433794975281
0.44626203179359436 -0.03013928234577179 0.6776692271232605
0.44734013080596924 -0.038282860070466995 0.682360053062439
0.44903886318206787 -0.04042673856019974 0.6833104491233826
0.4502841830253601 -0.04136141762137413 0.6836234331130981
0.450846403837204 -0.04206731915473938 0.6839357614517212
0.4548683762550354 -0.046492982655763626 0.6857949495315552
0.4589832127094269 -0.05031152814626694 0.6872693300247192
0.4601043462753296 -0.051561590284109116 0.6877974271774292
0.4606630802154541 -0.05218471586704254 0.688060462474823
0.46297866106033325 -0.05434584617614746 0.6888977885246277
0.4631790220737457 -0.06609548628330231 0.6959375739097595
0.4741348922252655 -0.07002546638250351 0.6961049437522888
0.47485560178756714 -0.07002322375774384 0.6959589719772339
0.4762994647026062 -0.07001904398202896 0.6956666111946106
0.48037925362586975 -0.0643690675497055 0.691442608833313
0.48262813687324524 -0.06209736689925194 0.6896219849586487
0.48929017782211304 -0.05154120922088623 0.6819230318069458
0.4904751777648926 -0.050346843898296356 0.680965006351471
0.4935638904571533 -0.048162661492824554 0.6790286302566528
0.4959987998008728 -0.045717112720012665 0.6770660281181335
0.49893590807914734 -0.044113315641880035 0.6755098700523376
0.5040333867073059 -0.04316960275173187 0.6739174127578735
0.506642758846283 -0.04259335994720459 0.6730459928512573
0.5105701088905334 -0.03868016600608826 0.6698991656303406
0.5118991136550903 -0.03735620900988579 0.668834388256073
0.5138985514640808 -0.03641603887081146 0.6678663492202759
0.5148300528526306 -0.036127720028162 0.6675053238868713
0.5161823630332947 -0.03683679550886154 0.6676611304283142
0.5220397114753723 -0.04245917126536369 0.6698722839355469
0.523827314376831 -0.044015735387802124 0.6704512238502502
0.5261390805244446 -0.04621970281004906 0.6713148951530457
0.5309843420982361 -0.046369049698114395 0.6704318523406982
0.5361595153808594 -0.042245879769325256 0.6669078469276428
0.5376713871955872 -0.04076748341321945 0.6657130122184753
0.5405328273773193 -0.03637542575597763 0.6624919176101685
0.5417269468307495 -0.03562742471694946 0.6618015766143799
0.542463481426239 -0.035872939974069595 0.6618015766143799
0.5441714525222778 -0.03586258739233017 0.6614521741867065
0.5448076725006104 -0.0363231785595417 0.6616017818450928
0.546180248260498 -0.03702886775135994 0.6617515683174133
0.5474148988723755 -0.03801753744482994 0.6620988249778748
0.5505955219268799 -0.04026172682642937 0.6628125309944153
0.55237877368927 -0.04011223092675209 0.6623644828796387
0.5542182922363281 -0.03986045718193054 0.6618434190750122
0.5564389228820801 -0.038862016052007675 0.6607953310012817
0.558295726776123 -0.03860682621598244 0.6602686643600464
0.5594566464424133 -0.038026969879865646 0.6596860289573669
0.5606482625007629 -0.037393469363451004 0.6590649485588074
0.5630488395690918 -0.03611435741186142 0.6578121185302734
0.5650067925453186 -0.03571729734539986 0.657179594039917
0.5662265419960022 -0.03506165370345116 0.6565393209457397
0.5674521327018738 -0.03440304845571518 0.6558963656425476
0.5686826109886169 -0.03374164178967476 0.6552509665489197
0.5706737041473389 -0.033329617232084274 0.6546028852462769
0.5719164609909058 -0.03266355022788048 0.6539516448974609
0.44547444581985474 -0.030149735510349274 0.676965594291687
0.4453400671482086 -0.037223588675260544 0.6812686920166016
0.44659626483917236 -0.03816721588373184 0.681585967540741
0.45179441571235657 -0.04405321553349495 0.6840967535972595
0.456487774848938 -0.048613596707582474 0.6859075427055359
0.46053236722946167 -0.052589092403650284 0.6874956488609314
0.46131688356399536 -0.06261993199586868 0.6934012174606323
0.4641019403934479 -0.06774941831827164 0.6959408521652222
0.4669450521469116 -0.07011384516954422 0.6967971920967102
0.468371719121933 -0.07010959088802338 0.6965070962905884
0.47044843435287476 -0.07032118737697601 0.696216344833374
0.47188252210617065 -0.07031705230474472 0.6959251165390015
0.4726007282733917 -0.07031498104333878 0.6957792639732361
0.4782281219959259 -0.07073632627725601 0.6949000358581543
0.48534607887268066 -0.06070024520158768 0.6873987913131714
0.4890510141849518 -0.0522407591342926 0.6815388202667236
0.4914259910583496 -0.04985056817531586 0.6796152591705322
0.49211540818214417 -0.05008037015795708 0.6796152591705322
0.4945296347141266 -0.04765746369957924 0.6776641607284546
0.4969398081302643 -0.04530711472034454 0.6757577061653137
0.5015183687210083 -0.043569233268499374 0.6737849116325378
0.5022225975990295 -0.04380399361252785 0.6737849116325378
0.5076739192008972 -0.042040664702653885 0.6716203093528748
0.5089806318283081 -0.04074050113558769 0.6705710887908936
0.5123415589332581 -0.03835006058216095 0.6684487462043762
0.5173165798187256 -0.03814234212040901 0.667320966720581
0.5184369683265686 -0.03940528258681297 0.6678585410118103
0.5189928412437439 -0.04004191234707832 0.6681314706802368
0.5213333368301392 -0.042271289974451065 0.6690074801445007
0.5236594080924988 -0.044486723840236664 0.6698780655860901
0.5254395008087158 -0.04603557661175728 0.6704555749893188
0.5294702053070068 -0.04801161587238312 0.6708379983901978
0.5336250066757202 -0.044260598719120026 0.6677330136299133
0.5343447327613831 -0.044500499963760376 0.6677330136299133
0.5358412265777588 -0.04303924739360809 0.666548490524292
0.5414679050445557 -0.03628900647163391 0.6613341569900513
0.5422039031982422 -0.036534346640110016 0.6613341569900513
0.5472378730773926 -0.03849794343113899 0.6615065932273865
0.548462450504303 -0.03949818015098572 0.661864697933197
0.5498077869415283 -0.04024198651313782 0.6620430946350098
0.552962601184845 -0.04250238463282585 0.662773847579956
0.5550973415374756 -0.041656430810689926 0.661832332611084
0.5562047958374023 -0.04116244986653328 0.6613106727600098
0.5580534934997559 -0.04091261327266693 0.6607871651649475
0.560364305973053 -0.039773374795913696 0.6596326231956482
0.5622975826263428 -0.03939169645309448 0.6590127348899841
0.5647000074386597 -0.03812417760491371 0.6577625870704651
0.565914511680603 -0.037475913763046265 0.6571256518363953
0.5671336054801941 -0.03682565316557884 0.6564865708351135
0.5691083669662476 -0.03642220050096512 0.6558449268341064
0.5703397989273071 -0.035767264664173126 0.6552011370658875
0.5728185772895813 -0.03444886952638626 0.6539047956466675
0.5748234987258911 -0.03403637558221817 0.653251588344574
0.44275909662246704 -0.035430531948804855 0.6798470616340637
0.4457409977912903 -0.03852663189172745 0.6811215877532959
0.4475628435611725 -0.040177445858716965 0.6817545890808105
0.4499392509460449 -0.04252563789486885 0.6826980113983154
0.45162156224250793 -0.044631507247686386 0.6836350560188293
0.4522991478443146 -0.044857364147901535 0.6836350560188293
0.45341259241104126 -0.046252574771642685 0.6842563152313232
0.4557896852493286 -0.048394571989774704 0.6850745677947998
0.4574856460094452 -0.05028007924556732 0.685875415802002
0.4581575095653534 -0.050504036247730255 0.685875415802002
0.4598398208618164 -0.05238192528486252 0.6866737604141235
0.46214383840560913 -0.05459867790341377 0.6875525116920471
0.4622512459754944 -0.06429455429315567 0.6934104561805725
0.4640094041824341 -0.0680217370390892 0.6953155398368835
0.4647373855113983 -0.07033239305019379 0.696569561958313
0.46892249584198 -0.07060939818620682 0.6958913207054138
0.4810468554496765 -0.06458234041929245 0.6897857785224915
0.48330429196357727 -0.062308210879564285 0.6879503726959229
0.49118340015411377 -0.05055636167526245 0.6792309284210205
0.49428269267082214 -0.04837004467844963 0.6772788166999817
0.4974096715450287 -0.046198587864637375 0.6753296852111816
0.5004149079322815 -0.04444626346230507 0.6736599206924438
0.5020133256912231 -0.0444006584584713 0.6733088493347168
0.5044289827346802 -0.044305652379989624 0.6727632284164429
0.5061115026473999 -0.04406820237636566 0.6722791194915771
0.5100248456001282 -0.04017983376979828 0.6691298484802246
0.5188250541687012 -0.04051683470606804 0.6675554513931274
0.5200850963592529 -0.04142039641737938 0.667848527431488
0.5240253210067749 -0.04561326652765274 0.6695947051048279
0.5245587229728699 -0.04626733064651489 0.6698837280273438
0.5269454121589661 -0.04826965183019638 0.6706154942512512
0.5303670763969421 -0.047926146537065506 0.6697152853012085
0.537030041217804 -0.0423625148832798 0.664995014667511
0.5399986505508423 -0.03773520514369011 0.6615884304046631
0.5482610464096069 -0.040028031915426254 0.661309003829956
0.5502088665962219 -0.041283100843429565 0.661676287651062
0.5514193773269653 -0.04229094088077545 0.6620426774024963
0.5539604425430298 -0.04404154419898987 0.662590742111206
0.5547046065330505 -0.044258881360292435 0.6625717282295227
0.5567051768302917 -0.043688371777534485 0.6618215441703796
0.5589247941970825 -0.0427081473171711 0.6607785224914551
0.5600829720497131 -0.04213323816657066 0.6601959466934204
0.5620071887969971 -0.041758425533771515 0.6595797538757324
0.5643985867500305 -0.0405055433511734 0.6583365201950073
0.5663481950759888 -0.040117423981428146 0.6577067375183105
0.5675632953643799 -0.03947536274790764 0.6570718884468079
0.5687834024429321 -0.03883085027337074 0.6564340591430664
0.570009171962738 -0.03818365931510925 0.6557945609092712
0.5712394118309021 -0.037534210830926895 0.6551513671875
0.5732269883155823 -0.03713225573301315 0.6545060873031616
0.5744704604148865 -0.03647744655609131 0.6538577675819397
0.44087550044059753 -0.033748336136341095 0.6783460378646851
0.4414324462413788 -0.034580428153276443 0.6787397861480713
0.44258934259414673 -0.0360223688185215 0.6793822050094604
0.4485235810279846 -0.04217560961842537 0.6819220781326294
0.4527042508125305 -0.04605028033256531 0.6834312677383423
0.4591456651687622 -0.052176378667354584 0.6858521699905396
0.46145254373550415 -0.05439923331141472 0.6867363452911377
0.4632689654827118 -0.06807806342840195 0.6946897506713867
0.46464622020721436 -0.07060109823942184 0.6959453821182251
0.46662047505378723 -0.07111544907093048 0.6958576440811157
0.47788986563682556 -0.07174499332904816 0.6939553618431091
0.47861388325691223 -0.07174373418092728 0.6938078999519348
0.48488184809684753 -0.062062907963991165 0.6866474151611328
0.48975369334220886 -0.052452221512794495 0.6798129677772522
0.4928283989429474 -0.050289981067180634 0.6778741478919983
0.49525195360183716 -0.047864947468042374 0.6759074926376343
0.4982488751411438 -0.04608049988746643 0.6742143034934998
0.49931591749191284 -0.04531869292259216 0.6735343337059021
0.5051408410072327 -0.04456809535622597 0.6718964576721191
0.5084413886070251 -0.042228810489177704 0.6698042750358582
0.5097532272338867 -0.040927283465862274 0.6687461137771606
0.5110752582550049 -0.039615560322999954 0.6676802635192871
0.513126015663147 -0.03853462263941765 0.6666066646575928
0.5142620205879211 -0.03772803768515587 0.6658857464790344
0.5157239437103271 -0.038160115480422974 0.6658524870872498
0.5164450407028198 -0.03840049356222153 0.6658524870872498
0.520457923412323 -0.04255618527531624 0.6675664186477661
0.5238574147224426 -0.046083010733127594 0.6690226197242737
0.5261646509170532 -0.04827665165066719 0.6698892712593079
0.5282486081123352 -0.04909694939851761 0.6699656844139099
0.5300599336624146 -0.04870203509926796 0.6693585515022278
0.5337160229682922 -0.04607280343770981 0.6670172810554504
0.5352069139480591 -0.04462115094065666 0.6658319234848022
0.5382258296012878 -0.041681960225105286 0.663431704044342
0.542712390422821 -0.037475425750017166 0.6599627137184143
0.5442767143249512 -0.037770189344882965 0.6598247289657593
0.5448885560035706 -0.03827890008687973 0.6600103974342346
0.5474535226821899 -0.04004622623324394 0.6605650782585144
0.5506142377853394 -0.042310912162065506 0.661301851272583
0.5525545477867126 -0.04356079176068306 0.661669135093689
0.5531572699546814 -0.044062722474336624 0.6618524193763733
0.5562925338745117 -0.04630068689584732 0.6625778675079346
0.557574450969696 -0.045466989278793335 0.661810576915741
0.5586813688278198 -0.044982291758060455 0.6612915992736816
0.5605382323265076 -0.044717155396938324 0.660753607749939
0.5629065632820129 -0.04348762333393097 0.6595252156257629
0.5640993118286133 -0.0428667813539505 0.6589053273200989
0.566038191318512 -0.04248926788568497 0.658282995223999
0.5684616565704346 -0.041218388825654984 0.6570183038711548
0.5704261660575867 -0.0408279113471508 0.65638267993927
0.5716522932052612 -0.040186807513237 0.6557437181472778
0.5728839039802551 -0.03954290971159935 0.655102550983429
0.5741208791732788 -0.03889619559049606 0.6544579863548279
0.5753631591796875 -0.0382465198636055 0.6538106799125671
0.57611483335495 -0.03849708288908005 0.6538106799125671
0.5773654580116272 -0.03784369304776192 0.653160035610199
0.43882763385772705 -0.032771043479442596 0.6773035526275635
0.44010117650032043 -0.03372687101364136 0.6776278018951416
0.4406830370426178 -0.03445104882121086 0.6779516339302063
0.4442559480667114 -0.03827406093478203 0.6795575618743896
0.44778701663017273 -0.04205230623483658 0.6811453700065613
0.45428466796875 -0.04836181178689003 0.6836742162704468
0.46009257435798645 -0.05397404357790947 0.6859175562858582
0.46076110005378723 -0.054196927696466446 0.6859175562858582
0.4624011516571045 -0.05614739656448364 0.6867741346359253
0.4624369144439697 -0.06601793318986893 0.6927906274795532
0.47346922755241394 -0.07203727960586548 0.6942198276519775
0.4741881489753723 -0.07203619182109833 0.6940730214118958
0.47490787506103516 -0.07203491777181625 0.6939259171485901
0.4763496518135071 -0.07203301787376404 0.6936313509941101
0.47844481468200684 -0.0722474679350853 0.6933361887931824
0.48833659291267395 -0.05433163419365883 0.6803901195526123
0.49138739705085754 -0.05219229683279991 0.6784639954566956
0.4937896430492401 -0.04979167878627777 0.6765102744102478
0.4950036406517029 -0.04857835918664932 0.6755228042602539
0.4980100691318512 -0.04676249995827675 0.6738028526306152
0.5032542943954468 -0.0453939363360405 0.671901285648346
0.5068725943565369 -0.04425886273384094 0.6704722046852112
0.5108017325401306 -0.04036576673388481 0.6672971844673157
0.5173991322517395 -0.04014139249920845 0.6658179759979248
0.5179445147514343 -0.0408053919672966 0.6661122441291809
0.519749641418457 -0.04236815124750137 0.6666990518569946
0.5213682055473328 -0.044347699731588364 0.667577862739563
0.5220833420753479 -0.04458606243133545 0.667577862739563
0.5254664421081543 -0.04809417203068733 0.6690303683280945
0.531213104724884 -0.048052869737148285 0.6678361892700195
0.5379037857055664 -0.042480070143938065 0.663074254989624
0.5406873822212219 -0.03828078508377075 0.659945547580719
0.5424644351005554 -0.038110438734292984 0.6594796180725098
0.5440787672996521 -0.03829685598611832 0.659264862537384
0.5460366606712341 -0.03955775126814842 0.6596364974975586
0.546645998954773 -0.040064454078674316 0.659821093082428
0.5498095154762268 -0.04232964292168617 0.6605604290962219
0.5541437864303589 -0.04561568424105644 0.6616838574409485
0.5554648637771606 -0.04637501388788223 0.6618785262107849
0.5579619407653809 -0.048161283135414124 0.6624609231948853
0.5591695308685303 -0.04748110845685005 0.66180020570755
0.5602766871452332 -0.04700099304318428 0.6612820625305176
0.5626152753829956 -0.04582163318991661 0.6600862741470337
0.5633493661880493 -0.046066317707300186 0.6600862741470337
0.5645384788513184 -0.0454527921974659 0.6594700217247009
0.5669339895248413 -0.04421466588973999 0.6582272052764893
0.5681422352790833 -0.04358578473329544 0.6575974225997925
0.5700976252555847 -0.04320186749100685 0.6569655537605286
0.5725436210632324 -0.0419326089322567 0.6556932926177979
0.5745213031768799 -0.04154282808303833 0.6550533771514893
0.5770025253295898 -0.04025787115097046 0.6537644267082214
0.5782519578933716 -0.03960960730910301 0.6531142592430115
0.43924352526664734 -0.03409189358353615 0.6771628260612488
0.4416734278202057 -0.03648512065410614 0.6781319975852966
0.4435120224952698 -0.038147494196891785 0.678774356842041
0.4452298581600189 -0.04028506577014923 0.6797323226928711
0.4494636058807373 -0.044103145599365234 0.6812057495117188
0.4500407874584198 -0.044742148369550705 0.6814793348312378
0.45119160413742065 -0.04601592570543289 0.6820244193077087
0.45358386635780334 -0.048142172396183014 0.6828380823135376
0.4559623897075653 -0.05025218427181244 0.6836442351341248
0.45652833580970764 -0.050876911729574203 0.6839110851287842
0.45994803309440613 -0.054427873343229294 0.6853874325752258
0.46197113394737244 -0.0651169940829277 0.6915187835693359
0.4630836844444275 -0.06862322241067886 0.6934379935264587
0.4662964940071106 -0.07211513817310333 0.6949201226234436
0.4684324860572815 -0.07211215049028397 0.6944826245307922
0.47050660848617554 -0.07232575118541718 0.6941900253295898
0.47193869948387146 -0.07232392579317093 0.6938966512680054
0.4726559817790985 -0.07232300937175751 0.6937497854232788
0.4826168119907379 -0.06433726102113724 0.6868279576301575
0.48441916704177856 -0.063420869410038 0.6858990788459778
0.4966733157634735 -0.04830542951822281 0.6741445064544678
0.4977606236934662 -0.04747423529624939 0.6734139323234558
0.5006633996963501 -0.04600992426276207 0.6719251275062561
0.5038294196128845 -0.046010203659534454 0.6712788939476013
0.5046160817146301 -0.04602893069386482 0.6711298227310181
0.5079038739204407 -0.04371174797415733 0.6690402626991272
0.5092113614082336 -0.042418207973241806 0.6679815649986267
0.5125740766525269 -0.040040016174316406 0.6658393144607544
0.5137914419174194 -0.03902601823210716 0.664970338344574
0.5182996392250061 -0.041994817554950714 0.6658676862716675
0.5190173983573914 -0.042234066873788834 0.6658676862716675
0.5229687690734863 -0.046412143856287 0.6676191687583923
0.526294469833374 -0.050003256648778915 0.6691389083862305
0.5285892486572266 -0.05034063756465912 0.6688774228096008
0.5345752835273743 -0.04619619622826576 0.665118396282196
0.5360726714134216 -0.04474194720387459 0.6639226078987122
0.5458380579948425 -0.04008268564939499 0.6590772867202759
0.548397958278656 -0.04184407368302345 0.6596333384513855
0.5490044355392456 -0.04234851151704788 0.659818172454834
0.5515386462211609 -0.04412747547030449 0.6603904366493225
0.5539126992225647 -0.04619579389691353 0.6611719131469727
0.5564132332801819 -0.04798278957605362 0.6617558598518372
0.5570018887519836 -0.048495907336473465 0.6619496941566467
0.5583361387252808 -0.04921405017375946 0.6621172428131104
0.5600290894508362 -0.04924321919679642 0.6617894768714905
0.5630577206611633 -0.048379577696323395 0.6606428623199463
0.5642412900924683 -0.0477730855345726 0.6600295901298523
0.5654278993606567 -0.04716825485229492 0.6594171524047852
0.5666230916976929 -0.04655411094427109 0.6587974429130554
0.5685631632804871 -0.046178463846445084 0.6581717133522034
0.5697723031044006 -0.04555550962686539 0.6575433015823364
0.5709865093231201 -0.044929973781108856 0.6569128632545471
0.5722060799598694 -0.04430186375975609 0.6562791466712952
0.5741743445396423 -0.04391912743449211 0.6556434035301208
0.5766432881355286 -0.042650312185287476 0.6543627977371216
0.5778864026069641 -0.04201069101691246 0.6537176370620728
0.5786347389221191 -0.042260173708200455 0.6537176370620728
0.5798851251602173 -0.04161806404590607 0.653069019317627
0.43790683150291443 -0.033236704766750336 0.676047146320343
0.44092586636543274 -0.036357492208480835 0.6773455739021301
0.44208183884620667 -0.03779248893260956 0.6779901385307312
0.4427673816680908 -0.03802100569009781 0.6779901385307312
0.44633036851882935 -0.04172438010573387 0.679535448551178
0.4469127655029297 -0.04236815497279167 0.6798112392425537
0.45106029510498047 -0.04642925411462784 0.681456446647644
0.45231011509895325 -0.047289203852415085 0.6817288398742676
0.4569362699985504 -0.052004702389240265 0.683677613735199
0.45815712213516235 -0.05289788916707039 0.6839761734008789
0.4616028368473053 -0.0562744215130806 0.6853445768356323
0.4621657431125641 -0.0568617545068264 0.6855903267860413
0.46225064992904663 -0.06656507402658463 0.6915321350097656
0.464031457901001 -0.07018053531646729 0.6933878660202026
0.4647882878780365 -0.07237710058689117 0.6945820450782776
0.4689825475215912 -0.07261146605014801 0.6938673257827759
0.4841884970664978 -0.06409797817468643 0.6855258941650391
0.48903632164001465 -0.05454511195421219 0.6786664128303528
0.4902184307575226 -0.05336415395140648 0.6776994466781616
0.4920973777770996 -0.05240463465452194 0.6767253875732422
0.4932985007762909 -0.05120767652988434 0.6757440567016602
0.4945087730884552 -0.050001710653305054 0.6747559309005737
0.4957275390625 -0.04878699779510498 0.6737601161003113
0.49642375111579895 -0.049019068479537964 0.6737601161003113
0.4995128810405731 -0.047018248587846756 0.6718990206718445
0.506340503692627 -0.04573085531592369 0.6697105169296265
0.5109704732894897 -0.0421002171933651 0.6665329933166504
0.5199117660522461 -0.04407769814133644 0.6659170985221863
0.523819088935852 -0.048300474882125854 0.6677107214927673
0.5245305895805359 -0.04853762313723564 0.6677107214927673
0.5320627093315125 -0.04817965626716614 0.6659488677978516
0.5357548594474792 -0.045532092452049255 0.663567066192627
0.5474555492401123 -0.04214387759566307 0.6590905785560608
0.5505774021148682 -0.044465918093919754 0.659877598285675
0.5555923581123352 -0.04804699122905731 0.6610503196716309
0.5580949187278748 -0.04980674013495445 0.6616189479827881
0.5587542057037354 -0.050178296864032745 0.6617121696472168
0.5600714087486267 -0.050920914858579636 0.6618983149528503
0.562768280506134 -0.05067368596792221 0.6611946225166321
0.5651277303695679 -0.04947614297270775 0.6599761247634888
0.5670466423034668 -0.04911933094263077 0.6593639850616455
0.5682460069656372 -0.048504605889320374 0.6587409377098083
0.5706580877304077 -0.047271233052015305 0.657490074634552
0.5726104378700256 -0.04689711704850197 0.6568603515625
0.5750564932823181 -0.04564960300922394 0.6555933952331543
0.5762875080108643 -0.04502154886722565 0.654956042766571
0.5782691240310669 -0.04463930055499077 0.6543153524398804
0.5795131921768188 -0.044005151838064194 0.6536712646484375
0.5807626247406006 -0.04336823895573616 0.653023898601532
0.437153160572052 -0.03310616686940193 0.6752551198005676
0.4383242726325989 -0.034556545317173004 0.675908088684082
0.4419131577014923 -0.03838103637099266 0.6775273084640503
0.44794321060180664 -0.044067442417144775 0.6797923445701599
0.4486226737499237 -0.04429392144083977 0.6797923445701599
0.45275092124938965 -0.04833294451236725 0.6814329624176025
0.45456594228744507 -0.04981439933180809 0.681972861289978
0.45855948328971863 -0.054027676582336426 0.6837484240531921
0.46327656507492065 -0.05802321806550026 0.6852415800094604
0.46395277976989746 -0.07040702551603317 0.6927320957183838
0.4647343158721924 -0.07252354174852371 0.6938755512237549
0.46668344736099243 -0.07311245799064636 0.6938382983207703
0.4779382348060608 -0.07375607639551163 0.6919232606887817
0.4786611497402191 -0.07375579327344894 0.6917747259140015
0.48003458976745605 -0.07397225499153137 0.6916261315345764
0.48395827412605286 -0.06477407366037369 0.6851534843444824
0.4899783432483673 -0.0540626160800457 0.6773178577423096
0.490664005279541 -0.05429116636514664 0.6773178577423096
0.4983384907245636 -0.04810104891657829 0.671927809715271
0.5060754418373108 -0.046464599668979645 0.6693307757377625
0.5142331123352051 -0.04008021205663681 0.6637221574783325
0.5162855982780457 -0.041062887758016586 0.6639059782028198
0.5173774361610413 -0.04238718003034592 0.6644974946975708
0.5202627778053284 -0.04525760933756828 0.665673553943634
0.5215058326721191 -0.04617399722337723 0.6659831404685974
0.5252760052680969 -0.050639647990465164 0.6679597496986389
0.5257707238197327 -0.05136223882436752 0.6683034300804138
0.5288378596305847 -0.05178619548678398 0.6679350137710571
0.5302881598472595 -0.05037990212440491 0.6667703986167908
0.5317521095275879 -0.048958417028188705 0.6655943393707275
0.5339465737342834 -0.04776434227824211 0.6644080281257629
0.5354378819465637 -0.04632032290101051 0.6632121205329895
0.5408347845077515 -0.04009575769305229 0.6582685112953186
0.5426561236381531 -0.0398302897810936 0.657730758190155
0.5440898537635803 -0.040396735072135925 0.6577858924865723
0.5491556525230408 -0.04401165619492531 0.6589728593826294
0.5522665977478027 -0.046324461698532104 0.6597585082054138
0.5578540563583374 -0.05039909482002258 0.6611213684082031
0.5612126588821411 -0.05212416499853134 0.661494255065918
0.5625242590904236 -0.05286793038249016 0.6616833209991455
0.5643791556358337 -0.052600644528865814 0.6611377596855164
0.5667396783828735 -0.05141521617770195 0.6599224805831909
0.569129467010498 -0.05020269379019737 0.6586846709251404
0.5710660815238953 -0.049837466329336166 0.658062219619751
0.5722753405570984 -0.049225229769945145 0.6574364304542542
0.5747095942497253 -0.04799271747469902 0.6561772227287292
0.5754484534263611 -0.04823898896574974 0.6561772227287292
0.5766749382019043 -0.04761934280395508 0.6555432677268982
0.5791441202163696 -0.04637199267745018 0.6542677283287048
0.5803877115249634 -0.04574263468384743 0.6536251306533813
0.5823832750320435 -0.04535982757806778 0.6529795527458191
0.43757209181785583 -0.03442712500691414 0.6751174330711365
0.43942826986312866 -0.03610110655426979 0.6757698655128479
0.4436293840408325 -0.04039435833692551 0.6775578260421753
0.4442163109779358 -0.041041359305381775 0.6778369545936584
0.4537557363510132 -0.050020117312669754 0.6814204454421997
0.4544295370578766 -0.05024471506476402 0.6814204454421997
0.46024367213249207 -0.055793266743421555 0.6836522221565247
0.46080857515335083 -0.056382790207862854 0.6839001178741455
0.4616904556751251 -0.06593983620405197 0.6896250247955322
0.4624648094177246 -0.06818152964115143 0.6908509135246277
0.47280609607696533 -0.07404106110334396 0.6923420429229736
0.4742412269115448 -0.07404131442308426 0.6920467019081116
0.4749598205089569 -0.07404135167598724 0.6918982267379761
0.4763273298740387 -0.07425767928361893 0.6917504668235779
0.4784921109676361 -0.0742582231760025 0.691304624080658
0.4848684072494507 -0.06431284546852112 0.6838447451591492
0.4860163629055023 -0.06316928565502167 0.6829010844230652
0.49161243438720703 -0.053807083517313004 0.675961971282959
0.4928097724914551 -0.052617575973272324 0.6749804019927979
0.4940156936645508 -0.051419295370578766 0.673991322517395
0.5006131529808044 -0.04836706817150116 0.6707459092140198
0.5022915601730347 -0.0481015183031559 0.6702357530593872
0.5038595199584961 -0.048140812665224075 0.669937252998352
0.5045621395111084 -0.04837501049041748 0.669937252998352
0.5058107376098633 -0.047197047621011734 0.6689518690109253
0.507101833820343 -0.04592522233724594 0.667900025844574
0.5084023475646973 -0.044643696397542953 0.6668397784233093
0.5097128748893738 -0.04335229843854904 0.6657716035842896
0.5104259252548218 -0.04358997941017151 0.6657716035842896
0.5130574107170105 -0.04104160889983177 0.6636543273925781
0.5166435241699219 -0.042253024876117706 0.6636644005775452
0.5255095958709717 -0.05204005166888237 0.6678865551948547
0.5262524485588074 -0.05219704285264015 0.6678308844566345
0.5285610556602478 -0.05249250307679176 0.6675376892089844
0.5366222858428955 -0.045655444264411926 0.6616514325141907
0.539789080619812 -0.04062623530626297 0.6578904986381531
0.5405218005180359 -0.040870510041713715 0.6578904986381531
0.5424034595489502 -0.04047403112053871 0.657258152961731
0.5458015203475952 -0.0422678105533123 0.6576662659645081
0.5464009046554565 -0.042790357023477554 0.6578661799430847
0.5514431595802307 -0.046388592571020126 0.6590511202812195
0.5539494156837463 -0.04817575588822365 0.6596392393112183
0.55454021692276 -0.0486890971660614 0.659835159778595
0.5595883131027222 -0.052102167159318924 0.660904586315155
0.5636633634567261 -0.05406423658132553 0.6612774133682251
0.5643094182014465 -0.05445007607340813 0.6613829135894775
0.5664358735084534 -0.053690697997808456 0.6604755520820618
0.5676200985908508 -0.053097669035196304 0.659865140914917
0.5683479309082031 -0.05334028974175453 0.659865140914917
0.57073974609375 -0.0521380715072155 0.6586293578147888
0.5719432234764099 -0.05153321102261543 0.6580073833465576
0.5731521844863892 -0.05092592164874077 0.657383143901825
0.5751015543937683 -0.050561223179101944 0.6567563414573669
0.5763218402862549 -0.049949415028095245 0.6561267375946045
0.5775476098060608 -0.04933476820588112 0.6554940342903137
0.5787791013717651 -0.048717498779296875 0.6548590064048767
0.5807576179504395 -0.048344746232032776 0.6542213559150696
0.5820019841194153 -0.04772065207362175 0.6535788178443909
0.4355408847332001 -0.03334178403019905 0.6739975214004517
0.43623173236846924 -0.033572059124708176 0.6739975214004517
0.44045236706733704 -0.037985533475875854 0.6758617758750916
0.4446709156036377 -0.0421043299138546 0.6775436401367188
0.4495157301425934 -0.04639904201030731 0.6792048811912537
0.45009228587150574 -0.0470326691865921 0.6794787049293518
0.45191749930381775 -0.04852088913321495 0.6800240874290466
0.45649614930152893 -0.05066528171300888 0.6804074645042419
0.457560658454895 -0.05216972902417183 0.6811202168464661
0.4620192348957062 -0.06722119450569153 0.6895305514335632
0.46385520696640015 -0.07066133618354797 0.6912840008735657
0.46424752473831177 -0.07172257453203201 0.6918607354164124
0.4656699299812317 -0.07404511421918869 0.693006694316864
0.46635982394218445 -0.07410871237516403 0.6929036378860474
0.46849289536476135 -0.07410949468612671 0.6924632787704468
0.47056448459625244 -0.07432493567466736 0.6921688318252563
0.4719947278499603 -0.07432539761066437 0.6918737888336182
0.4726408123970032 -0.07454075664281845 0.6918737888336182
0.48041942715644836 -0.07497738301753998 0.6905368566513062
0.48578324913978577 -0.06384947150945663 0.6825289726257324
0.4913705885410309 -0.05450667068362236 0.6755820512771606
0.4937693178653717 -0.05212779343128204 0.6736111640930176
0.4967106282711029 -0.05046146363019943 0.6719703674316406
0.4978013336658478 -0.04962361603975296 0.6712254285812378
0.5012601613998413 -0.04878242686390877 0.6699889898300171
0.5068352818489075 -0.046660326421260834 0.6675211787223816
0.5094419717788696 -0.04409543424844742 0.6653922200202942
0.5101543068885803 -0.04433288797736168 0.6653922200202942
0.5159086585044861 -0.04211834818124771 0.662830114364624
