ply
format ascii 1.0
element vertex 816
property float x
property float y
property float z
end_header
0.6311889886856079 0.03008105792105198 0.6879359483718872
0.6289733648300171 0.034085534512996674 0.6893198490142822
0.6260772347450256 0.03489205241203308 0.6877031326293945
0.6210246086120605 0.03601789474487305 0.6846652626991272
0.6167805790901184 0.036750294268131256 0.6819483637809753
0.6111356019973755 0.03829255327582359 0.6787742376327515
0.6066928505897522 0.03906508535146713 0.6759344935417175
0.6440773010253906 -0.015624850988388062 0.6617363691329956
0.6423081755638123 -0.011847511865198612 0.6632944941520691
0.6417511105537415 -0.010529018938541412 0.663885235786438
0.6442552208900452 0.005576628260314465 0.67832350730896
0.6371052861213684 0.010028745047748089 0.6762305498123169
0.6365779638290405 0.01007395051419735 0.6758564114570618
0.6343321204185486 0.012299113906919956 0.6758403778076172
0.6341819167137146 0.014258861541748047 0.6772443652153015
0.6341331601142883 0.015283660963177681 0.6780015230178833
0.634084939956665 0.01630282588303089 0.6787549257278442
0.6321732401847839 0.026579514145851135 0.6852447986602783
0.6202428340911865 0.03650353103876114 0.6836880445480347
0.6141180992126465 0.03808609023690224 0.680164098739624
0.613550066947937 0.038141828030347824 0.6797667145729065
0.6103145480155945 0.038793984800577164 0.6777623295783997
0.6460199952125549 -0.019424105063080788 0.6594804525375366
0.6456252336502075 -0.01902930997312069 0.6594804525375366
0.6438822150230408 -0.015096234157681465 0.6611843109130859
0.6433185935020447 -0.013763349503278732 0.6617828607559204
0.6414941549301147 -0.007521992549300194 0.6652191877365112
0.6403927803039551 0.009827486239373684 0.6778608560562134
0.6389826536178589 0.010288158431649208 0.677122175693512
0.6339691281318665 0.0180621650069952 0.6792699098587036
0.6332318186759949 0.022053999826312065 0.681801974773407
0.6329540014266968 0.02471773698925972 0.683658242225647
0.6321696043014526 0.028455892577767372 0.6859563589096069
0.6318106055259705 0.028814751654863358 0.6859563589096069
0.6247298121452332 0.03615706413984299 0.6861598491668701
0.624190628528595 0.03620881959795952 0.6857804656028748
0.6236500144004822 0.0362606905400753 0.6854003071784973
0.6148118376731873 0.0381038635969162 0.6799580454826355
0.606407642364502 0.040278635919094086 0.6751112341880798
0.6058183312416077 0.040338557213544846 0.6746994256973267
0.6466278433799744 -0.02107968181371689 0.6578451991081238
0.6451614499092102 -0.01777956262230873 0.6592757701873779
0.6442266702651978 -0.015970271080732346 0.6599582433700562
0.6421939730644226 -0.01146284956485033 0.6618888974189758
0.642252504825592 -0.009986833669245243 0.6630863547325134
0.6448707580566406 0.006411692593246698 0.6779236197471619
0.644575834274292 0.00816743541508913 0.6790633201599121
0.641726553440094 0.010130862705409527 0.6783722043037415
0.6406943798065186 0.010221060365438461 0.6776372194290161
0.6347413063049316 0.01605512574315071 0.6775442957878113
0.6342155933380127 0.01833181083202362 0.6789105534553528
0.6340271830558777 0.020152248442173004 0.6801837682723999
0.632737398147583 0.026210391893982887 0.6839042901992798
0.6315006613731384 0.03213684633374214 0.6875631809234619
0.6304228901863098 0.03418724238872528 0.6883220076560974
0.6284210085868835 0.03556360676884651 0.6878340840339661
0.6270033121109009 0.03602154180407524 0.6870852708816528
0.6183048486709595 0.03784514591097832 0.6817212700843811
0.6173834800720215 0.0382646806538105 0.6813297867774963
0.6094529032707214 0.04005688056349754 0.6765403747558594
0.6082895994186401 0.04017561301589012 0.6757254600524902
0.6469779014587402 -0.027873186394572258 0.6519817113876343
0.6471894979476929 -0.02581852860748768 0.6537546515464783
0.6461782455444336 -0.019779466092586517 0.6576884984970093
0.6457821726799011 -0.019383443519473076 0.6576884984970093
0.6437219381332397 -0.014835493639111519 0.6596349477767944
0.6434187293052673 0.010064786300063133 0.6788800358772278
0.6385459899902344 0.011169176548719406 0.6759316325187683
0.6362232565879822 0.012051461264491081 0.6748046278953552
0.6351472735404968 0.014395486563444138 0.6757966876029968
0.6342675089836121 0.020410438999533653 0.6798145174980164
0.631015419960022 0.03408750891685486 0.6879711747169495
0.6222878694534302 0.0375366173684597 0.6838412880897522
0.6202835440635681 0.03806125745177269 0.6826835870742798
0.6197324395179749 0.03811630234122276 0.6822954416275024
0.6191797256469727 0.038171395659446716 0.6819061040878296
0.6160260438919067 0.038815587759017944 0.6799426674842834
0.6128257513046265 0.03946917876601219 0.6779500842094421
0.6107349395751953 0.04001414775848389 0.6767405271530151
0.606308102607727 0.04084451124072075 0.6739267110824585
0.6450313925743103 -0.017452772706747055 0.6577916741371155
0.6434186697006226 -0.01320529356598854 0.6598591804504395
0.6460893154144287 0.002450888743624091 0.6742385625839233
0.6459705233573914 0.004676449112594128 0.675891637802124
0.6441010236740112 0.010128756985068321 0.678702712059021
0.6426933407783508 0.010546104982495308 0.6779258251190186
0.6337354183197021 0.024550188332796097 0.6818851232528687
0.6322466135025024 0.030091091990470886 0.685064435005188
0.6290194392204285 0.03628981113433838 0.6873959302902222
0.6265538930892944 0.03687639907002449 0.6859216094017029
0.6127862334251404 0.0402226597070694 0.67774498462677
0.6478999257087708 -0.029218358919024467 0.6499693989753723
0.6468861103057861 -0.021579258143901825 0.6551822423934937
0.645939826965332 -0.01973988302052021 0.6558852791786194
0.6441287994384766 -0.015917180106043816 0.6574680209159851
0.6438446640968323 -0.015244805254042149 0.6577734351158142
0.6462182998657227 0.006196919828653336 0.6765118837356567
0.6386315822601318 0.01200451422482729 0.6751120686531067
0.6356111168861389 0.016004269942641258 0.6758826375007629
0.6350419521331787 0.018207458779215813 0.6771682500839233
0.634284496307373 0.02218743786215782 0.679703950881958
0.6341874599456787 0.023077651858329773 0.6803278923034668
0.6330465078353882 0.028298581019043922 0.683538019657135
0.6319662928581238 0.032448358833789825 0.6859533190727234
0.6234590411186218 0.03823767602443695 0.6838148832321167
0.6203687191009521 0.03887566551566124 0.6818851828575134
0.6157463192939758 0.040004197508096695 0.6791362762451172
0.614051342010498 0.04017997533082962 0.6779409646987915
0.6108225584030151 0.04084654152393341 0.6759248375892639
0.647919237613678 -0.023613223806023598 0.6535635590553284
0.6460191011428833 -0.019918937236070633 0.654979407787323
0.6451589465141296 -0.01787269115447998 0.6559151411056519
0.6467692255973816 0.0021798559464514256 0.6730078458786011
0.6460720896720886 0.008018297143280506 0.6770647168159485
0.6459751725196838 0.009014515206217766 0.6777740716934204
0.6404948830604553 0.012253480032086372 0.6760057806968689
0.6364970803260803 0.014184183441102505 0.6743747591972351
0.6342465877532959 0.024057798087596893 0.6803896427154541
0.6336224675178528 0.02604720927774906 0.6814669370651245
0.63210529088974 0.03252174332737923 0.68537837266922
0.6302343010902405 0.03614075854420662 0.6867576241493225
0.6262803077697754 0.03803721442818642 0.68513423204422
0.6257453560829163 0.03809136524796486 0.6847547888755798
0.6246708035469055 0.03820027783513069 0.6839928030967712
0.6164361834526062 0.04002048075199127 0.6789315938949585
0.6082969903945923 0.04160045459866524 0.6737563014030457
0.6488389372825623 -0.025995926931500435 0.6515726447105408
0.6480021476745605 -0.0237995907664299 0.6526483297348022
0.6470480561256409 -0.02194463461637497 0.6533612012863159
0.6475156545639038 0.0011071943445131183 0.6719710230827332
0.6460250020027161 0.010052538476884365 0.6778696179389954
0.6456686854362488 0.010442285798490047 0.6778960824012756
0.6432203650474548 0.01208515651524067 0.6772587299346924
0.6411654949188232 0.012275601737201214 0.6757835149765015
0.6374151110649109 0.013558865524828434 0.6738314628601074
0.6360957026481628 0.016525985673069954 0.6751353144645691
0.6353253126144409 0.020538941025733948 0.6777008771896362
0.6344367861747742 0.024218980222940445 0.6799095869064331
0.6327303051948547 0.03042730502784252 0.6834717392921448
0.631567120552063 0.03438452631235123 0.685682475566864
0.6280086040496826 0.03794655576348305 0.6856852769851685
0.618987500667572 0.040168166160583496 0.6803051829338074
0.6184329390525818 0.040226325392723083 0.6799123883247375
0.6120594143867493 0.0415562242269516 0.6759214401245117
0.6105398535728455 0.042049091309309006 0.6751091480255127
0.6099621057510376 0.04211122542619705 0.6747012138366699
0.6081119179725647 0.042142607271671295 0.6732621192932129
0.6480852961540222 -0.023986447602510452 0.6517301797866821
0.6476840376853943 -0.02358531579375267 0.6517301797866821
0.6458643078804016 -0.019659437239170074 0.6534011960029602
0.6451062560081482 -0.015940602868795395 0.6557507514953613
0.647323489189148 0.004143157042562962 0.6734458804130554
0.6471539735794067 0.006248048972338438 0.6749817728996277
0.644393801689148 0.012059981934726238 0.6774032711982727
0.6381614804267883 0.013726816512644291 0.673780620098114
0.6373338103294373 0.014291997998952866 0.6735721826553345
0.636134147644043 0.01861690729856491 0.6760520935058594
0.6335582733154297 0.02868119813501835 0.6819939017295837
0.63103187084198 0.03623732179403305 0.6859849691390991
0.6288101077079773 0.038207538425922394 0.6857852935791016
0.6222270131111145 0.03959224000573158 0.681660532951355
0.6213194727897644 0.040010545402765274 0.6812722682952881
0.6496936678886414 -0.027520716190338135 0.6493595242500305
0.6469106674194336 -0.021647511050105095 0.6518184542655945
0.6482000946998596 0.000833173340652138 0.6707324385643005
0.6480679512023926 0.003079742891713977 0.6724150776863098
0.6422805786132812 0.01300894096493721 0.6757106184959412
0.638457179069519 0.014100603759288788 0.673537015914917
0.6366834044456482 0.01612658053636551 0.6737377047538757
0.6363610625267029 0.018847331404685974 0.6756461262702942
0.6359927654266357 0.019215743988752365 0.6756461262702942
0.6354455351829529 0.022528601810336113 0.6778468489646912
0.6345422267913818 0.026147006079554558 0.68000727891922
0.6326851844787598 0.032021474093198776 0.6832039952278137
0.6261385679244995 0.039270009845495224 0.6837625503540039
0.622181236743927 0.04032963886857033 0.6814568042755127
0.6164803504943848 0.04158870875835419 0.6779223680496216
0.6144242286682129 0.04213811457157135 0.6767235994338989
0.6138575077056885 0.042199768126010895 0.6763215065002441
0.6132888793945312 0.04226171597838402 0.6759185194969177
0.6506314873695374 -0.029946783557534218 0.6473273634910583
0.6488128304481506 -0.025832654908299446 0.6491589546203613
0.6478498578071594 -0.023959534242749214 0.6498852372169495
0.6463153958320618 -0.01926131546497345 0.652409553527832
0.6491613388061523 -0.0036854136269539595 0.6671093106269836
0.6485767960548401 0.00012934289406985044 0.6696868538856506
0.6484420895576477 0.002385232364758849 0.6713794469833374
0.6471993327140808 0.008226987905800343 0.6750492453575134
0.6360456943511963 0.02020666003227234 0.6757083535194397
0.6347031593322754 0.026252159848809242 0.6794609427452087
0.6340069770812988 0.0280904620885849 0.6803724765777588
0.633151650428772 0.030645083636045456 0.6817283630371094
0.6319798827171326 0.034602902829647064 0.6839513182640076
0.6300060153007507 0.03802385926246643 0.6851062178611755
0.6250184178352356 0.04011505842208862 0.6827950477600098
0.6239404678344727 0.04022994264960289 0.6820265650749207
0.6203063130378723 0.04094083979725838 0.6796939969062805
0.6162428855895996 0.042029883712530136 0.6773205399513245
0.6100674271583557 0.04286248981952667 0.6730572581291199
0.649867057800293 -0.02790973335504532 0.6474952697753906
0.6479262113571167 -0.024166390299797058 0.6489375829696655
0.6467474102973938 -0.01996447518467903 0.6513568162918091
0.65007084608078 -0.007127679418772459 0.6642879843711853
0.6499974727630615 -0.0059540756046772 0.6651682257652283
0.6482370495796204 0.004120640456676483 0.6718212962150574
0.6481330990791321 0.005138577427715063 0.672552764415741
0.6480297446250916 0.006151217967271805 0.6732802391052246
0.6464201807975769 0.012222621589899063 0.676850438117981
0.6419969201087952 0.014205421321094036 0.6748976707458496
0.6404489874839783 0.014357217587530613 0.673780620098114
0.6353194117546082 0.02402070350944996 0.6774086356163025
0.6341491937637329 0.028161924332380295 0.6797858476638794
0.6320734024047852 0.03459509089589119 0.6832727789878845
0.6267561912536621 0.04001684859395027 0.6833562850952148
0.6242526173591614 0.04060482233762741 0.6818234324455261
0.6180484294891357 0.041922591626644135 0.67791348695755
0.6145108938217163 0.042962897568941116 0.6759151816368103
0.6509380340576172 -0.04790039360523224 0.6314641833305359
0.6520781517028809 -0.03301104158163071 0.6443266868591309
0.6515024304389954 -0.03150367736816406 0.645074188709259
0.6505231261253357 -0.029597043991088867 0.6458182334899902
0.649954080581665 -0.028105219826102257 0.6465586423873901
0.6486954092979431 -0.025493305176496506 0.6476446390151978
0.6479962468147278 -0.024391697719693184 0.6479676365852356
0.6503103375434875 -0.005513735115528107 0.6649728417396545
0.6498566269874573 -0.003969789948314428 0.6658477187156677
0.649712860584259 -0.0016651417827233672 0.6675816178321838
0.6480815410614014 0.008462514728307724 0.6743993163108826
0.6475108861923218 0.01081517618149519 0.675829291343689
0.6447036862373352 0.014025980606675148 0.6761531233787537
0.6441957354545593 0.014075827784836292 0.6757855415344238
0.6436864733695984 0.014125887304544449 0.6754171252250671
0.6380840539932251 0.016025178134441376 0.67244553565979
0.6370731592178345 0.01847914233803749 0.6736034750938416
0.6361469626426697 0.022169580683112144 0.6758216023445129
0.636009156703949 0.02299150638282299 0.6763705611228943
0.6330993175506592 0.03223016858100891 0.6814490556716919
0.6314171552658081 0.03624001890420914 0.6833167672157288
0.6288271546363831 0.03954663872718811 0.6838919520378113
0.6280542016029358 0.04015212506055832 0.6837576031684875
0.6205796003341675 0.04205737262964249 0.679288387298584
0.6194775700569153 0.042179010808467865 0.6785018444061279
0.6183693408966064 0.04230140522122383 0.6777107119560242
0.6103131771087646 0.043009594082832336 0.6718145608901978
0.6519936323165894 -0.04524041339755058 0.6335594058036804
0.6528918743133545 -0.03593197837471962 0.6417726278305054
0.6524589657783508 -0.03397444263100624 0.6429994106292725
0.65188068151474 -0.03246045112609863 0.6437522768974304
0.6496350169181824 -0.027895048260688782 0.6456190347671509
0.6479828357696533 -0.023353716358542442 0.647943913936615
0.6480184197425842 -0.021780937910079956 0.6492381691932678
0.6509263515472412 -0.009794044308364391 0.661223828792572
0.6501685976982117 -0.00353277288377285 0.6656523942947388
0.6500227451324463 -0.001232740469276905 0.6673859357833862
0.6493412852287292 0.00231182505376637 0.6696898341178894
0.6472113132476807 0.012258320115506649 0.675979495048523
0.6459107398986816 0.0128921028226614 0.6754430532455444
0.6358131170272827 0.023475388064980507 0.6758338809013367
0.635132908821106 0.026463821530342102 0.6776912808418274
0.6337341666221619 0.030123131349682808 0.6795102953910828
0.6322527527809143 0.034563321620225906 0.681891143321991
0.630923330783844 0.03816484287381172 0.6837195158004761
0.6223506927490234 0.041951101273298264 0.6798680424690247
0.616091787815094 0.04329434037208557 0.6759123802185059
0.6130796074867249 0.04426128417253494 0.6742666363716125
0.6123105883598328 0.04402951896190643 0.6734613180160522
0.6516831517219543 -0.031909339129924774 0.6431779861450195
0.6507000923156738 -0.02999550849199295 0.6439290642738342
0.6497219800949097 -0.02809113636612892 0.6446763873100281
0.648838460445404 -0.025950521230697632 0.6456908583641052
0.6484567523002625 -0.022493647411465645 0.6481723785400391
0.6510106921195984 -0.00580204650759697 0.6637024879455566
0.6501948833465576 0.00017551712517160922 0.6678677797317505
0.6498189568519592 0.0005514937802217901 0.6678677797317505
0.6489084362983704 0.006054024677723646 0.6715732216835022
0.6486986875534058 0.008067172020673752 0.6730285286903381
0.6481158137321472 0.010408266447484493 0.6744472980499268
0.645683765411377 0.012089810334146023 0.6738417148590088
0.6438987255096436 0.01286241039633751 0.6730248332023621
0.6423805952072144 0.015421764925122261 0.6738649010658264
0.6389908194541931 0.016284329816699028 0.671825647354126
0.6378721594810486 0.01738312467932701 0.6718096137046814
0.6368030309677124 0.020825134590268135 0.6737244725227356
0.6357868313789368 0.024295834824442863 0.6757050156593323
0.6319518089294434 0.03585473820567131 0.6819376945495605
0.6315945982933044 0.03621196746826172 0.6819376945495605
0.6266149878501892 0.041250232607126236 0.6819851994514465
0.6237499713897705 0.04220482334494591 0.680443525314331
0.6226654052734375 0.04232601076364517 0.6796661019325256
0.6160500645637512 0.04403923079371452 0.6757103800773621
0.6154876947402954 0.044103432446718216 0.675308346748352
0.6534972786903381 -0.04173249006271362 0.6358357071876526
0.6536766290664673 -0.039518795907497406 0.6377722024917603
0.6538537740707397 -0.03733201324939728 0.6396851539611816
0.6523531675338745 -0.033629290759563446 0.6414669752120972
0.6498062610626221 -0.028296101838350296 0.6437217593193054
0.6521833539009094 -0.012890195474028587 0.6581118702888489
0.6521022319793701 -0.011680231429636478 0.6590254902839661
0.6514784097671509 -0.007712195627391338 0.6617317199707031
0.6481755971908569 0.010246844962239265 0.6735914945602417
0.6477071642875671 0.010379132814705372 0.6733196377754211
0.6459274291992188 0.011146973818540573 0.6725008487701416
0.6449817419052124 0.011414592154324055 0.6719520688056946
0.644191563129425 0.012041807174682617 0.6718201637268066
0.6407671570777893 0.016336636617779732 0.6725244522094727
0.637843668460846 0.018221108242869377 0.6716839075088501
0.6347090601921082 0.028428230434656143 0.677406907081604
0.6333839893341064 0.032194748520851135 0.6793824434280396
0.6260325312614441 0.04203895106911659 0.6813997030258179
0.6254969835281372 0.04209886118769646 0.681014895439148
0.6204324960708618 0.04330893233418465 0.6778959035873413
0.614506185054779 0.04434190317988396 0.6739360094070435
0.6534408330917358 -0.03577557951211929 0.6397421360015869
0.6518652439117432 -0.03231750428676605 0.6412697434425354
0.6514548659324646 -0.03190726041793823 0.6412697434425354
0.6496853828430176 -0.02753215841948986 0.6433842182159424
0.6509416699409485 -0.0012916277628391981 0.6656972169876099
0.650230884552002 0.002207276178523898 0.6679598689079285
0.65012127161026 0.003236725926399231 0.6687061786651611
0.6500120162963867 0.004260698799043894 0.6694483757019043
0.6479576230049133 0.009430061094462872 0.6719763278961182
0.6461726427078247 0.010197666473686695 0.6711506247520447
0.6434364318847656 0.016029786318540573 0.6736628413200378
0.6405510902404785 0.01677892357110977 0.6719293594360352
0.6380674242973328 0.018443532288074493 0.6712648272514343
0.6367849707603455 0.022553330287337303 0.6735590696334839
0.6360698938369751 0.024421436712145805 0.6744948625564575
0.6355528831481934 0.02665380947291851 0.6758868098258972
0.634074330329895 0.03017916902899742 0.6775476932525635
0.6338743567466736 0.03084668703377247 0.6779269576072693
0.6325193643569946 0.034509025514125824 0.679799497127533
0.6307962536811829 0.03842415660619736 0.6815782189369202
0.6291975975036621 0.04052763432264328 0.6819878816604614
0.6192858219146729 0.04417366534471512 0.6769033074378967
0.6547232866287231 -0.04585807025432587 0.6317106485366821
0.6548967957496643 -0.04359716549515724 0.6336914300918579
0.6522467136383057 -0.03328276425600052 0.6399284601211548
0.6506649255752563 -0.029887519776821136 0.6414042115211487
0.6501604914665222 -0.026653723791241646 0.6436253190040588
0.6528165936470032 -0.011982317082583904 0.6577256321907043
0.6521050333976746 -0.006824247073382139 0.661344051361084
0.6520253419876099 -0.005650007165968418 0.6622346639633179
0.6518115997314453 -0.003467017086222768 0.6638372540473938
0.6497899889945984 0.00595651101320982 0.6698606610298157
0.6485804915428162 0.008103961125016212 0.6706238389015198
0.6467912197113037 0.008870250545442104 0.6697913408279419
0.6459444761276245 0.009374658577144146 0.6695126891136169
0.6452605128288269 0.010257136076688766 0.6696743965148926
0.6442930698394775 0.01410782989114523 0.672020673751831
0.6374560594558716 0.02034052275121212 0.6715289354324341
0.6362112760543823 0.02448349818587303 0.673887312412262
0.6335650086402893 0.032152559608221054 0.6779746413230896
0.6317619681358337 0.03598795831203461 0.6796284317970276
0.6315284371376038 0.03657221794128418 0.6799138784408569
0.6250441670417786 0.04296492412686348 0.6798393130302429
0.6210667490959167 0.044059380888938904 0.6774932742118835
0.6184977889060974 0.044678278267383575 0.6759064793586731
0.6542192697525024 -0.03774096444249153 0.6370301842689514
0.6539242267608643 -0.03696933016180992 0.6374190449714661
0.6532161831855774 -0.0357862189412117 0.6378069519996643
0.6516366600990295 -0.032316938042640686 0.6393489837646484
0.6513469219207764 -0.031557608395814896 0.6397321224212646
0.6523087024688721 -0.005282929632812738 0.6619583368301392
0.6520746350288391 -0.0031520521733909845 0.6635061502456665
0.651351809501648 0.0003781486302614212 0.6657970547676086
0.6500173807144165 0.006186529528349638 0.6694480776786804
0.6497675180435181 0.0068533821031451225 0.6697883009910583
0.6479904055595398 0.007643851451575756 0.6689831018447876
0.6461265087127686 0.008260630071163177 0.6679653525352478
0.6457529067993164 0.00863428134471178 0.6679653525352478
0.6444898843765259 0.01427085604518652 0.6715343594551086
0.642036497592926 0.017131207510828972 0.6718665361404419
0.636003851890564 0.026033302769064903 0.6742081046104431
0.6350276470184326 0.028429869562387466 0.6753672361373901
0.630865752696991 0.03821106255054474 0.6799528002738953
0.6261937618255615 0.0428258515894413 0.6799061298370361
0.6224743723869324 0.04430609941482544 0.6780789494514465
0.616420567035675 0.04505988582968712 0.6737539768218994
0.6560454368591309 -0.04110643267631531 0.6348926424980164
0.6553764939308167 -0.03976883739233017 0.6354398727416992
0.6524317264556885 -0.03369785472750664 0.6379982233047485
0.6546663641929626 -0.017979858443140984 0.6526892781257629
0.6540085673332214 -0.01389023382216692 0.6554977297782898
0.6518425941467285 -0.0014032024191692472 0.6639437675476074
0.6508935689926147 0.004145033657550812 0.6677075624465942
0.6490923762321472 0.006171144545078278 0.6678916215896606
0.6477689146995544 0.006805675104260445 0.6673278212547302
0.6453552842140198 0.01233197096735239 0.669874906539917
0.6443908214569092 0.016150960698723793 0.6722108125686646
0.6404200792312622 0.01805335283279419 0.6705182790756226
0.6381251811981201 0.020113712176680565 0.6703263521194458
0.6372124552726746 0.022736191749572754 0.6717254519462585
0.6360995769500732 0.026007594540715218 0.673491895198822
0.6358946561813354 0.026687927544116974 0.673880934715271
0.6343486309051514 0.030106602236628532 0.6754135489463806
0.6326655149459839 0.03422921150922775 0.6774097084999084
0.631834864616394 0.03576613590121269 0.6779876351356506
0.6297540664672852 0.04003747180104256 0.6797803640365601
0.6281149983406067 0.0420774482190609 0.6801084280014038
0.6235429048538208 0.044015154242515564 0.6779526472091675
0.6204039454460144 0.04462135210633278 0.6758798360824585
0.6541191935539246 -0.03738914430141449 0.6354789137840271
0.6538200378417969 -0.03662652149796486 0.6358591914176941
0.6518810987472534 -0.03255204111337662 0.6376116871833801
0.654236912727356 -0.012219801545143127 0.6562300324440002
0.6534600257873535 -0.007181272376328707 0.6597270965576172
0.6521046757698059 -0.001089977566152811 0.6636137366294861
0.6517592072486877 0.0020368483383208513 0.6658961772918701
0.6498255133628845 0.005065546836704016 0.6667947769165039
0.6483988165855408 0.005454420577734709 0.6659429669380188
0.6479213237762451 0.005584637634456158 0.665658175945282
0.6470668911933899 0.006090953480452299 0.6653724908828735
0.6445867419242859 0.016313958913087845 0.671726405620575
0.642266571521759 0.018272338435053825 0.6714295148849487
0.6402314305305481 0.018556153401732445 0.6699923872947693
0.6398616433143616 0.018925976008176804 0.6699923872947693
0.638314425945282 0.02026575617492199 0.6698221564292908
0.6379444003105164 0.02063584513962269 0.6698221564292908
0.6366084218025208 0.02461404912173748 0.6719905138015747
0.6352109909057617 0.02837308868765831 0.673928439617157
0.6337769627571106 0.031974636018276215 0.6757071614265442
0.6335389614105225 0.03256900608539581 0.6759995818138123
0.6316364407539368 0.03624152019619942 0.6774521470069885
0.6299959421157837 0.03931327536702156 0.6786266565322876
0.6282565593719482 0.04216564819216728 0.6795399785041809
0.6242163181304932 0.04402957111597061 0.6777540445327759
0.6183789372444153 0.0450543649494648 0.673804759979248
0.6563000082969666 -0.04138218238949776 0.6331056356430054
0.6559549570083618 -0.040738895535469055 0.6333510875701904
0.6551933288574219 -0.03967919200658798 0.6335963606834412
0.653205394744873 -0.03565356135368347 0.6352730989456177
0.652357280254364 -0.03165062889456749 0.6378692984580994
0.6545517444610596 -0.011766509152948856 0.6560384631156921
0.6539706587791443 -0.00903416145592928 0.6578086614608765
0.652981698513031 -0.0032672930974513292 0.661740779876709
0.6522504091262817 0.00026974189677275717 0.6640495657920837
0.6499869227409363 0.0038362073246389627 0.665121853351593
0.6462084054946899 0.010032429359853268 0.6671114563941956
0.6345293521881104 0.030051670968532562 0.6739747524261475
0.6327415108680725 0.03400071710348129 0.6757533550262451
0.6305177211761475 0.03808200731873512 0.6772819757461548
0.6299610733985901 0.0390872098505497 0.6776509881019592
0.6257336735725403 0.043535102158784866 0.6778324246406555
0.6580526232719421 -0.05050076171755791 0.6261385083198547
0.6543407440185547 -0.037735048681497574 0.633610188961029
0.653611958026886 -0.03659093752503395 0.633952796459198
0.6563953161239624 -0.02200043573975563 0.6482903957366943
0.6557143330574036 -0.017830664291977882 0.65116947889328
0.655046284198761 -0.013740114867687225 0.6539937853813171
0.6548662781715393 -0.011314060539007187 0.6558473706245422
0.6541130542755127 -0.007624767255038023 0.6582702994346619
0.6534855365753174 -0.00508466362953186 0.6598487496376038
0.6524993777275085 0.0005499668186530471 0.6636845469474792
0.6520542502403259 0.002086506225168705 0.6645854711532593
0.6502503156661987 0.0028452833648771048 0.6637228727340698
0.6497724056243896 0.0029734992422163486 0.6634342074394226
0.6480834484100342 0.004049892071634531 0.6629286408424377
0.6479360461235046 0.004981656093150377 0.6635759472846985
0.6470916271209717 0.008052274584770203 0.6654130816459656
0.6454275250434875 0.014060269109904766 0.6689978837966919
0.6442500948905945 0.01856299489736557 0.6717420816421509
0.6377967000007629 0.022116102278232574 0.6693485975265503
0.6361731290817261 0.026594320312142372 0.6717043519020081
0.635806679725647 0.026960792019963264 0.6717043519020081
0.6319381594657898 0.03541838005185127 0.6754913926124573
0.6314040422439575 0.03648130223155022 0.6759277582168579
0.6290085911750793 0.040221668779850006 0.6770376563072205
0.6276815533638 0.04184814170002937 0.677284836769104
0.6273224949836731 0.04220730811357498 0.677284836769104
0.6225777268409729 0.044879164546728134 0.6755742430686951
0.6565361022949219 -0.041721682995557785 0.631240963935852
0.6558461785316467 -0.04042607545852661 0.6317422389984131
0.6550828218460083 -0.03936458379030228 0.6319887638092041
0.6536897420883179 -0.03357012942433357 0.6356311440467834
0.656222939491272 -0.019867800176143646 0.6490669250488281
0.6561274528503418 -0.018613014370203018 0.6500262022018433
0.655546247959137 -0.015735501423478127 0.651926577091217
0.6543787121772766 -0.007304559461772442 0.657937228679657
0.6533876657485962 -0.0015802012057974935 0.6618544459342957
0.6518488526344299 0.0012155568692833185 0.6628946661949158
0.649556040763855 0.0021029734052717686 0.6617314219474792
0.647606372833252 0.006430618464946747 0.6636996269226074
0.6462999582290649 0.012114339508116245 0.6673219799995422
0.6457763910293579 0.013356784358620644 0.6679167151451111
0.6407381296157837 0.020026929676532745 0.6692672371864319
0.6368916630744934 0.024514539167284966 0.6697978973388672
0.6354665160179138 0.02824617549777031 0.6717065572738647
0.6338942646980286 0.031614407896995544 0.6731927394866943
0.633653461933136 0.0322088822722435 0.673485517501831
0.6301696300506592 0.038127005100250244 0.6755000352859497
0.6298885941505432 0.038628626614809036 0.675682544708252
0.6285710334777832 0.040287893265485764 0.6759653091430664
0.6256863474845886 0.043167129158973694 0.6759607195854187
0.6217641830444336 0.0443832166492939 0.6737212538719177
0.6194784641265869 0.04263271018862724 0.6703812479972839
0.6588244438171387 -0.045541390776634216 0.6290766596794128
0.6577762365341187 -0.04358958080410957 0.6298267245292664
0.6542167067527771 -0.03578862175345421 0.6333465576171875
0.6572346091270447 -0.02360365353524685 0.6459627747535706
0.6545194387435913 -0.005905205849558115 0.6583968997001648
0.6538918614387512 -0.003382833208888769 0.6599693894386292
0.6525973081588745 8.497811359120533e-05 0.6617728471755981
0.6516416668891907 0.00033697596518322825 0.6611889004707336
0.6498201489448547 0.0010971585288643837 0.6603082418441772
0.6485040187835693 0.0044160145334899426 0.6619702577590942
0.6468070149421692 0.010524268262088299 0.6656308770179749
0.6455172300338745 0.016101516783237457 0.6691887378692627
0.6462176442146301 0.01885148696601391 0.672052264213562
0.6458525657653809 0.019216420128941536 0.672052264213562
0.6424360275268555 0.019927045330405235 0.6698066592216492
0.6383934617042542 0.02174222655594349 0.6679582595825195
0.6380665898323059 0.02220105193555355 0.6680677533149719
0.6344144940376282 0.030292652547359467 0.6717520356178284
0.6325486898422241 0.03412088379263878 0.6733804941177368
0.6319029927253723 0.0349944643676281 0.6735696196556091
0.6313394904136658 0.03601304814219475 0.6739471554756165
0.6277576088905334 0.04069376736879349 0.6748590469360352
0.6262799501419067 0.0420839861035347 0.6747864484786987
0.6235016584396362 0.04325493425130844 0.673452615737915
0.621781587600708 0.043327536433935165 0.6720853447914124
0.6206868886947632 0.04252146929502487 0.670508086681366
0.6108103394508362 0.027700889855623245 0.6500128507614136
0.6564190983772278 -0.04143718257546425 0.6295914053916931
0.6556558609008789 -0.04036065191030502 0.6298520565032959
0.6567639708518982 -0.017681576311588287 0.6496473550796509
0.6560641527175903 -0.01364936213940382 0.6524207592010498
0.6552885174751282 -0.009934978559613228 0.6548662781715393
0.6541367173194885 -0.003115917555987835 0.6595824360847473
0.651913046836853 -0.0006753935595043004 0.6597631573677063
0.6500862240791321 8.437100041192025e-05 0.658875048160553
0.6497153639793396 0.0004930453724227846 0.6589065790176392
0.6480097770690918 0.006759587675333023 0.6627020239830017
0.6476936340332031 0.00854477658867836 0.6639244556427002
0.646019697189331 0.014549442566931248 0.6675286293029785
0.646321713924408 0.016434399411082268 0.6693486571311951
0.6465111970901489 0.01923350617289543 0.6718356609344482
0.6437556147575378 0.020194441080093384 0.670342206954956
0.6432456374168396 0.020252780988812447 0.6699663400650024
0.6382229328155518 0.022286297753453255 0.667478621006012
0.6379210948944092 0.022795701399445534 0.6676514148712158
0.6364081501960754 0.02641054429113865 0.6694006323814392
0.6357952952384949 0.027386212721467018 0.6697025895118713
0.6339668035507202 0.031360313296318054 0.6714881658554077
0.6333603858947754 0.0323217436671257 0.6717835068702698
0.6297012567520142 0.03796442598104477 0.673434317111969
0.629358172416687 0.038361188024282455 0.6734790802001953
0.6279669404029846 0.0399126335978508 0.6736122965812683
0.6276213526725769 0.04030393436551094 0.6736503839492798
0.625982940196991 0.041435107588768005 0.6732282638549805
0.6247227787971497 0.04223887249827385 0.6728483438491821
0.6235266923904419 0.04219471663236618 0.671816349029541
0.6221599578857422 0.04188653454184532 0.6704223155975342
0.6200998425483704 0.040479231625795364 0.6675369143486023
0.6117464900016785 0.028032945469021797 0.6502276062965393
0.6111534833908081 0.02810624986886978 0.6497950553894043
0.6591392755508423 -0.0456700436770916 0.627431333065033
0.6580269932746887 -0.04390864446759224 0.6279730200767517
0.6576054692268372 -0.043487127870321274 0.6279730200767517
0.6560647487640381 -0.0396304726600647 0.6299055218696594
0.6557385921478271 -0.03723250702023506 0.6316345930099487
0.6584827899932861 -0.025623483583331108 0.643612802028656
0.6572787165641785 -0.019719207659363747 0.6475351452827454
0.6560718417167664 -0.011100330390036106 0.653720498085022
0.6550483703613281 -0.0052682338282465935 0.6577334403991699
0.6531479954719543 -0.0019443000201135874 0.6589215397834778
0.6512214541435242 -0.0014440694358199835 0.657731294631958
0.6493969559669495 0.002013169229030609 0.6590938568115234
0.6483709812164307 0.006025922950357199 0.6615864038467407
0.6468963623046875 0.012605980969965458 0.6658469438552856
0.6459365487098694 0.02003716677427292 0.6712474822998047
0.6406071186065674 0.02130192704498768 0.6678555607795715
0.6371756792068481 0.024411708116531372 0.6675869822502136
0.6353442072868347 0.028461646288633347 0.669438362121582
0.6322017312049866 0.034146878868341446 0.6715604066848755
0.6318372488021851 0.03451138362288475 0.6715604066848755
0.6261327266693115 0.040559910237789154 0.671847403049469
0.6256830096244812 0.04077993333339691 0.6716557145118713
0.6228669285774231 0.04096716642379761 0.6694618463516235
0.6136585474014282 0.027897624298930168 0.6508703231811523
0.6132670044898987 0.02828925848007202 0.6508703231811523
0.6562936305999756 -0.037748370319604874 0.6307756900787354
0.6566019058227539 -0.012995267286896706 0.6517484188079834
0.6562089920043945 -0.009675402194261551 0.6541978120803833
0.6555660367012024 -0.007107590325176716 0.655808687210083
0.6546865105628967 -0.003815005300566554 0.6578280925750732
0.6538084149360657 -0.0033518821001052856 0.6574808359146118
0.6519784331321716 -0.0025966111570596695 0.6565815806388855
0.6510084271430969 -0.0023466150742024183 0.6559789180755615
0.6506240963935852 -0.0019622340332716703 0.6559789180755615
0.6501472592353821 0.0008780665812082589 0.6579568982124329
0.6492747664451599 0.004003532230854034 0.6598422527313232
0.648095428943634 0.008873626589775085 0.6629309058189392
0.6475629806518555 0.010134818032383919 0.663540780544281
0.6484008431434631 0.016989562660455704 0.6699784398078918
0.648337721824646 0.019240204244852066 0.6718091368675232
0.6467326879501343 0.020360209047794342 0.6714031100273132
0.6447144746780396 0.020593546330928802 0.6699094176292419
0.6364904046058655 0.02613868936896324 0.6676674485206604
0.6358746290206909 0.02711603231728077 0.6679702401161194
0.6342530846595764 0.03044809214770794 0.6694016456604004
0.6339665651321411 0.03096633031964302 0.66959547996521
0.633026659488678 0.03236311674118042 0.6699779033660889
0.630500316619873 0.03601131588220596 0.6709166765213013
0.6297901272773743 0.0367756150662899 0.6709620356559753
0.6283836364746094 0.03832605481147766 0.6710823774337769
0.627997100353241 0.0386526919901371 0.6710323691368103
0.6258296370506287 0.039893828332424164 0.6702572107315063
0.6253032684326172 0.03998906537890434 0.6698964238166809
0.6239447593688965 0.039676226675510406 0.6684976816177368
0.6228817701339722 0.03987174853682518 0.6677716970443726
0.6211005449295044 0.03791703283786774 0.6646451950073242
0.6145827174186707 0.028226928785443306 0.6510815024375916
0.6124295592308044 0.02884080447256565 0.6497933268547058
0.6580556035041809 -0.0414128378033638 0.6282848715782166
0.6585169434547424 -0.02170415408909321 0.6452116966247559
0.6583109498023987 -0.019177550449967384 0.6471590995788574
0.6575294137001038 -0.015301776118576527 0.6497558355331421
0.6564755439758301 -0.009352407418191433 0.6538642048835754
0.6536073684692383 -0.004262393806129694 0.6557286381721497
0.6527392864227295 -0.003754653502255678 0.6554263234138489
0.6484556198120117 0.008147776126861572 0.6618199348449707
0.6480274200439453 0.013398973271250725 0.6658673882484436
0.6492475271224976 0.01744205877184868 0.6702843308448792
0.6417236328125 0.022009968757629395 0.6678036451339722
0.6380653977394104 0.02351711504161358 0.6659985780715942
0.6376947164535522 0.023887809365987778 0.6659985780715942
0.6354220509529114 0.028195073828101158 0.6677059531211853
0.6317603588104248 0.034005094319581985 0.6695087552070618
0.6296574473381042 0.03636861592531204 0.6697277426719666
0.6277046799659729 0.03798341006040573 0.6694439053535461
0.6272538900375366 0.03820369392633438 0.6692505478858948
0.6246565580368042 0.03874678537249565 0.6675266623497009
0.6227084398269653 0.03746264800429344 0.6648140549659729
0.6160846948623657 0.028481677174568176 0.6517183780670166
0.6100064516067505 0.02994230017066002 0.6478434205055237
0.65872722864151 -0.041588205844163895 0.6278015375137329
0.6582168936729431 -0.03970789909362793 0.6289544701576233
0.6590467095375061 -0.023785557597875595 0.6430524587631226
0.6580727100372314 -0.017238518223166466 0.6477423906326294
0.6570059061050415 -0.011231726035475731 0.6518996357917786
0.6561867594718933 -0.007658896502107382 0.6542168259620667
0.6552410125732422 -0.005933146923780441 0.654873251914978
0.6534043550491333 -0.005181345622986555 0.6539603471755981
0.6517583727836609 -0.0039029717445373535 0.6536509990692139
0.650391697883606 0.0021277794148772955 0.6575760841369629
0.6483256220817566 0.010058090090751648 0.6625112295150757
0.6488884687423706 0.013872390612959862 0.6661949157714844
0.6484277248382568 0.02007254771888256 0.6710247993469238
0.6429035067558289 0.02196429669857025 0.6679677963256836
0.642535924911499 0.022331882268190384 0.6679677963256836
0.6378993391990662 0.02407187782227993 0.6655303239822388
0.6362019777297974 0.026233555749058723 0.6659210920333862
0.6339061856269836 0.03045549802482128 0.6675418615341187
0.6316373944282532 0.03359615057706833 0.6682755947113037
0.6298724412918091 0.03555912896990776 0.6684423685073853
0.6274067759513855 0.03730333596467972 0.6678351759910583
0.6257398724555969 0.0374424047768116 0.666549563407898
0.6246809959411621 0.037639010697603226 0.6658236980438232
0.6221158504486084 0.0353173203766346 0.6617113947868347
0.611537754535675 0.030191702768206596 0.6484957933425903
0.6103507280349731 0.030346721410751343 0.6476271748542786
0.660459578037262 -0.043676525354385376 0.6265988945960999
0.6600949168205261 -0.0275976974517107 0.6398603916168213
0.6598755121231079 -0.024996185675263405 0.6418706774711609
0.6590176820755005 -0.019591694697737694 0.6457076072692871
0.6582056879997253 -0.015772107988595963 0.6482457518577576
0.6579322814941406 -0.013521217741072178 0.649914562702179
0.6563900113105774 -0.007509442511945963 0.6536864042282104
0.6555289626121521 -0.006982107646763325 0.653404951095581
0.6536868810653687 -0.006230918690562248 0.6524842381477356
0.6527113318443298 -0.005986166652292013 0.6518673896789551
0.6509303450584412 0.00045109810889698565 0.6557969450950623
0.6495591402053833 0.006307579576969147 0.6595820188522339
0.6501131057739258 0.013971887528896332 0.6665176153182983
0.6497440934181213 0.01434086449444294 0.6665176153182983
0.6502275466918945 0.016702856868505478 0.668918788433075
0.6461039781570435 0.02167814038693905 0.6696376204490662
0.645234227180481 0.02210335247218609 0.6692624688148499
0.6437116861343384 0.022285766899585724 0.6681315302848816
0.6381040215492249 0.024256011471152306 0.665061891078949
0.635991632938385 0.02670176513493061 0.6653432250022888
0.6351161599159241 0.028268493711948395 0.6659265756607056
0.6325798630714417 0.03200832009315491 0.6669422388076782
0.6318796277046204 0.03281262516975403 0.6670300960540771
0.6304568648338318 0.03437642753124237 0.6671491265296936
0.6297374367713928 0.03514279052615166 0.6671887636184692
0.6264572739601135 0.0365031473338604 0.6655685901641846
0.6189472079277039 0.028802109882235527 0.652731716632843
0.6140366792678833 0.029972407966852188 0.6495752334594727
0.6134501695632935 0.030048593878746033 0.6491446495056152
0.6601880788803101 -0.04155707359313965 0.6272574663162231
0.660306453704834 -0.02581058070063591 0.6406834125518799
0.6595746278762817 -0.02157139964401722 0.6436516642570496
0.6584756970405579 -0.0154419532045722 0.6479088068008423
0.658200740814209 -0.013193569146096706 0.6495789289474487
0.6573401093482971 -0.009667436592280865 0.6518346071243286
0.6558191180229187 -0.008038358762860298 0.6519261002540588
0.6553336977958679 -0.007918022572994232 0.651617169380188
0.6539714336395264 -0.007287808693945408 0.6509975790977478
0.6522005200386047 -0.003503408981487155 0.6527016162872314
0.650089681148529 0.00466401781886816 0.6578270792961121
0.650912880897522 0.014319333247840405 0.6666947603225708
0.6506199240684509 0.01609891653060913 0.667952835559845
0.6500599980354309 0.018449051305651665 0.6694678664207458
0.649869978427887 0.019215919077396393 0.6699559688568115
0.6463975310325623 0.02205813117325306 0.6694226861000061
0.6440085172653198 0.02266749180853367 0.6679165363311768
0.6401916742324829 0.023778825998306274 0.6656270027160645
0.6338436007499695 0.02993718907237053 0.6654664278030396
0.6335283517837524 0.03041013330221176 0.6656000018119812
0.631750226020813 0.03238658607006073 0.6657677292823792
0.6298278570175171 0.034097880125045776 0.6655890941619873
0.6275483965873718 0.03518906608223915 0.6645834445953369
0.626494288444519 0.035388559103012085 0.6638603806495667
0.6257997751235962 0.03520211949944496 0.6631147861480713
0.6210275888442993 0.029049677774310112 0.6538694500923157
0.6186283826828003 0.029143797233700752 0.6519189476966858
0.6149590015411377 0.03029705584049225 0.6497895121574402
0.6098765134811401 0.03034394420683384 0.6455280780792236
0.6621289849281311 -0.03407564014196396 0.6343499422073364
0.6613710522651672 -0.02965923771262169 0.6374547481536865
0.6594194769859314 -0.01777741312980652 0.6458821296691895
0.6578983664512634 -0.011490675620734692 0.6499263048171997
0.6551368832588196 -0.008862324059009552 0.6498134136199951
0.6537678837776184 -0.008231278508901596 0.6491870880126953
0.6534619331359863 -0.007615497801452875 0.6494501233100891
0.6520658731460571 -0.0014599236892536283 0.6534891724586487
0.6516811847686768 -0.0010751147055998445 0.6534891724586487
0.6506239175796509 0.010800370946526527 0.6626700758934021
0.6494582891464233 0.020382476970553398 0.6698127388954163
0.6410097479820251 0.024098090827465057 0.6657960414886475
0.6376751065254211 0.025172902271151543 0.663878321647644
0.6364379525184631 0.026043379679322243 0.6635671854019165
0.6356831192970276 0.026764696463942528 0.6635388135910034
0.6346872448921204 0.028109632432460785 0.6638349890708923
0.631973922252655 0.031556714326143265 0.6644576191902161
0.6299921274185181 0.033176250755786896 0.6641501784324646
0.629534125328064 0.033390551805496216 0.663943350315094
0.6282442212104797 0.034191831946372986 0.6635287404060364
0.6268997192382812 0.03388003259897232 0.6621230244636536
0.6258282661437988 0.03406335785984993 0.6613695025444031
0.6243963241577148 0.03260760381817818 0.6589186787605286
0.6219500303268433 0.02942201867699623 0.6541392207145691
0.6179989576339722 0.030003899708390236 0.6512801647186279
0.612954318523407 0.031006325036287308 0.6478495597839355
0.6619275212287903 -0.0318266786634922 0.6352088451385498
0.6608120203018188 -0.023633267730474472 0.6412323117256165
0.6601209044456482 -0.020898394286632538 0.6429717540740967
0.6599765419960022 -0.019740810617804527 0.643834114074707
0.6588533520698547 -0.013723164796829224 0.6479991674423218
0.6581160426139832 -0.011307003907859325 0.6494280099868774
0.6559174656867981 -0.010054351761937141 0.648622989654541
0.6549379825592041 -0.009815498255193233 0.6479927897453308
0.6526176929473877 -0.0031693342607468367 0.6516739130020142
0.6517179608345032 2.1491672669071704e-05 0.6536238789558411
0.6512112617492676 0.002788639161735773 0.6555474996566772
0.6506511569023132 0.006680986378341913 0.6583833694458008
0.6518194675445557 0.013362986035645008 0.6650640368461609
0.6516768932342529 0.014275343157351017 0.665719211101532
0.648242175579071 0.022096524015069008 0.6694520115852356
0.6421923637390137 0.024048084393143654 0.6659644842147827
0.6383883357048035 0.02526150830090046 0.6637598872184753
0.6339918375015259 0.02873782254755497 0.6629766821861267
0.6325541734695435 0.030318863689899445 0.6630986332893372
0.6318439245223999 0.031124260276556015 0.6631798148155212
0.6306158900260925 0.03203270956873894 0.6629077196121216
0.6283195614814758 0.03311527147889137 0.6618748307228088
0.6276297569274902 0.03292705863714218 0.661127507686615
0.6260178089141846 0.03215908259153366 0.6591022610664368
0.6237412095069885 0.030262835323810577 0.6555511355400085
0.6228092908859253 0.029690979048609734 0.6542713642120361
0.6220788955688477 0.02947555109858513 0.6534664630889893
0.6187188625335693 0.030013883486390114 0.6510651111602783
0.6166015863418579 0.030629632994532585 0.649787187576294
0.6113479733467102 0.031367264688014984 0.6459439992904663
0.6630223989486694 -0.03578783944249153 0.6318818926811218
0.6627795100212097 -0.03308059647679329 0.6339849829673767
0.6622517704963684 -0.03133324533700943 0.6350257992744446
0.6621336936950684 -0.03000340424478054 0.6360598206520081
0.6613814830780029 -0.025663577020168304 0.6391215920448303
0.6605395078659058 -0.02172500640153885 0.641764223575592
0.6602488160133362 -0.01940581575036049 0.6434952616691589
0.6601045727729797 -0.018256057053804398 0.644353449344635
0.657581627368927 -0.011761493980884552 0.6477428078651428
0.6557216048240662 -0.011015322059392929 0.6467922925949097
0.6535627841949463 -0.005283239297568798 0.649841845035553
0.6508459448814392 0.004195475019514561 0.6556122899055481
0.6525381207466125 0.010975949466228485 0.6628429293632507
0.6525843143463135 0.0123660983517766 0.6640685200691223
0.650486946105957 0.01856204681098461 0.6675664186477661
0.6440227031707764 0.02423831820487976 0.6668938994407654
0.6435135006904602 0.024301916360855103 0.6665135622024536
0.6354798674583435 0.027036873623728752 0.6619916558265686
0.6342954635620117 0.028027741238474846 0.6618266701698303
0.6338738799095154 0.028307577595114708 0.6617056131362915
0.6320694088935852 0.030285336077213287 0.6618534922599792
0.6316161751747131 0.03050943836569786 0.661657989025116
0.6298617124557495 0.03152507171034813 0.6610274314880371
0.6276667714118958 0.03177306801080704 0.6593660116195679
0.6256439685821533 0.03028024174273014 0.6563658118247986
0.6248149871826172 0.02987031452357769 0.6553083062171936
0.6244337558746338 0.030251605436205864 0.6553083062171936
0.6213473081588745 0.030141886323690414 0.652580738067627
0.6201923489570618 0.030259186401963234 0.651695191860199
0.6142199635505676 0.031729504466056824 0.6478532552719116
0.6132424473762512 0.03219986706972122 0.647420346736908
0.6622138023376465 -0.026906130835413933 0.637900710105896
0.6618106365203857 -0.026502855122089386 0.637900710105896
0.6603757739067078 -0.017922725528478622 0.6440154910087585
0.6596448421478271 -0.015400196425616741 0.6455487608909607
0.6578830480575562 -0.012848732993006706 0.6462243795394897
0.6573933362960815 -0.012731759808957577 0.6459054946899414
0.6555241942405701 -0.011985194869339466 0.6449448466300964
0.6541269421577454 -0.007026690989732742 0.6479924917221069
0.6532087326049805 -0.0037805289030075073 0.6499847173690796
0.6528607606887817 -0.001897420035675168 0.6512985825538635
