ply
format ascii 1.0
element vertex 818
property float x
property float y
property float z
end_header
0.5071737170219421 0.05582845211029053 0.6670370101928711
0.5080535411834717 0.05573427304625511 0.6669359803199768
0.5117872357368469 0.06178586557507515 0.6632375121116638
0.5126217007637024 0.061507709324359894 0.6632375121116638
0.5151006579399109 0.06637275218963623 0.6603522896766663
0.44947507977485657 0.04443289339542389 0.6816315650939941
0.4502548575401306 0.0441775806248188 0.6816293597221375
0.4510335922241211 0.043917957693338394 0.6816293597221375
0.4525931775569916 0.04340776428580284 0.6816245913505554
0.4541317820549011 0.04279778525233269 0.6816740036010742
0.4564242362976074 0.04181640222668648 0.6817850470542908
0.45739907026290894 0.042457807809114456 0.6812934279441833
0.45877036452293396 0.04488896578550339 0.6798240542411804
0.4644628167152405 0.0513436533510685 0.6755754351615906
0.4662928879261017 0.05183608829975128 0.6750146150588989
0.4692871868610382 0.053571976721286774 0.6736242175102234
0.47008928656578064 0.053304608911275864 0.6736242175102234
0.4772838354110718 0.05424801632761955 0.6719238758087158
0.47816699743270874 0.05427827313542366 0.671758770942688
0.4833623170852661 0.05398774892091751 0.6710256934165955
0.48875853419303894 0.05432518199086189 0.6699396967887878
0.4942361116409302 0.05480343848466873 0.6687673330307007
0.49615293741226196 0.05524322763085365 0.6682183146476746
0.49793049693107605 0.055182766169309616 0.6679479479789734
0.4988918602466583 0.055394042283296585 0.6676778793334961
0.5008091926574707 0.055782802402973175 0.6671543717384338
0.5025634169578552 0.05560869723558426 0.66694575548172
0.5043797492980957 0.055629387497901917 0.666627049446106
0.5095399618148804 0.05759357661008835 0.6647531390190125
0.511972963809967 0.06239501014351845 0.6618988513946533
0.5128090977668762 0.06211644411087036 0.6618988513946533
0.5152925252914429 0.0669901892542839 0.6589978933334351
0.44924938678741455 0.04356366768479347 0.6811818480491638
0.4539046287536621 0.04194492846727371 0.6812164187431335
0.4546826481819153 0.041685596108436584 0.6812164187431335
0.46092572808265686 0.04719049856066704 0.6773443818092346
0.4632275402545929 0.04985787346959114 0.6755910515785217
0.4671306312084198 0.05191028490662575 0.6738791465759277
0.4726361334323883 0.053226422518491745 0.6722705364227295
0.4743364453315735 0.05306456983089447 0.6720640659332275
0.4752149283885956 0.05309416726231575 0.6718995571136475
0.4760945737361908 0.05312366038560867 0.6717348694801331
0.4786634147167206 0.05291395261883736 0.6714048981666565
0.48043060302734375 0.052972663193941116 0.6710739731788635
0.484821617603302 0.052948787808418274 0.6703394055366516
0.4866527318954468 0.05319017171859741 0.6699047684669495
0.488381564617157 0.05304044112563133 0.6696865558624268
0.49022233486175537 0.05328221991658211 0.6692500710487366
0.4928814172744751 0.05324948951601982 0.6688142418861389
0.4947546422481537 0.05356006324291229 0.6683371067047119
0.49652764201164246 0.05350657179951668 0.6680628061294556
0.497487336397171 0.05372495576739311 0.6677882075309753
0.4984465539455414 0.05393611267209053 0.6675170063972473
0.5067153573036194 0.05441286042332649 0.6658667922019958
0.5097179412841797 0.05818496271967888 0.6634302139282227
0.5154856443405151 0.06761244684457779 0.6576366424560547
0.45135781168937683 0.04192781075835228 0.6807281970977783
0.457279771566391 0.042319636791944504 0.6795161962509155
0.45875123143196106 0.04520338773727417 0.6777884364128113
0.46194034814834595 0.04811939597129822 0.6757498383522034
0.46488291025161743 0.04979589954018593 0.6743888854980469
0.46591460704803467 0.05055000260472298 0.6738263964653015
0.4688093960285187 0.05187832936644554 0.6726517677307129
0.47053930163383484 0.051880113780498505 0.6723556518554688
0.47234925627708435 0.052194878458976746 0.6718854308128357
0.4740329086780548 0.051974818110466 0.6717105507850647
0.47835293412208557 0.05182148888707161 0.6710513234138489
0.4801175594329834 0.0518791638314724 0.6707205772399902
0.48269355297088623 0.05166776850819588 0.6703891158103943
0.48448076844215393 0.05177441984415054 0.6700295805931091
0.4853788912296295 0.051839105784893036 0.6698431372642517
0.48628026247024536 0.05191034451127052 0.6696524620056152
0.488006055355072 0.0517602264881134 0.669434666633606
0.49157536029815674 0.051848847419023514 0.6687800288200378
0.49249792098999023 0.05196807533502579 0.668561577796936
0.49527257680892944 0.05232229828834534 0.6679061055183411
0.500738799571991 0.052628010511398315 0.6668162941932678
0.5026660561561584 0.053045667707920074 0.6662735939025879
0.5046054720878601 0.05348115414381027 0.6657194495201111
0.5063943266868591 0.05340903624892235 0.6654511094093323
0.5084057450294495 0.05403398722410202 0.6647871732711792
0.5123429298400879 0.06361054629087448 0.6592101454734802
0.5160467624664307 0.06645861268043518 0.65711909532547
0.44879940152168274 0.041830625385046005 0.6802852153778076
0.45422816276550293 0.039985381066799164 0.680303156375885
0.45591968297958374 0.04010840132832527 0.6799500584602356
0.46067485213279724 0.046451136469841 0.6758753657341003
0.4638996422290802 0.049420345574617386 0.6737964749336243
0.46469491720199585 0.04915526136755943 0.6737964749336243
0.4702872633934021 0.05098416656255722 0.6718987226486206
0.47205403447151184 0.05112897604703903 0.671521782875061
0.47636041045188904 0.050972238183021545 0.670864462852478
0.48326244950294495 0.05060429126024246 0.6698708534240723
0.4939601421356201 0.05092446506023407 0.6678737998008728
0.4948846995830536 0.0510416254401207 0.6676548719406128
0.4966241121292114 0.050887465476989746 0.667436420917511
0.4985165297985077 0.05124136060476303 0.6669303178787231
0.5002908110618591 0.05117900297045708 0.6666579842567444
0.5022128820419312 0.05159281566739082 0.6661158800125122
0.5031824707984924 0.05181904137134552 0.6658337712287903
0.504992663860321 0.051836058497428894 0.665515124797821
0.5080663561820984 0.052979111671447754 0.6644008755683899
0.5091394782066345 0.05349845066666603 0.6639500856399536
0.514553427696228 0.06473185867071152 0.657248854637146
0.4477982819080353 0.04122082516551018 0.6798397898674011
0.4485749900341034 0.04096677526831627 0.6798374056816101
0.4501275420188904 0.04045368731021881 0.6798352003097534
0.4516810178756714 0.039945557713508606 0.6798303723335266
0.4524574279785156 0.03969104215502739 0.6798278093338013
0.45400160551071167 0.03913760930299759 0.6798476576805115
0.45731720328330994 0.0429009348154068 0.6773367524147034
0.4586326479911804 0.04506741836667061 0.6759932041168213
0.4664623439311981 0.049553532153367996 0.6723335385322571
0.46741005778312683 0.049927737563848495 0.6719778180122375
0.4683523178100586 0.05026906728744507 0.6716400980949402
0.47344720363616943 0.04988129436969757 0.670963704586029
0.47430747747421265 0.04985147714614868 0.6708314418792725
0.4760543704032898 0.04988643154501915 0.6705129146575928
0.47861409187316895 0.04967363551259041 0.6701827049255371
0.48037493228912354 0.04972861707210541 0.6698513031005859
0.48206210136413574 0.049487777054309845 0.6696854829788208
0.4847162365913391 0.04956977441906929 0.669187068939209
0.4864117503166199 0.04933571815490723 0.6690162420272827
0.48820915818214417 0.04946160688996315 0.6686421036720276
0.490011602640152 0.0495881661772728 0.6682671308517456
0.4926532506942749 0.04953065514564514 0.6678428053855896
0.49449771642684937 0.04976554214954376 0.6674041748046875
0.4962337911128998 0.04961097240447998 0.6671857237815857
0.49808719754219055 0.049842774868011475 0.666747510433197
0.5008024573326111 0.0499410554766655 0.6662299036979675
0.5017619132995605 0.05014621093869209 0.6659590005874634
0.5066090226173401 0.051247015595436096 0.6645586490631104
0.5106727480888367 0.05261029303073883 0.6631564497947693
0.5159116387367249 0.0631701648235321 0.6568094491958618
0.4497798681259155 0.05571896210312843 0.6710634231567383
0.4491269886493683 0.039850372821092606 0.6793887615203857
0.46042653918266296 0.04572400078177452 0.6743993163108826
0.46149712800979614 0.04671422392129898 0.6737022399902344
0.462502121925354 0.04739462956786156 0.6731769442558289
0.46431979537010193 0.04787667468190193 0.672613799571991
0.4681028723716736 0.04937710613012314 0.671184241771698
0.47066929936408997 0.049284882843494415 0.6707894206047058
0.4766298234462738 0.048848655074834824 0.6699870824813843
0.47830474376678467 0.0485897958278656 0.6698318123817444
0.4896685779094696 0.04844043031334877 0.6679491400718689
0.4904763996601105 0.04817115142941475 0.6679491400718689
0.5013200640678406 0.048729874193668365 0.6657895445823669
0.5023130774497986 0.049044687300920486 0.6654554009437561
0.504124104976654 0.04908791929483414 0.6651202440261841
0.506186842918396 0.04992381110787392 0.6643316149711609
0.5072565078735352 0.050450798124074936 0.6638745665550232
0.5083077549934387 0.05091116577386856 0.6634547710418701
0.5102112293243408 0.051184047013521194 0.6629855036735535
0.5151239037513733 0.060745880007743835 0.6571894884109497
0.446601927280426 0.03987593576312065 0.6788814067840576
0.452002614736557 0.03797055035829544 0.6789358258247375
0.4544547200202942 0.037800129503011703 0.67859947681427
0.455826073884964 0.04030273109674454 0.6770626902580261
0.45723071694374084 0.04291636124253273 0.6754624247550964
0.4602939188480377 0.045322999358177185 0.6736825108528137
0.46507540345191956 0.047617532312870026 0.671663224697113
0.4660183787345886 0.047988176345825195 0.6713073253631592
0.47377151250839233 0.04796547442674637 0.6699768900871277
0.4746285080909729 0.047926656901836395 0.6698490977287292
0.4763449430465698 0.047849830240011215 0.6695916056632996
0.47801080346107483 0.04756408929824829 0.6694517731666565
0.4806312024593353 0.04758705943822861 0.6689859628677368
0.4823148846626282 0.04734547436237335 0.6688199639320374
0.48407983779907227 0.047397565096616745 0.6684874892234802
0.4866539537906647 0.047181542962789536 0.6681541800498962
0.4875401556491852 0.04720720648765564 0.667987048625946
0.4884282052516937 0.04723462834954262 0.6678195595741272
0.4901335835456848 0.0470275841653347 0.6676316857337952
0.4928380846977234 0.04721181094646454 0.6670680046081543
0.49455079436302185 0.047004058957099915 0.6668791770935059
0.4963797330856323 0.04718342050909996 0.6664698123931885
0.49822843074798584 0.04741176590323448 0.6660305857658386
0.49996697902679443 0.04725560545921326 0.6658114790916443
0.5009199380874634 0.04745054990053177 0.6655448079109192
0.5028794407844543 0.04799843207001686 0.6649207472801208
0.5068075060844421 0.04904644563794136 0.6636973023414612
0.5086749196052551 0.04923081398010254 0.6632780432701111
0.5110546350479126 0.05099157243967056 0.6619520783424377
0.5133751034736633 0.05534934252500534 0.6592872142791748
0.5151713490486145 0.05804380401968956 0.6575767993927002
0.5160067081451416 0.057765353471040726 0.6575767993927002
0.44946974515914917 0.03795840963721275 0.6784508228302002
0.45023706555366516 0.03766932338476181 0.6784687042236328
0.4543377459049225 0.03746688365936279 0.6778616905212402
0.4582846164703369 0.04408740624785423 0.6737260222434998
0.4590717554092407 0.043825019150972366 0.6737260222434998
0.4621562659740448 0.04623786360025406 0.6719328761100769
0.4684029519557953 0.04733332246541977 0.6702768206596375
0.47014448046684265 0.04741289094090462 0.6699328422546387
0.48464521765708923 0.04634111374616623 0.6679728627204895
0.4897969961166382 0.04590625315904617 0.6673048138618469
0.49069029092788696 0.045947540551424026 0.667127788066864
0.4942012131214142 0.04586057364940643 0.6665633916854858
0.4960104525089264 0.0459822453558445 0.6661854982376099
0.4969169795513153 0.04604313150048256 0.6659967303276062
0.49864667654037476 0.04587513953447342 0.6657834053039551
0.5042775273323059 0.04674259200692177 0.664353609085083
0.5053173899650574 0.04719426855444908 0.6639377474784851
0.5063601136207581 0.0476473793387413 0.6635202765464783
0.5082234740257263 0.04782967269420624 0.663101851940155
0.5145847201347351 0.05624958127737045 0.6576088666915894
0.515417754650116 0.055972032248973846 0.6576088666915894
0.4474439322948456 0.05329490080475807 0.669853687286377
0.4482400417327881 0.05302952602505684 0.669853687286377
0.44621968269348145 0.03846647962927818 0.6778208017349243
0.44773420691490173 0.037789370864629745 0.6779102683067322
0.44849491119384766 0.037469346076250076 0.6779453754425049
0.45003393292427063 0.03691946715116501 0.6779645085334778
0.45236414670944214 0.03619866073131561 0.6779352426528931
0.4531371593475342 0.03594094514846802 0.6779352426528931
0.4556381404399872 0.03985300287604332 0.6754539608955383
0.46098724007606506 0.04501153901219368 0.6718244552612305
0.463729590177536 0.045838214457035065 0.670913815498352
0.46735823154449463 0.04671234264969826 0.6698245406150818
0.4681544303894043 0.046446941792964935 0.6698245406150818
0.47580668330192566 0.04597693681716919 0.6687368154525757
0.47660598158836365 0.04571050778031349 0.6687368154525757
0.47832170128822327 0.045630667358636856 0.668479323387146
0.4800413250923157 0.04555313661694527 0.6682202816009521
0.4825859069824219 0.04528432711958885 0.6679171323776245
0.48433712124824524 0.04529564082622528 0.6676061153411865
0.4860169589519501 0.045033879578113556 0.6674500107765198
0.4921456575393677 0.044929347932338715 0.6664367914199829
0.49565887451171875 0.044840507209300995 0.6658711433410645
0.4965636730194092 0.044900376349687576 0.6656814813613892
0.5001723170280457 0.04506556689739227 0.6649665236473083
0.5021070837974548 0.04555058479309082 0.6643757820129395
0.5049159526824951 0.04593629017472267 0.6636845469474792
0.5112242102622986 0.05154881253838539 0.6596503257751465
0.5127378702163696 0.053404565900564194 0.658416211605072
0.4444988965988159 0.038359448313713074 0.6772460341453552
0.45059734582901 0.03588222339749336 0.6774795055389404
0.4568326771259308 0.04170648381114006 0.6733330488204956
0.45798319578170776 0.04311789572238922 0.6723911762237549
0.4598235785961151 0.043791551142930984 0.6717158555984497
0.4644533097743988 0.045447297394275665 0.6700376868247986
0.46537137031555176 0.0457179993391037 0.6697346568107605
0.4662395715713501 0.04576791077852249 0.6695568561553955
0.46877169609069824 0.0455884225666523 0.6692079901695251
0.47047293186187744 0.04550895467400551 0.6689521074295044
0.47212183475494385 0.04520382359623909 0.6688242554664612
0.4789086580276489 0.044656820595264435 0.6679242849349976
0.4805675745010376 0.04435048624873161 0.6677947044372559
0.48915109038352966 0.04375999793410301 0.6666033864021301
0.49003317952156067 0.043770864605903625 0.6664431691169739
0.49270012974739075 0.043852560222148895 0.6659342050552368
0.49440622329711914 0.04364306852221489 0.6657454967498779
0.49621155858039856 0.04376150667667389 0.6653679609298706
0.4988572597503662 0.04370233789086342 0.6649363040924072
0.5035516619682312 0.04446414113044739 0.6637153625488281
0.506576418876648 0.04552128165960312 0.6626315712928772
0.5091648697853088 0.047979697585105896 0.6608893275260925
0.5122010111808777 0.05175609886646271 0.658376932144165
0.513867974281311 0.05406608805060387 0.656873345375061
0.5146988034248352 0.05378914251923561 0.656873345375061
0.5166505575180054 0.054113104939460754 0.6563615798950195
0.4443092942237854 0.037656303495168686 0.6767175197601318
0.44887927174568176 0.03578977286815643 0.6768985986709595
0.45498526096343994 0.037244994193315506 0.6750605702400208
0.45779889822006226 0.04247952625155449 0.6718111038208008
0.4606570601463318 0.04391981661319733 0.6705511212348938
0.46253901720046997 0.04472024738788605 0.6697998046875
0.4752708971500397 0.04411263391375542 0.6678853034973145
0.4760684370994568 0.04384677857160568 0.6678853034973145
0.4786370098590851 0.043724894523620605 0.6674985289573669
0.4802936017513275 0.04341783747076988 0.6673694849014282
0.48201289772987366 0.04333776608109474 0.6671101450920105
0.4845357835292816 0.04299132525920868 0.6668499112129211
0.4862862825393677 0.04299858212471008 0.6665390729904175
0.4906027615070343 0.042748935520648956 0.6659125685691833
0.5004285573959351 0.043054524809122086 0.664027214050293
0.5014033317565918 0.04332738369703293 0.6637126207351685
0.5022127032279968 0.04305759817361832 0.6637126207351685
0.5041998624801636 0.04369792714715004 0.6630266904830933
0.5091794729232788 0.048043593764305115 0.6598649621009827
0.5106298327445984 0.049730151891708374 0.658722460269928
0.5119547247886658 0.051007241010665894 0.6578179001808167
0.513450562953949 0.05279187858104706 0.6566160321235657
0.5156795978546143 0.051179490983486176 0.657073438167572
0.5168817639350891 0.05202819034457207 0.6564158797264099
0.44594910740852356 0.05078810453414917 0.6685594916343689
0.44716015458106995 0.035684242844581604 0.676325261592865
0.45358431339263916 0.03479989990592003 0.6756614446640015
0.45462849736213684 0.0357990488409996 0.6749495267868042
0.45604392886161804 0.03848838806152344 0.6732797622680664
0.457528680562973 0.041448239237070084 0.6714547872543335
0.45831412076950073 0.04118642956018448 0.6714547872543335
0.46139928698539734 0.04363081231713295 0.6696202158927917
0.46313220262527466 0.04376619681715965 0.669243574142456
0.46744611859321594 0.04394261911511421 0.6683906316757202
0.46828535199165344 0.04386663809418678 0.668283224105835
0.47080662846565247 0.04363774135708809 0.6679598093032837
0.4724465012550354 0.04330604150891304 0.6678465604782104
0.47415053844451904 0.043224383145570755 0.6675894856452942
0.4859828054904938 0.04198220372200012 0.6661626100540161
0.4868582785129547 0.04198608919978142 0.6660062670707703
0.48773497343063354 0.041990164667367935 0.6658499240875244
0.48853620886802673 0.041723087430000305 0.6658499240875244
0.49029287695884705 0.041730303317308426 0.6655364036560059
0.4920541048049927 0.04173802584409714 0.66522216796875
0.49462267756462097 0.04147777706384659 0.6649074554443359
0.4964319169521332 0.041618771851062775 0.6645141839981079
0.4981704354286194 0.041508883237838745 0.6642658710479736
0.5000753402709961 0.041933514177799225 0.663706362247467
0.5062896609306335 0.044658124446868896 0.66117262840271
0.5089431405067444 0.047320496290922165 0.6592992544174194
0.5129128098487854 0.051148295402526855 0.6565784215927124
0.5142386555671692 0.049596089869737625 0.6571649312973022
0.5163934826850891 0.050559841096401215 0.6562761068344116
0.4456671178340912 0.0496048778295517 0.6682788729667664
0.44393110275268555 0.036253515630960464 0.6756622195243835
0.4447026550769806 0.035996321588754654 0.6756622195243835
0.44621410965919495 0.0353214256465435 0.6757532358169556
0.44849535822868347 0.034389935433864594 0.6758438348770142
0.4500042796134949 0.03371628373861313 0.6759342551231384
0.4524236023426056 0.03345075994729996 0.6756473183631897
0.45699140429496765 0.03919507563114166 0.6717956066131592
0.4646914303302765 0.043304767459630966 0.6682569980621338
0.46641805768013 0.04337729141116142 0.6679131388664246
0.46804970502853394 0.04303630441427231 0.6678057909011841
0.47553321719169617 0.041991256177425385 0.6670375466346741
0.4763866364955902 0.041949912905693054 0.6669085621833801
0.4780956208705902 0.04186739772558212 0.6666502356529236
0.4806055426597595 0.041518568992614746 0.6663920283317566
0.4823214113712311 0.04143506661057472 0.666132926940918
0.48483985662460327 0.04108684882521629 0.6658722758293152
0.49782848358154297 0.0404166616499424 0.6639329791069031
0.49876341223716736 0.04057832807302475 0.6636819839477539
0.5024946928024292 0.04114788770675659 0.6627208590507507
0.5044905543327332 0.04181918501853943 0.6620123982429504
0.5113083124160767 0.04903307184576988 0.6569836139678955
0.5122364163398743 0.049078281968832016 0.6567956805229187
0.5135815143585205 0.04760380834341049 0.6573396325111389
0.5160443186759949 0.04951091110706329 0.6558943390846252
0.44298675656318665 0.035890474915504456 0.6750905513763428
0.44753316044807434 0.0339483805000782 0.6753169894218445
0.44830358028411865 0.03369152545928955 0.6753169894218445
0.45487043261528015 0.03349250927567482 0.6742590665817261
0.45585760474205017 0.03421209380030632 0.6737015247344971
0.45663267374038696 0.03395373001694679 0.6737015247344971
0.4579062759876251 0.03593972697854042 0.6724196076393127
0.4599127769470215 0.041167449206113815 0.6692830324172974
0.4609425663948059 0.041979867964982986 0.6686680912971497
0.4635867476463318 0.042390089482069016 0.6679816842079163
0.46447089314460754 0.042525921016931534 0.6677528023719788
0.4703308939933777 0.04197748750448227 0.667005181312561
0.47280600666999817 0.041558876633644104 0.6667889356613159
0.48033270239830017 0.040592219680547714 0.6659689545631409
0.4820464551448822 0.0405079610645771 0.6657097935676575
0.48794448375701904 0.039767760783433914 0.6650581955909729
0.48880743980407715 0.03972611948847771 0.6649271845817566
0.49055349826812744 0.039704035967588425 0.6646294593811035
0.49223268032073975 0.03943953663110733 0.664472222328186
0.4948952794075012 0.03951562941074371 0.6639597415924072
0.4966135323047638 0.03935951367020607 0.663738489151001
0.4984278678894043 0.03951096162199974 0.663335919380188
0.5011659860610962 0.03976166248321533 0.662717342376709
0.5042597055435181 0.04110825061798096 0.6614526510238647
0.506208598613739 0.04444565623998642 0.6593319177627563
0.50822913646698 0.04512150585651398 0.6586146950721741
0.5096601843833923 0.04675833880901337 0.6574903130531311
0.5107786655426025 0.047407105565071106 0.6569467186927795
0.514363706111908 0.04720890149474144 0.6564165353775024
0.44459134340286255 0.0489688478410244 0.6668930053710938
0.44583383202552795 0.03392355516552925 0.6747006773948669
0.45037373900413513 0.031990472227334976 0.6749247312545776
0.4527592957019806 0.03157939016819 0.6747199296951294
0.45445430278778076 0.0317777544260025 0.6743130683898926
0.4561029374599457 0.0317455530166626 0.6740363836288452
0.45892882347106934 0.03323313966393471 0.6727399826049805
0.46162205934524536 0.041415873914957047 0.6678943634033203
0.46241140365600586 0.04115275293588638 0.6678943634033203
0.4642229378223419 0.04162902384996414 0.6673180460929871
0.4667413532733917 0.04145057871937752 0.6669650673866272
0.46841704845428467 0.04130369424819946 0.666745662689209
0.4758854806423187 0.0402335599064827 0.6659877300262451
0.4767288267612457 0.04015626385807991 0.6658791303634644
0.4784168601036072 0.04000086709856987 0.6656617522239685
0.47921234369277954 0.039735667407512665 0.6656617522239685
0.4800604581832886 0.039667870849370956 0.6655473113059998
0.4826292097568512 0.03954038396477699 0.6651581525802612
0.4842842221260071 0.0392320491373539 0.6650283336639404
0.49280044436454773 0.03842993080615997 0.663941502571106
0.5027802586555481 0.039259932935237885 0.6617230176925659
0.5059534907341003 0.04365993291139603 0.6588110327720642
0.5067682266235352 0.04338834434747696 0.6588110327720642
0.5093492269515991 0.04580645263195038 0.6570608615875244
0.5102349519729614 0.04573771357536316 0.6569404006004333
0.5126965045928955 0.044922251254320145 0.656937301158905
0.4443083703517914 0.047772813588380814 0.666624903678894
0.44867512583732605 0.031963884830474854 0.6743108630180359
0.45653268694877625 0.030136186629533768 0.6738872528076172
0.4582706391811371 0.030495328828692436 0.6733850240707397
0.46090924739837646 0.03112337738275528 0.6725776791572571
0.46227845549583435 0.033427271991968155 0.6710994839668274
0.47148680686950684 0.03997759148478508 0.6659480333328247
0.4723269045352936 0.03990262746810913 0.6658382415771484
0.47400781512260437 0.03974876552820206 0.6656209230422974
0.4764852821826935 0.03932855278253555 0.6654031276702881
0.48738157749176025 0.037913937121629715 0.6642161011695862
0.48824238777160645 0.03787153959274292 0.6640849709510803
0.4891042709350586 0.03782955929636955 0.663953959941864
0.4908301830291748 0.037745025008916855 0.6636912822723389
0.492493599653244 0.03743599355220795 0.6635596752166748
0.49430325627326965 0.03761543706059456 0.6631403565406799
0.4960207939147949 0.03747056424617767 0.662911593914032
0.49878695607185364 0.03785830736160278 0.6622098684310913
0.49972057342529297 0.03801505267620087 0.6619598865509033
0.5005243420600891 0.037747085094451904 0.6619598865509033
0.5044075846672058 0.04162834584712982 0.6591886281967163
0.5077913999557495 0.04378679022192955 0.6574283838272095
0.5103391408920288 0.04327233508229256 0.6572490930557251
0.5123534798622131 0.043885231018066406 0.6565612554550171
0.5139864087104797 0.04607359319925308 0.655098557472229
0.4416689872741699 0.0341309979557991 0.6734694242477417
0.4424233138561249 0.033794552087783813 0.6735149025917053
0.444701224565506 0.03286556154489517 0.6736063957214355
0.44620832800865173 0.03219383955001831 0.6736968159675598
0.44696205854415894 0.03186143934726715 0.673740804195404
0.4484860897064209 0.03127913177013397 0.6737809181213379
0.45075467228889465 0.030329443514347076 0.6738845705986023
0.4522797167301178 0.029758911579847336 0.6739180684089661
0.454566091299057 0.028902361169457436 0.6739689111709595
0.4561660587787628 0.028675036504864693 0.6738041639328003
0.4586624801158905 0.02874249592423439 0.6733210682868958
0.4603155255317688 0.028718290850520134 0.6730378866195679
0.46210891008377075 0.029279064387083054 0.6724152565002441
0.4631219804286957 0.030041364952921867 0.6718243956565857
0.46389636397361755 0.029783235862851143 0.6718243956565857
0.4670587480068207 0.039511434733867645 0.6660314202308655
0.46790993213653564 0.03950003907084465 0.6658852100372314
0.46875908970832825 0.03947608172893524 0.6657456159591675
0.4804093539714813 0.037924714386463165 0.664492666721344
0.4820998013019562 0.03776765242218971 0.664274275302887
0.4845888018608093 0.037345148622989655 0.6640555262565613
0.48544615507125854 0.03730033338069916 0.6639260649681091
0.4863046705722809 0.03725682571530342 0.6637961864471436
0.4985028803348541 0.036963317543268204 0.6617692708969116
0.505325198173523 0.04171575978398323 0.6579935550689697
0.5061380863189697 0.041444797068834305 0.6579935550689697
0.5084495544433594 0.04303673654794693 0.6567248702049255
0.5098922848701477 0.04190756753087044 0.6570730209350586
0.5107077360153198 0.041635747998952866 0.6570730209350586
0.5142086148262024 0.046749379485845566 0.6536988615989685
0.4414820373058319 0.03343360871076584 0.6729457378387451
0.44526606798171997 0.031835202127695084 0.6731270551681519
0.4498135447502136 0.029984356835484505 0.6733081936836243
0.4505695402622223 0.02967018075287342 0.6733413338661194
0.4551279842853546 0.027902798727154732 0.6734751462936401
0.4566502869129181 0.02733244188129902 0.6735088229179382
0.45830291509628296 0.02733706496655941 0.6732091903686523
0.46073710918426514 0.027122098952531815 0.6728878021240234
0.4624788761138916 0.02747039496898651 0.6723873019218445
0.4641209840774536 0.02737659029662609 0.672142744064331
0.4651067554950714 0.02800891175866127 0.6716249585151672
0.4663712680339813 0.029778894037008286 0.6704429984092712
0.4743139445781708 0.037812985479831696 0.664684534072876
0.4768376052379608 0.03758527711033821 0.6643542051315308
0.4784732460975647 0.03724454343318939 0.6642440557479858
0.48100563883781433 0.037015821784734726 0.6639121174812317
0.48264554142951965 0.03667463734745979 0.6638014912605286
0.48853981494903564 0.0359828844666481 0.6631153225898743
0.490261048078537 0.0358959324657917 0.6628526449203491
0.49280473589897156 0.035614944994449615 0.6625471115112305
0.49463140964508057 0.035856977105140686 0.66208815574646
0.49633848667144775 0.035682860761880875 0.6618754863739014
0.4999525845050812 0.03595774248242378 0.6610777378082275
0.502547562122345 0.03859561309218407 0.6591892838478088
0.5039344429969788 0.04017151892185211 0.6580904722213745
0.5118241310119629 0.042285237461328506 0.6555332541465759
0.44295886158943176 0.04596913605928421 0.6649655699729919
0.4435710608959198 0.031810250133275986 0.6725135445594788
0.453418105840683 0.02781500667333603 0.6728991866111755
0.45873117446899414 0.02576543763279915 0.6730498671531677
0.46037015318870544 0.025706011801958084 0.6727864146232605
0.4620392918586731 0.02576141618192196 0.6724556684494019
0.4645155072212219 0.025700094178318977 0.6720423698425293
0.46539703011512756 0.025904055684804916 0.6717733144760132
0.46629616618156433 0.026173926889896393 0.6714646816253662
0.4670675992965698 0.025916775688529015 0.6714646816253662
0.46806541085243225 0.026573477312922478 0.6709296107292175
0.47156408429145813 0.037241239100694656 0.6645287275314331
0.4724147617816925 0.03721602261066437 0.6643887162208557
0.4757503271102905 0.03682535141706467 0.6639986634254456
0.4765912592411041 0.03674909099936485 0.6638887524604797
0.4782257080078125 0.03640865907073021 0.6637781858444214
0.4823938310146332 0.035837844014167786 0.6633353233337402
0.48408523201942444 0.035684261471033096 0.6631128787994385
0.4865747392177582 0.03526539355516434 0.6628910303115845
0.49342021346092224 0.03478134796023369 0.6619185209274292
0.49433818459510803 0.03491957113146782 0.6616782546043396
0.5005998611450195 0.03522031381726265 0.6603865623474121
0.5036154985427856 0.03918030112981796 0.6577010154724121
0.50743567943573 0.03991203010082245 0.6566161513328552
0.5081724524497986 0.03940634801983833 0.6567569971084595
0.5100981593132019 0.039787426590919495 0.6562033891677856
0.5120408535003662 0.04295068979263306 0.6541420817375183
0.4411092698574066 0.03204214945435524 0.6718997359275818
0.44186243414878845 0.03170686215162277 0.6719456911087036
0.44261685013771057 0.03137897700071335 0.6719871163368225
0.4464099705219269 0.02986542508006096 0.6721221804618835
0.451722115278244 0.02778518572449684 0.6722904443740845
0.45626115798950195 0.025963325053453445 0.6724578142166138
0.46654659509658813 0.023933956399559975 0.6716981530189514
0.46829789876937866 0.024277782067656517 0.6711951494216919
0.4703734517097473 0.025880059227347374 0.669950008392334
0.47463709115982056 0.03595487400889397 0.6637108325958252
0.47634246945381165 0.03590298071503639 0.6634299755096436
0.47882014513015747 0.03549754619598389 0.6632021069526672
0.4805052876472473 0.035344019532203674 0.6629806160926819
0.48971307277679443 0.03411971032619476 0.661979079246521
0.4905087649822235 0.03385447338223457 0.661979079246521
0.4922499358654022 0.03383354842662811 0.6616758704185486
0.49404603242874146 0.03398427739739418 0.6612690091133118
0.5006099343299866 0.03528223931789398 0.6593770384788513
0.5022218227386475 0.03760644048452377 0.6578239798545837
0.5046276450157166 0.03957416117191315 0.6563208699226379
0.5090190172195435 0.039252426475286484 0.65570068359375
0.512257993221283 0.04361656308174133 0.6527464389801025
0.4447158873081207 0.029834767803549767 0.6715130805969238
0.4462275803089142 0.0292072594165802 0.6715806722640991
0.4485054612159729 0.028324784711003304 0.6716476082801819
0.45001527667045593 0.027697930112481117 0.6717147827148438
0.4522911608219147 0.026815831661224365 0.6717823147773743
0.45456594228744507 0.025934159755706787 0.6718498468399048
0.4560732841491699 0.025308629497885704 0.6719166040420532
0.4583459496498108 0.024427732452750206 0.6719836592674255
0.4598516523838043 0.023802589625120163 0.6720510721206665
0.46060413122177124 0.023490123450756073 0.6720843315124512
0.4621224105358124 0.022922905161976814 0.6721177697181702
0.46372511982917786 0.022709187120199203 0.6719427108764648
0.4645620584487915 0.0227450430393219 0.6717718839645386
0.46870291233062744 0.022690922021865845 0.6710498332977295
0.470335990190506 0.022555125877261162 0.6708270907402039
0.47221896052360535 0.023375727236270905 0.670038104057312
0.4735029935836792 0.025090839713811874 0.6688711643218994
0.48442456126213074 0.033937182277441025 0.6620716452598572
0.485270231962204 0.033859677612781525 0.661960244178772
0.48606395721435547 0.033595092594623566 0.661960244178772
0.4886058270931244 0.033362168818712234 0.6616257429122925
0.4964345693588257 0.033212002366781235 0.6602867841720581
0.4982994794845581 0.033554352819919586 0.6597618460655212
0.5042809247970581 0.03849846497178078 0.6559835076332092
0.5059057474136353 0.03797280415892601 0.6559745669364929
0.5065547823905945 0.03720039501786232 0.656277596950531
0.5075986981391907 0.03765622153878212 0.6558402180671692
0.5124759674072266 0.04428548365831375 0.6513447165489197
0.44089189171791077 0.04479241371154785 0.6631041765213013
0.4399871826171875 0.031001588329672813 0.6708036065101624
0.44302308559417725 0.02980426512658596 0.6709048748016357
0.44756707549095154 0.027981320396065712 0.6710730791091919
0.44832175970077515 0.027668040245771408 0.6711069941520691
0.4528592824935913 0.02584783546626568 0.6712749004364014
0.4581570029258728 0.023774463683366776 0.6714431643486023
0.46041396260261536 0.02283763326704502 0.6715439558029175
0.4626829922199249 0.021958384662866592 0.6716114282608032
0.4642249643802643 0.021496301516890526 0.671582818031311
0.466617614030838 0.021122558042407036 0.6713511943817139
0.4682786166667938 0.02112618274986744 0.6710464954376221
0.470725417137146 0.020931320264935493 0.6707074046134949
0.472461074590683 0.021189428865909576 0.6702507138252258
0.47342994809150696 0.021697402000427246 0.6697964072227478
0.47420015931129456 0.021440664306282997 0.6697964072227478
0.47914305329322815 0.03366997465491295 0.6622147560119629
0.480849027633667 0.033601194620132446 0.6619409918785095
0.4824836850166321 0.03325982019305229 0.6618303060531616
0.49429747462272644 0.0319836400449276 0.6603760123252869
0.4961533546447754 0.03232339397072792 0.6598523259162903
0.5006197094917297 0.035372812300920486 0.6573727130889893
0.5017305016517639 0.03608650341629982 0.6567801833152771
0.5029853582382202 0.03724762052297592 0.6559173464775085
0.505332887172699 0.036196257919073105 0.6560644507408142
0.5092968940734863 0.04012739285826683 0.6531947255134583
0.5101127624511719 0.03985544294118881 0.6531947255134583
0.5126940608024597 0.04495511204004288 0.6499379277229309
0.4413264989852905 0.029747508466243744 0.6703118085861206
0.4458639919757843 0.02789715677499771 0.6704971194267273
0.4511670768260956 0.025821132585406303 0.6706660389900208
0.45645079016685486 0.02369006909430027 0.6708688735961914
0.4609755575656891 0.021874302998185158 0.6710373759269714
0.4662923514842987 0.019939249381422997 0.6711267232894897
0.4687422215938568 0.019792525097727776 0.6707596182823181
0.4703347980976105 0.019520489498972893 0.6706177592277527
0.47286272048950195 0.019633522257208824 0.6700939536094666
0.47449058294296265 0.019473228603601456 0.6698838472366333
0.47635704278945923 0.020190052688121796 0.6691505312919617
0.47831839323043823 0.02122495323419571 0.6682243943214417
0.48555508255958557 0.03193116933107376 0.6610332131385803
0.4863998293876648 0.031853120774030685 0.6609212160110474
0.48809170722961426 0.03169674053788185 0.6606976985931396
0.49061092734336853 0.03138161078095436 0.6604100465774536
0.49236083030700684 0.031399358063936234 0.660081148147583
0.49325495958328247 0.031468722969293594 0.6598793268203735
0.49405044317245483 0.03120356611907482 0.6598793268203735
0.49680987000465393 0.031632065773010254 0.6591402292251587
0.5043690204620361 0.03599437698721886 0.6553675532341003
0.50950688123703 0.040784209966659546 0.6518027782440186
0.5103242993354797 0.04051167145371437 0.6518027782440186
0.4381452798843384 0.030459566041827202 0.6695692539215088
0.43966376781463623 0.02986566349864006 0.6696176528930664
0.440414696931839 0.029525691643357277 0.6696667075157166
0.4426821768283844 0.028590776026248932 0.6697656512260437
0.44418179988861084 0.027911894023418427 0.6698635816574097
0.4464518427848816 0.02700556255877018 0.6699462532997131
0.4494653344154358 0.02574324421584606 0.6700882911682129
0.454007089138031 0.023978790268301964 0.6702257990837097
0.45928406715393066 0.021851470693945885 0.6704283952713013
0.46455317735671997 0.019726943224668503 0.6706310510635376
0.4732033908367157 0.01785876788198948 0.6700721383094788
0.47402092814445496 0.017799288034439087 0.6699553728103638
0.4766102433204651 0.018111208453774452 0.6693094372749329
0.47737792134284973 0.017855312675237656 0.6693094372749329
0.4783276915550232 0.01826372928917408 0.6689102053642273
0.4836500883102417 0.03138473257422447 0.6607170701026917
0.49035653471946716 0.030566085129976273 0.6599381566047668
0.49811360239982605 0.03305184841156006 0.6571483016014099
0.5013038516044617 0.03477344289422035 0.655616819858551
0.502380907535553 0.035371214151382446 0.65509033203125
0.5071845054626465 0.03641318902373314 0.6536368131637573
0.5123353004455566 0.04387476667761803 0.6485881209373474
0.43798550963401794 0.029898127540946007 0.6689733862876892
0.4432704746723175 0.027690667659044266 0.6692194938659668
0.4477805495262146 0.025741612538695335 0.669465184211731
0.4485332667827606 0.02542635053396225 0.6695006489753723
0.45005130767822266 0.02485613338649273 0.6695364713668823
0.4523078203201294 0.02391102910041809 0.6696428060531616
0.45457571744918823 0.023026691749691963 0.6697136163711548
0.45607826113700867 0.02239750511944294 0.6697842478752136
0.45759356021881104 0.02182864211499691 0.6698194742202759
0.45834487676620483 0.021516790613532066 0.6698539853096008
0.46059754490852356 0.02058207243680954 0.6699549555778503
0.4621121883392334 0.020016159862279892 0.669988751411438
0.4628622829914093 0.019704703241586685 0.6700228452682495
0.46737435460090637 0.017894933000206947 0.6701915264129639
0.46812325716018677 0.01758395880460739 0.6702250242233276
0.47046154737472534 0.017008598893880844 0.6701125502586365
0.47207126021385193 0.016816306859254837 0.6699225902557373
0.4786314070224762 0.016401423141360283 0.6689444780349731
0.48047953844070435 0.01701611839234829 0.668265700340271
0.48239120841026306 0.017827145755290985 0.6674661040306091
0.48672908544540405 0.03009546920657158 0.6598979234695435
0.4884413182735443 0.030016807839274406 0.659626305103302
0.48923352360725403 0.029752884060144424 0.659626305103302
0.4900987446308136 0.029738346114754677 0.6594749689102173
0.492763489484787 0.029911193996667862 0.6588890552520752
0.49445223808288574 0.029715288430452347 0.6586865782737732
0.496249258518219 0.029866810888051987 0.6582726836204529
0.4999232590198517 0.0332169234752655 0.6557483077049255
0.502678632736206 0.03351384773850441 0.6550772190093994
0.5042939782142639 0.0329965204000473 0.6550657153129578
0.5098084807395935 0.04173295572400093 0.6492297649383545
0.5106290578842163 0.04145943745970726 0.6492297649383545
0.5119910836219788 0.04283391311764717 0.6482205986976624
0.4394964575767517 0.04301758110523224 0.6604944467544556
0.4415934085845947 0.027725085616111755 0.6685751676559448
0.4506242871284485 0.023912709206342697 0.6690189838409424
0.4558958411216736 0.021768251433968544 0.6692333817481995
0.4604104161262512 0.019943229854106903 0.6694108247756958
0.46267250180244446 0.019061235710978508 0.6694815754890442
0.46417149901390076 0.018438508734107018 0.6695497035980225
0.46568384766578674 0.017873436212539673 0.6695836782455444
0.4664328694343567 0.017562566325068474 0.669617235660553
0.46869340538978577 0.01668705604970455 0.6696851253509521
0.4701898992061615 0.016066450625658035 0.6697524189949036
0.4709768295288086 0.015905823558568954 0.6696961522102356
0.4725315570831299 0.01550768967717886 0.6696298718452454
0.4741247892379761 0.015251417644321918 0.6694772243499756
0.47653159499168396 0.014917183667421341 0.669218122959137
0.4781666696071625 0.014795539900660515 0.6689838171005249
0.48065051436424255 0.014705373905599117 0.6685751080513
0.48730337619781494 0.02913777530193329 0.6593558192253113
0.4951038956642151 0.029017876833677292 0.6579827070236206
0.49622398614883423 0.029820634052157402 0.6573312282562256
0.49780866503715515 0.032125625759363174 0.6557626724243164
0.49860939383506775 0.031858716160058975 0.6557626724243164
0.5008708834648132 0.03344033285975456 0.6544700860977173
0.5051446557044983 0.032886307686567307 0.6539876461029053
0.507595419883728 0.0377095602452755 0.6508645415306091
0.5116609930992126 0.04183494299650192 0.6478298306465149
0.437666118144989 0.02877636067569256 0.6677827835083008
0.4384322166442871 0.028520993888378143 0.6677827835083008
0.43993282318115234 0.027843423187732697 0.667881190776825
0.4406827390193939 0.02750425413250923 0.6679310202598572
0.4421979486942291 0.026909882202744484 0.6679808497428894
0.4444447457790375 0.025893714278936386 0.6681290864944458
0.44894883036613464 0.02394770085811615 0.6683757901191711
0.45872679352760315 0.019943224266171455 0.6687900424003601
0.4639839231967926 0.017807723954319954 0.6690030097961426
0.46924829483032227 0.015735086053609848 0.6691792607307434
0.4754203259944916 0.013974766246974468 0.669014573097229
0.4761829376220703 0.013720513321459293 0.669014573097229
0.4786262810230255 0.013516354374587536 0.6686751842498779
0.4802490472793579 0.013346965424716473 0.6684693098068237
0.4825062155723572 0.015397650189697742 0.6669117212295532
0.48450857400894165 0.019448040053248405 0.6642904281616211
0.4922780692577362 0.028373874723911285 0.6578928828239441
0.49636897444725037 0.030332984402775764 0.6560471653938293
0.49761250615119934 0.03152051195502281 0.6551576256752014
0.5020049810409546 0.03142451494932175 0.6543970108032227
0.5078039169311523 0.03836756944656372 0.6494665741920471
0.5123602151870728 0.04119202122092247 0.6470531821250916
0.4390079379081726 0.040977075695991516 0.659796416759491
0.4435345232486725 0.02567346952855587 0.6674854755401611
0.4442828893661499 0.025334900245070457 0.6675349473953247
0.4465436041355133 0.024403823539614677 0.6676344275474548
0.4480383098125458 0.02372775413095951 0.6677330732345581
0.4502961337566376 0.022797759622335434 0.6678323745727539
0.4525342881679535 0.021785737946629524 0.667980432510376
0.45704448223114014 0.019943227991461754 0.6681694388389587
0.4668029248714447 0.015989741310477257 0.6685599684715271
0.4720606505870819 0.013919178396463394 0.6687373518943787
0.48081913590431213 0.012473157607018948 0.6679161190986633
0.48262155055999756 0.01586773432791233 0.6656888723373413
0.4846285581588745 0.019928980618715286 0.663052499294281
0.4875961244106293 0.027268724516034126 0.6584096550941467
0.48838570713996887 0.027005530893802643 0.6584096550941467
0.49025508761405945 0.02746746875345707 0.6578050851821899
0.49204587936401367 0.02764028310775757 0.6573764085769653
0.49464359879493713 0.027576306834816933 0.6569291353225708
0.49937769770622253 0.03154711425304413 0.6538361310958862
0.5003325939178467 0.0317695289850235 0.6535350680351257
0.5025280117988586 0.030297081917524338 0.6539474129676819
0.5054986476898193 0.03401824086904526 0.6513213515281677
0.5090628266334534 0.039469946175813675 0.6476207375526428
0.5109516382217407 0.03968842327594757 0.6471480131149292
0.43659600615501404 0.0279901921749115 0.666547417640686
0.44187575578689575 0.025791455060243607 0.6667930483818054
0.4463810622692108 0.023845983669161797 0.6670408844947815
0.450878381729126 0.021903639659285545 0.6672890186309814
0.45462316274642944 0.020301472395658493 0.6674869656562805
0.4553678035736084 0.019964972510933876 0.6675359606742859
0.45611220598220825 0.01962844654917717 0.6675856709480286
0.4583626985549927 0.018701689317822456 0.6676844954490662
0.46061962842941284 0.01780891604721546 0.6677631735801697
0.46211615204811096 0.01718306541442871 0.6678341031074524
0.4643736183643341 0.016303395852446556 0.6679050922393799
0.46512117981910706 0.015990715473890305 0.6679404377937317
0.470363050699234 0.013862471096217632 0.6681532859802246
0.47562870383262634 0.011853193864226341 0.6682957410812378
0.4764070212841034 0.011662913486361504 0.6682569980621338
0.4780074954032898 0.011438872665166855 0.6680839657783508
0.478864848613739 0.01152803748846054 0.6678741574287415
0.48273706436157227 0.016338298097252846 0.6644622683525085
0.4847487211227417 0.020411821082234383 0.6618090867996216
0.4871756434440613 0.02587125264108181 0.6583033204078674
0.4890339970588684 0.026313889771699905 0.6577096581459045
0.4961404800415039 0.029657602310180664 0.6545149087905884
0.5006514191627502 0.029985034838318825 0.6534908413887024
0.5022720694541931 0.029510710388422012 0.6534539461135864
0.5056983828544617 0.03465503454208374 0.6499388217926025
0.5076082944869995 0.03778829798102379 0.6478299498558044
0.4364369809627533 0.027430642396211624 0.6659533381462097
0.44470709562301636 0.023881105706095695 0.6663984060287476
0.44996845722198486 0.02168462984263897 0.6666470170021057
0.45893922448158264 0.017811577767133713 0.6671422719955444
0.4634256660938263 0.015933282673358917 0.6673570275306702
0.4664280116558075 0.014742064289748669 0.6674636602401733
0.4686819016933441 0.013864168897271156 0.6675350666046143
0.4701738953590393 0.013240217231214046 0.6676059365272522
0.4724256098270416 0.012363133952021599 0.6676769256591797
0.4739149510860443 0.011736072599887848 0.6677499413490295
0.4746566414833069 0.011413583531975746 0.6677922606468201
0.4761607050895691 0.010844936594367027 0.6678303480148315
0.4808742105960846 0.012803480960428715 0.6658496856689453
0.48285287618637085 0.016811134293675423 0.6632310152053833
0.4869214594364166 0.025049908086657524 0.6578472256660461
0.48888713121414185 0.025866365060210228 0.6570218205451965
0.49237820506095886 0.02592860348522663 0.6563337445259094
0.49460771679878235 0.027537405490875244 0.6550142765045166
0.49596282839775085 0.029111165553331375 0.6538775563240051
0.4969947040081024 0.029609421268105507 0.6534047722816467
0.4996761977672577 0.029720095917582512 0.652841329574585
0.5034282207489014 0.03037252277135849 0.6517736315727234
0.5084260106086731 0.03753099963068962 0.6468225717544556
0.5102442502975464 0.037547528743743896 0.6464729905128479
0.43854326009750366 0.025944460183382034 0.6654574871063232
0.44004106521606445 0.025267668068408966 0.6655569076538086
0.44230225682258606 0.024336887523531914 0.6656565070152283
0.443050354719162 0.02399902418255806 0.6657065749168396
0.4445452094078064 0.0233237873762846 0.665806233882904
0.4460561275482178 0.022731700912117958 0.6658557653427124
0.4528036415576935 0.01986437663435936 0.6662039160728455
0.45728641748428345 0.01792963221669197 0.6664521098136902
0.46176114678382874 0.015997983515262604 0.6666996479034424
0.46698707342147827 0.013807529583573341 0.6669522523880005
0.4767105281352997 0.009907008148729801 0.6673229932785034
0.47836142778396606 0.009870621375739574 0.6670343279838562
0.482969731092453 0.017286693677306175 0.6619943380355835
0.4849916398525238 0.02138575166463852 0.6593075394630432
0.49044615030288696 0.025322210043668747 0.6560683250427246
0.49136194586753845 0.02548248879611492 0.6558061838150024
0.49215269088745117 0.02521890588104725 0.6558061838150024
0.49462273716926575 0.02762605808675289 0.65398770570755
0.505907416343689 0.03533616662025452 0.6475293040275574
0.5109395980834961 0.03690776973962784 0.6457004547119141
0.4368698000907898 0.025979043915867805 0.6648143529891968
0.4466404914855957 0.021838007494807243 0.665314257144928
0.44813260436058044 0.02116425335407257 0.6654133796691895
0.45038658380508423 0.020236724987626076 0.6655128002166748
0.451131671667099 0.019900238141417503 0.6655628681182861
0.45263901352882385 0.019309567287564278 0.6656128764152527
0.4541274607181549 0.018637537956237793 0.6657118201255798
0.45561501383781433 0.01796558126807213 0.6658117175102234
0.4563769996166229 0.017711587250232697 0.6658117175102234
0.4586058557033539 0.016704997047781944 0.665960431098938
0.4653187692165375 0.013853108510375023 0.6663070917129517
0.46979600191116333 0.011997533030807972 0.6665123701095581
0.4705407917499542 0.011686158366501331 0.666547954082489
0.4750380516052246 0.00993530172854662 0.6666904091835022
0.48717260360717773 0.026043662801384926 0.6553078889846802
0.4879627525806427 0.02578028291463852 0.6553078889846802
0.4887888431549072 0.025640133768320084 0.6552316546440125
0.49833357334136963 0.028298936784267426 0.6519330739974976
