ply
format ascii 1.0
element vertex 810
property float x
property float y
property float z
end_header
0.3724121153354645 -0.09622519463300705 0.681477963924408
0.3742102086544037 -0.09643957763910294 0.6811918020248413
0.3769015669822693 -0.08457451313734055 0.6717053651809692
0.3781838119029999 -0.08423468470573425 0.6711350083351135
0.38849979639053345 -0.08274655789136887 0.6674729585647583
0.3904345631599426 -0.08273269981145859 0.6669831275939941
0.3924129009246826 -0.0823996514081955 0.6662454605102539
0.39307475090026855 -0.08228842914104462 0.6659988760948181
0.3943629562854767 -0.08238516002893448 0.6657516360282898
0.39636024832725525 -0.08204974979162216 0.6650072932243347
0.3983258306980133 -0.08203469961881638 0.6645093560218811
0.40029802918434143 -0.08201944828033447 0.664009153842926
0.41188448667526245 -0.08027135580778122 0.6598387956619263
0.3584223687648773 -0.07915803045034409 0.6714476943016052
0.36019280552864075 -0.0820968821644783 0.6731986403465271
0.3644559979438782 -0.08329553157091141 0.673032820224762
0.36553698778152466 -0.08686239272356033 0.6754231452941895
0.36603254079818726 -0.08947817981243134 0.6772501468658447
0.36810600757598877 -0.09656452387571335 0.6820178031921387
0.368704229593277 -0.0965755358338356 0.6818771362304688
0.3800106644630432 -0.0840863436460495 0.6697570085525513
0.3857731521129608 -0.08363574743270874 0.6679893136024475
0.399502158164978 -0.08258775621652603 0.6637962460517883
0.40013059973716736 -0.08279723674058914 0.6637962460517883
0.40215620398521423 -0.08243676275014877 0.6630240082740784
0.4041474461555481 -0.08238231390714645 0.6624888181686401
0.4055127501487732 -0.0821232944726944 0.6619564294815063
0.40683022141456604 -0.0822046548128128 0.6616896986961365
0.41242361068725586 -0.08076445013284683 0.6592259407043457
0.4166528880596161 -0.07601070404052734 0.6546313166618347
0.4187524616718292 -0.07582173496484756 0.6539686322212219
0.4212050437927246 -0.06632521748542786 0.6462795734405518
0.42199450731277466 -0.06589428335428238 0.6457623243331909
0.35948896408081055 -0.0820324644446373 0.6725192070007324
0.3649498522281647 -0.0841408222913742 0.6727346181869507
0.3659522533416748 -0.08935898542404175 0.6763863563537598
0.36644232273101807 -0.09194093197584152 0.6781944632530212
0.36692607402801514 -0.09449046105146408 0.6799800992012024
0.3679925501346588 -0.0971776619553566 0.681723415851593
0.37661275267601013 -0.08636762946844101 0.6714929342269897
0.3792210817337036 -0.08509594202041626 0.6698921322822571
0.38242247700691223 -0.0846262127161026 0.6687429547309875
0.38433051109313965 -0.08461573719978333 0.6682597398757935
0.38562634587287903 -0.08439913392066956 0.6677745580673218
0.3862762153148651 -0.08429039269685745 0.6675316691398621
0.3881988525390625 -0.084279365837574 0.6670439839363098
0.39012840390205383 -0.0842682272195816 0.6665549278259277
0.39338403940200806 -0.0840381383895874 0.6655713319778442
0.4080493748188019 -0.08257700502872467 0.660824179649353
0.4100860059261322 -0.08238135278224945 0.660170316696167
0.4108021855354309 -0.0821022093296051 0.6597831845283508
0.41433584690093994 -0.08113324642181396 0.6581780314445496
0.41587379574775696 -0.07624897360801697 0.6541428565979004
0.4185066819190979 -0.0768980011343956 0.6539719104766846
0.42175164818763733 -0.0669330507516861 0.6457127332687378
0.42254188656806946 -0.06650301814079285 0.645194411277771
0.3582409620285034 -0.07884388417005539 0.6696324348449707
0.35940021276474 -0.08188334107398987 0.6716220378875732
0.36179113388061523 -0.08406850695610046 0.6726629137992859
0.36240145564079285 -0.08415825664997101 0.6725776791572571
0.36537399888038635 -0.08661176264286041 0.6736744046211243
0.3658716678619385 -0.08923843502998352 0.6755197048187256
0.36636292934417725 -0.09182474762201309 0.6773360967636108
0.37026137113571167 -0.09800690412521362 0.6809974312782288
0.3720542788505554 -0.09814802557229996 0.6806550621986389
0.37444907426834106 -0.09837882220745087 0.680229663848877
0.3784126341342926 -0.08639073371887207 0.6702499389648438
0.3912879526615143 -0.08481603115797043 0.6658508777618408
0.394549161195755 -0.08458773046731949 0.6648646593093872
0.39650192856788635 -0.08456620573997498 0.6643603444099426
0.39783984422683716 -0.08430523425340652 0.6638302206993103
0.3985106945037842 -0.08417422324419022 0.6635642051696777
0.4004836678504944 -0.08412136137485504 0.6630313396453857
0.4038195312023163 -0.0838221088051796 0.6619733572006226
0.40927261114120483 -0.08293846994638443 0.6599476933479309
0.41205838322639465 -0.08231329172849655 0.6587828397750854
0.41415295004844666 -0.0818944126367569 0.657944917678833
0.4157031178474426 -0.07693205028772354 0.6538366079330444
0.41635602712631226 -0.07711827009916306 0.6538130044937134
0.4207262694835663 -0.06838250905275345 0.646170437335968
0.36836329102516174 -0.09840132296085358 0.6809876561164856
0.37432754039764404 -0.0990200787782669 0.679957926273346
0.37612342834472656 -0.09923668205738068 0.6796706318855286
0.3789353668689728 -0.0867479145526886 0.6695740222930908
0.38019996881484985 -0.0866672694683075 0.6691961288452148
0.38213932514190674 -0.08614140748977661 0.6683147549629211
0.38404184579849243 -0.08613351732492447 0.6678317189216614
0.38659942150115967 -0.08601872622966766 0.6671043634414673
0.4023495018482208 -0.08445683121681213 0.6619818806648254
0.4043352007865906 -0.08441275358200073 0.6614508032798767
0.406328409910202 -0.08436843007802963 0.6609178185462952
0.41397005319595337 -0.08265630900859833 0.6577149033546448
0.4168184995651245 -0.07809162139892578 0.6535679697990417
0.4181433916091919 -0.07835402339696884 0.6534330248832703
0.4212857782840729 -0.06890802085399628 0.6455421447753906
0.42207562923431396 -0.06846493482589722 0.6450105309486389
0.35922205448150635 -0.08157765120267868 0.6698158979415894
0.35976311564445496 -0.08437734097242355 0.6717914342880249
0.36399778723716736 -0.08598386496305466 0.6719385981559753
0.3646034896373749 -0.0861857682466507 0.6719385981559753
0.3657101094722748 -0.08899440616369247 0.6737787127494812
0.3662034571170807 -0.09159137308597565 0.6756132245063782
0.3666905462741852 -0.09415090829133987 0.6774212121963501
0.36776089668273926 -0.09687472879886627 0.6792064905166626
0.3724229037761688 -0.09933523088693619 0.6798900961875916
0.37745344638824463 -0.08870771527290344 0.6706101894378662
0.3781190812587738 -0.0881766676902771 0.6700425744056702
0.38264018297195435 -0.08679041266441345 0.6678602695465088
0.38840121030807495 -0.08645760267972946 0.6661608219146729
0.3890531361103058 -0.08635077625513077 0.6659164428710938
0.3903254568576813 -0.0864502489566803 0.6656716465950012
0.392299622297287 -0.08606954663991928 0.6648879647254944
0.39424431324005127 -0.08602003008127213 0.6643617749214172
0.39557281136512756 -0.0857626423239708 0.6638336777687073
0.40151265263557434 -0.08529803901910782 0.6619901061058044
0.40822628140449524 -0.08462752401828766 0.6597964763641357
0.4102630913257599 -0.084407739341259 0.6591187119483948
0.41530701518058777 -0.07861006259918213 0.6534779667854309
0.4240972101688385 -0.06876971572637558 0.6438465714454651
0.3602466285228729 -0.08568079769611359 0.6718485951423645
0.36084190011024475 -0.08619756996631622 0.672089159488678
0.36205390095710754 -0.08648907393217087 0.6720042824745178
0.362662136554718 -0.08657906204462051 0.6719189882278442
0.37051504850387573 -0.099819615483284 0.6799539923667908
0.37289613485336304 -0.10009996592998505 0.6795656681060791
0.3740922808647156 -0.10019548237323761 0.6793363094329834
0.37797296047210693 -0.08906485140323639 0.6699388027191162
0.37863993644714355 -0.08853418380022049 0.6693692803382874
0.3805641531944275 -0.08802957087755203 0.668502151966095
0.38185757398605347 -0.08764909952878952 0.6678886413574219
0.39475709199905396 -0.08659055829048157 0.6638355255126953
0.39604341983795166 -0.08667243272066116 0.6635730266571045
0.398042768239975 -0.08630084991455078 0.6627880334854126
0.4000073969364166 -0.08626047521829605 0.6622620820999146
0.4006791412830353 -0.08613588660955429 0.6619982719421387
0.40265390276908875 -0.08609499037265778 0.6614696383476257
0.4073604941368103 -0.08555127680301666 0.6598714590072632
0.41224050521850586 -0.08429086208343506 0.657687783241272
0.4143429398536682 -0.08381105214357376 0.6567950248718262
0.4208502769470215 -0.0707232654094696 0.6452548503875732
0.4222971796989441 -0.07052528113126755 0.6447402834892273
0.4238736927509308 -0.06968346983194351 0.6437056660652161
0.3595866560935974 -0.08408316969871521 0.6699973344802856
0.36013904213905334 -0.08626506477594376 0.6715129017829895
0.3655758500099182 -0.08809992671012878 0.6715299487113953
0.3660433888435364 -0.09135667234659195 0.6738823652267456
0.36653244495391846 -0.09392419457435608 0.6757062673568726
0.36712756752967834 -0.09412256628274918 0.6757062673568726
0.36760637164115906 -0.09665456414222717 0.6775059103965759
0.36807888746261597 -0.09915494918823242 0.6792831420898438
0.3686194121837616 -0.10023026168346405 0.6799623370170593
0.37039971351623535 -0.10042864084243774 0.6796626448631287
0.3771393597126007 -0.09081000089645386 0.6706619262695312
0.3810694217681885 -0.08860407024621964 0.6679945588111877
0.3823572099208832 -0.08829592168331146 0.6674354076385498
0.3842547535896301 -0.08829183876514435 0.6669522523880005
0.3861614167690277 -0.08826275169849396 0.6664484143257141
0.3874601721763611 -0.08801236748695374 0.6659300923347473
0.3939444124698639 -0.08741655945777893 0.663838267326355
0.40452203154563904 -0.08643342554569244 0.6604175567626953
0.4065108001232147 -0.08639293164014816 0.6598841547966003
0.4092004895210266 -0.08617591112852097 0.6590395569801331
0.4113372266292572 -0.0853634849190712 0.6578829884529114
0.4141603708267212 -0.08456776291131973 0.6565655469894409
0.41700106859207153 -0.08006467670202255 0.6524310111999512
0.41831424832344055 -0.08037590980529785 0.6523351669311523
0.4190881550312042 -0.07990465313196182 0.6517817974090576
0.423653781414032 -0.07058090716600418 0.6435548663139343
0.4244445562362671 -0.07015977054834366 0.6430354118347168
0.35949817299842834 -0.08393412083387375 0.6690957546234131
0.361823707818985 -0.08803272992372513 0.6716241836547852
0.36243030428886414 -0.08812295645475388 0.6715390086174011
0.36596304178237915 -0.09123773127794266 0.6730127930641174
0.37624359130859375 -0.10167193412780762 0.6783440113067627
0.3776823580265045 -0.09083253145217896 0.6697326302528381
0.37834659218788147 -0.09030727297067642 0.6691644787788391
0.3886205554008484 -0.08845226466655731 0.6651479005813599
0.390545129776001 -0.08840756118297577 0.6646258234977722
0.3924765884876251 -0.08836289495229721 0.6641020774841309
0.393134742975235 -0.08824164420366287 0.6638429760932922
0.39573773741722107 -0.0880831629037857 0.6630623936653137
0.3996913433074951 -0.0876786932349205 0.661751925945282
0.4050303101539612 -0.08706303685903549 0.6599298119544983
0.4104139804840088 -0.08657781779766083 0.6581951975822449
0.411154568195343 -0.08614078164100647 0.6576749086380005
0.41251620650291443 -0.08600600063800812 0.6572271585464478
0.41545793414115906 -0.08077432960271835 0.652501106262207
0.4188428819179535 -0.08096778392791748 0.6517897248268127
0.42120227217674255 -0.07208827137947083 0.6444361805915833
0.35994791984558105 -0.08656502515077591 0.6701765656471252
0.366373747587204 -0.09369618445634842 0.6739832162857056
0.36745113134384155 -0.0964340791106224 0.6757981777191162
0.36792588233947754 -0.09894075244665146 0.677590012550354
0.37552741169929504 -0.10218992829322815 0.678135871887207
0.37612590193748474 -0.10223869979381561 0.6780206561088562
0.3801432251930237 -0.0903497189283371 0.6679279804229736
0.3852681815624237 -0.08943291008472443 0.6659249663352966
0.3917100131511688 -0.08885718882083893 0.6638474464416504
0.39624786376953125 -0.0886649414896965 0.6625465750694275
0.3982430100440979 -0.08829968422651291 0.6617607474327087
0.40020278096199036 -0.08826663345098495 0.6612370610237122
0.4021643400192261 -0.08826921880245209 0.660740077495575
0.40548083186149597 -0.088065505027771 0.6597413420677185
0.4090157151222229 -0.09856957197189331 0.6668565273284912
0.41018885374069214 -0.09927282482385635 0.667094886302948
0.4113300144672394 -0.10014480352401733 0.66746985912323
0.4126531183719635 -0.09998244047164917 0.6670094132423401
0.413264662027359 -0.1001862958073616 0.6670094132423401
0.41734400391578674 -0.08141006529331207 0.6516462564468384
0.4201478660106659 -0.08108701556921005 0.6506865620613098
0.42243048548698425 -0.07278289645910263 0.6437702178955078
0.3598601818084717 -0.08642064779996872 0.6692802309989929
0.3658353388309479 -0.09023895859718323 0.670677900314331
0.3688744604587555 -0.10205114632844925 0.6789411306381226
0.37005478143692017 -0.10224844515323639 0.6787912249565125
0.3724316954612732 -0.10245151817798615 0.6783400774002075
0.37422603368759155 -0.10251116007566452 0.6779282689094543
0.37600842118263245 -0.10280446708202362 0.6776980757713318
0.3773866891860962 -0.09267948567867279 0.6695991158485413
0.3825584650039673 -0.0906083732843399 0.6666951179504395
0.3844851553440094 -0.09024135023355484 0.6659227609634399
0.3863893449306488 -0.09020020067691803 0.6654056310653687
0.38895097374916077 -0.0900355875492096 0.6646264791488647
0.39741888642311096 -0.08915089070796967 0.6617896556854248
0.4039958715438843 -0.08880723267793655 0.6598491668701172
0.40660548210144043 -0.08896186202764511 0.6593015789985657
0.40575605630874634 -0.09847851097583771 0.6668002009391785
0.406272828578949 -0.09926813095808029 0.667272686958313
0.4079980254173279 -0.10050548613071442 0.6677794456481934
0.40860190987586975 -0.1007370576262474 0.6678028702735901
0.4178141951560974 -0.08231331408023834 0.6513554453849792
0.4184844493865967 -0.08238859474658966 0.6512422561645508
0.4245825707912445 -0.07237524539232254 0.6420246958732605
0.42604103684425354 -0.07217167317867279 0.6414968371391296
0.36209341883659363 -0.09016759693622589 0.6707743406295776
0.36777204275131226 -0.0987258329987526 0.6758893132209778
0.3682425320148468 -0.1012076586484909 0.67767333984375
0.37291285395622253 -0.1030598059296608 0.6779000759124756
0.37859365344047546 -0.09216640889644623 0.6680875420570374
0.37986692786216736 -0.09185448288917542 0.6675224304199219
0.38370513916015625 -0.09104644507169724 0.6659204959869385
0.39010924100875854 -0.09049151092767715 0.6638564467430115
0.3920328915119171 -0.09045914560556412 0.6633397936820984
0.39465633034706116 -0.09002872556447983 0.662338137626648
0.3965933620929718 -0.09003434330224991 0.6618471741676331
0.3985368013381958 -0.09004021435976028 0.6613543629646301
0.4029855728149414 -0.09946606308221817 0.6674497723579407
0.4041565954685211 -0.10016430914402008 0.6676860451698303
0.4047001898288727 -0.10077627003192902 0.6680164933204651
0.406497597694397 -0.10152783244848251 0.668133556842804
0.40829887986183167 -0.10224717110395432 0.6682247519493103
0.41014647483825684 -0.10269138216972351 0.6680931448936462
0.41138869524002075 -0.10293389856815338 0.6679613590240479
0.41201329231262207 -0.103038489818573 0.6678820848464966
0.42202383279800415 -0.07442042231559753 0.6433601379394531
0.4243833124637604 -0.07315893471240997 0.64178866147995
0.3596842288970947 -0.08612781763076782 0.6674784421920776
0.36021900177001953 -0.08888174593448639 0.6694607138633728
0.36138880252838135 -0.09040594100952148 0.6703336238861084
0.36501452326774597 -0.09110656380653381 0.6699428558349609
0.3661344349384308 -0.09334946423768997 0.6713814735412598
0.36721697449684143 -0.09610176831483841 0.6732220649719238
0.37101683020591736 -0.10346271842718124 0.6779122352600098
0.37845391035079956 -0.09296444803476334 0.6679248809814453
0.38037794828414917 -0.09231962263584137 0.6669350862503052
0.3822827935218811 -0.09203490614891052 0.6662273406982422
0.389313668012619 -0.09130366146564484 0.6638609766960144
0.3957713544368744 -0.09091413766145706 0.6619043350219727
0.4003041088581085 -0.09092757850885391 0.6607519388198853
0.39971527457237244 -0.09966311603784561 0.667625904083252
0.400321900844574 -0.09986532479524612 0.667625904083252
0.40088602900505066 -0.10035939514636993 0.6678614020347595
0.40143731236457825 -0.10093355178833008 0.6681618690490723
0.4025963544845581 -0.10168027132749557 0.6684392094612122
0.40380170941352844 -0.1021120473742485 0.6684623956680298
0.4044020473957062 -0.10234189033508301 0.6684852242469788
0.40620943903923035 -0.1029895693063736 0.6685200333595276
0.4117891192436218 -0.10403341799974442 0.6678920984268188
0.412395179271698 -0.10423544049263 0.6678920984268188
0.42031198740005493 -0.0831112265586853 0.6496036648750305
0.4248468577861786 -0.0741615891456604 0.6415528059005737
0.36128348112106323 -0.0909000113606453 0.6699369549751282
0.36308321356773376 -0.0915457010269165 0.6699721217155457
0.3671386241912842 -0.09599101543426514 0.672359824180603
0.36809006333351135 -0.10099878907203674 0.6759800910949707
0.3685566782951355 -0.10345321893692017 0.6777543425559998
0.3697117269039154 -0.10405862331390381 0.6779244542121887
0.3703062832355499 -0.1040622815489769 0.6777743101119995
0.37208160758018494 -0.10426390916109085 0.6774733662605286
0.37447303533554077 -0.10427866876125336 0.6768693923950195
0.3762539327144623 -0.10454612225294113 0.6766178011894226
0.37764090299606323 -0.09443967789411545 0.6684604287147522
0.3789154291152954 -0.0940147116780281 0.6678046584129333
0.38279300928115845 -0.09252729266881943 0.6656590700149536
0.38407379388809204 -0.09228703379631042 0.6651438474655151
0.38661372661590576 -0.09215441346168518 0.664388120174408
0.3879022002220154 -0.09195949882268906 0.6639060974121094
0.3885156214237213 -0.09216397255659103 0.6639060974121094
0.3965398669242859 -0.099271759390831 0.6673279404640198
0.397632360458374 -0.10055332630872726 0.6680359244346619
0.3981904685497284 -0.1010902002453804 0.6683065295219421
0.39932185411453247 -0.10203293710947037 0.6687431931495667
0.400523841381073 -0.10246312618255615 0.6687660813331604
0.40598005056381226 -0.10408956557512283 0.6686176061630249
0.40659525990486145 -0.10421814024448395 0.6685584187507629
0.4084606468677521 -0.10449546575546265 0.668292760848999
0.410323828458786 -0.10480677336454391 0.6680536866188049
0.41417622566223145 -0.10480345040559769 0.6670600771903992
0.41865548491477966 -0.08438221365213394 0.6501460671424866
0.42008176445961 -0.08407703042030334 0.6495435237884521
0.423199325799942 -0.07513902336359024 0.6418430805206299
0.42623138427734375 -0.07410021871328354 0.6402609348297119
0.3600447177886963 -0.08859787881374359 0.6676691174507141
0.36236682534217834 -0.09213537722826004 0.669808030128479
0.3641774654388428 -0.09243356436491013 0.6695716381072998
0.3665907680988312 -0.092952661216259 0.6693508625030518
0.3670600354671478 -0.09587864577770233 0.6714944839477539
0.3675399124622345 -0.09840310364961624 0.673324704170227
0.37676820158958435 -0.10471180826425552 0.6758269667625427
0.3813989460468292 -0.09326697140932083 0.6657733917236328
0.3871079385280609 -0.09282564371824265 0.6639585494995117
0.39029428362846375 -0.0927300751209259 0.6630628108978271
0.3921882212162018 -0.09290416538715363 0.6627088189125061
0.39411407709121704 -0.09285759180784225 0.6621756553649902
0.3943953216075897 -0.10074640065431595 0.6682094931602478
0.3954823315143585 -0.10205867141485214 0.6689448356628418
0.39606720209121704 -0.10238348692655563 0.6690452694892883
0.40086591243743896 -0.10406026989221573 0.669105052947998
0.4020920693874359 -0.10430112481117249 0.6689749956130981
0.41850265860557556 -0.08494890481233597 0.6497614979743958
0.4222199022769928 -0.07633047550916672 0.6421313285827637
0.4268319010734558 -0.07442505657672882 0.6394666433334351
0.35995718836784363 -0.08845560997724533 0.6667700409889221
0.36166197061538696 -0.09243187308311462 0.6694156527519226
0.36793696880340576 -0.1007891371846199 0.6742793321609497
0.38061097264289856 -0.09428724646568298 0.6659524440765381
0.38251012563705444 -0.09402677416801453 0.6652591228485107
0.3913537859916687 -0.09402158111333847 0.6629665493965149
0.3911983072757721 -0.10074110329151154 0.6682229042053223
0.39227181673049927 -0.1022113561630249 0.6690863966941833
0.39578938484191895 -0.10403129458427429 0.6695889234542847
0.39638814330101013 -0.10423091799020767 0.6695889234542847
0.3982181251049042 -0.10459084063768387 0.6693950295448303
0.40556398034095764 -0.10603058338165283 0.6686118245124817
0.40618857741355896 -0.10608585178852081 0.6684929728507996
0.4080616533756256 -0.10627597570419312 0.6681559681892395
0.40993431210517883 -0.10649402439594269 0.6678407192230225
0.4105722904205322 -0.10649407655000687 0.6676755547523499
0.4124533236026764 -0.10670068114995956 0.6673493385314941
0.4220251739025116 -0.07710272818803787 0.6418968439102173
0.4242519438266754 -0.07648910582065582 0.6408442258834839
0.42584028840065 -0.07560732960700989 0.6397488713264465
0.3610031306743622 -0.0912468358874321 0.6678585410118103
0.3663672208786011 -0.09410164505243301 0.6686891913414001
0.36738431453704834 -0.09818661212921143 0.6716053485870361
0.3678601384162903 -0.10068456083536148 0.6734262704849243
0.3683296740055084 -0.10315050929784775 0.675224244594574
0.37173348665237427 -0.10606670379638672 0.6766112446784973
0.3723284900188446 -0.10607130080461502 0.6764602065086365
0.37411749362945557 -0.1060851439833641 0.6760069131851196
0.37529951333999634 -0.10628470778465271 0.6758555769920349
0.37649741768836975 -0.10629426687955856 0.6755521297454834
0.3778703808784485 -0.0964953675866127 0.6675674319267273
0.3784724175930023 -0.09669593721628189 0.6675674319267273
0.38426440954208374 -0.09462185949087143 0.6644498109817505
0.386134535074234 -0.09479642659425735 0.6641004085540771
0.3867662847042084 -0.09478218108415604 0.663925290107727
0.38800907135009766 -0.09497140347957611 0.6637499928474426
0.38853928446769714 -0.10161690413951874 0.6687861084938049
0.38907721638679504 -0.1023634672164917 0.6692278385162354
0.39021438360214233 -0.1032772809267044 0.6696439981460571
0.39198097586631775 -0.10408967733383179 0.6698179841041565
0.3925650119781494 -0.10439523309469223 0.6699041724205017
0.3992069363594055 -0.10606220364570618 0.6694784164428711
0.4004450738430023 -0.10617221891880035 0.6692427396774292
0.40228426456451416 -0.10648206621408463 0.6690066456794739
0.4078872501850128 -0.1070188358426094 0.667970597743988
0.41427767276763916 -0.10700039565563202 0.6662979125976562
0.41953226923942566 -0.08624015003442764 0.6487725973129272
0.42037293314933777 -0.08542566746473312 0.6479207873344421
0.4256483316421509 -0.07634305208921432 0.639480710029602
0.3626389503479004 -0.09409374743700027 0.6688465476036072
0.36444541811943054 -0.09439285844564438 0.6686099171638489
0.36984941363334656 -0.10646168887615204 0.6766261458396912
0.37340304255485535 -0.10668037086725235 0.6758719086647034
0.38030722737312317 -0.09609884768724442 0.6658140420913696
0.3853529691696167 -0.10180546343326569 0.6689561605453491
0.3858982026576996 -0.10251476615667343 0.6693679690361023
0.38643157482147217 -0.10331780463457108 0.6698561906814575
0.3881944715976715 -0.10414082556962967 0.6700399518013
0.3905496597290039 -0.10516469180583954 0.6702264547348022
0.39235809445381165 -0.10557262599468231 0.6700742840766907
0.39415469765663147 -0.10608992725610733 0.670010507106781
0.39475536346435547 -0.10624939203262329 0.669978678226471
0.3965802490711212 -0.1065661832690239 0.6697512269020081
0.4114704728126526 -0.10809849202632904 0.6670722365379333
0.41211363673210144 -0.10807189345359802 0.6668843030929565
0.4201710522174835 -0.08624030649662018 0.6477429866790771
0.42242833971977234 -0.0781673938035965 0.6408528685569763
0.4262527823448181 -0.07663758099079132 0.638663113117218
0.3619336783885956 -0.09444738924503326 0.6685022711753845
0.3672280013561249 -0.09796823561191559 0.6698770523071289
0.36770597100257874 -0.10047408938407898 0.6717145442962646
0.36817750334739685 -0.10294635593891144 0.67352694272995
0.36922624707221985 -0.10558250546455383 0.6753172278404236
0.378193199634552 -0.10582606494426727 0.673167884349823
0.3794393539428711 -0.09815306216478348 0.6668348908424377
0.38010385632514954 -0.0976109728217125 0.6662368774414062
0.38261181116104126 -0.09735514223575592 0.6653821468353271
0.38273459672927856 -0.10266537219285965 0.6695078611373901
0.38442856073379517 -0.10419157147407532 0.6702606081962585
0.38617709279060364 -0.1051027923822403 0.6705178022384644
0.38974857330322266 -0.10619276016950607 0.6704390645027161
0.39034679532051086 -0.10635164380073547 0.6704073548316956
0.3921504020690918 -0.10675931721925735 0.6702557802200317
0.40068963170051575 -0.10802007466554642 0.6690142750740051
0.4025346636772156 -0.10825697332620621 0.6687183380126953
0.4044208526611328 -0.10826017707586288 0.6682286262512207
0.40628090500831604 -0.10846198350191116 0.6679011583328247
0.40815725922584534 -0.10859445482492447 0.6675150990486145
0.41392722725868225 -0.10840548574924469 0.6658613085746765
0.41453051567077637 -0.10860658437013626 0.6658613085746765
0.41996970772743225 -0.08705255389213562 0.6475655436515808
0.4244764447212219 -0.07823394984006882 0.6394849419593811
0.42685815691947937 -0.0769324004650116 0.6378442645072937
0.428322434425354 -0.07671275734901428 0.6372900009155273
0.3612692952156067 -0.0935356467962265 0.6671547889709473
0.36482465267181396 -0.09571044892072678 0.667931854724884
0.36602866649627686 -0.09591756761074066 0.6677792072296143
0.3702137768268585 -0.10766037553548813 0.6759043335914612
0.3773317039012909 -0.10813107341527939 0.6744108200073242
0.378001868724823 -0.1072709709405899 0.6735600829124451
0.3794063627719879 -0.10492875427007675 0.6713534593582153
0.38002872467041016 -0.1047583743929863 0.6710567474365234
0.3824303150177002 -0.10515099763870239 0.6707364916801453
0.38478147983551025 -0.10609764605760574 0.670864462852478
0.3865642249584198 -0.10661148279905319 0.6708011627197266
0.39378654956817627 -0.10802000761032104 0.670016884803772
0.39439520239830017 -0.10809946805238724 0.6699200868606567
0.39621078968048096 -0.10843384265899658 0.6697074174880981
0.39806291460990906 -0.10852843523025513 0.66929692029953
0.40427884459495544 -0.1088281199336052 0.6679052114486694
0.42285287380218506 -0.0791192501783371 0.6397164463996887
0.3617260158061981 -0.0953579843044281 0.6676613688468933
0.36230888962745667 -0.09596484899520874 0.6679862141609192
0.36290526390075684 -0.09616366773843765 0.6679862141609192
0.36410900950431824 -0.09629195183515549 0.6677712798118591
0.3665235638618469 -0.0965103954076767 0.667309582233429
0.3675509989261627 -0.10026317089796066 0.6699948906898499
0.3680247366428375 -0.10274231433868408 0.6718227863311768
0.3690768778324127 -0.10538455843925476 0.6736272573471069
0.36953476071357727 -0.10779635608196259 0.6754062175750732
0.37010252475738525 -0.10821043699979782 0.6755833625793457
0.37246471643447876 -0.10836569219827652 0.6750856041908264
0.37423866987228394 -0.10853030532598495 0.6747494339942932
0.37784498929977417 -0.10830146074295044 0.6736226081848145
0.3798183798789978 -0.10635258257389069 0.6715700626373291
0.38040727376937866 -0.10654887557029724 0.6715700626373291
0.3822174072265625 -0.10667314380407333 0.6711927652359009
0.38818052411079407 -0.10804299265146255 0.6707061529159546
0.3905852138996124 -0.1084776520729065 0.670417308807373
0.3936087489128113 -0.10893876105546951 0.6699867844581604
0.4028819501399994 -0.10938766598701477 0.6679062843322754
0.41046133637428284 -0.10940784215927124 0.6659327745437622
0.4196302890777588 -0.08835048228502274 0.6469442844390869
0.4233323037624359 -0.08001533150672913 0.6394093632698059
0.4256966710090637 -0.07874196022748947 0.6377860903739929
0.4264901280403137 -0.07831445336341858 0.6372411251068115
0.3610985279083252 -0.09326355904340744 0.6653664708137512
0.36794811487197876 -0.10263980180025101 0.6709677577018738
0.36999478936195374 -0.10870374739170074 0.6752175688743591
0.37591832876205444 -0.10901534557342529 0.6739043593406677
0.3783555030822754 -0.10851524025201797 0.6728679537773132
0.38262295722961426 -0.10807176679372787 0.6713944673538208
0.38441145420074463 -0.1084195226430893 0.671198308467865
0.3862018585205078 -0.10877389460802078 0.6710069179534912
0.40089496970176697 -0.10974659770727158 0.6679072380065918
0.40461811423301697 -0.11000127345323563 0.6671284437179565
0.4077649712562561 -0.11004718393087387 0.666336178779602
0.4084046185016632 -0.11000869423151016 0.6661375761032104
0.40904510021209717 -0.10997022688388824 0.6659383773803711
0.4109293818473816 -0.11009324342012405 0.6655396223068237
0.4122176766395569 -0.11001613736152649 0.6651395559310913
0.41410982608795166 -0.11014927178621292 0.6647465229034424
0.420259952545166 -0.08839556574821472 0.6459488272666931
0.4285646080970764 -0.07836179435253143 0.6358394026756287
0.3689267039299011 -0.10518617928028107 0.6719299554824829
0.36938637495040894 -0.10760805010795593 0.6737266778945923
0.3794756531715393 -0.10865490883588791 0.6718922257423401
0.3800615966320038 -0.10885021835565567 0.6718922257423401
0.3890390992164612 -0.11013595014810562 0.6705406904220581
0.3902689814567566 -0.11008612811565399 0.6701765656471252
0.3908858299255371 -0.11005578935146332 0.6699897050857544
0.3920936584472656 -0.11022201180458069 0.6698023080825806
0.39457419514656067 -0.11010043323040009 0.6690513491630554
0.39641255140304565 -0.1102336198091507 0.6686714887619019
0.3982558846473694 -0.11036684364080429 0.668290376663208
0.399509996175766 -0.11030234396457672 0.6679083108901978
0.4001382291316986 -0.11027002334594727 0.6677168607711792
0.4026259183883667 -0.11036041378974915 0.6671317219734192
0.4070360064506531 -0.11033085733652115 0.6659442782402039
0.4082736074924469 -0.1104922890663147 0.665745198726654
0.4245462715625763 -0.08052428811788559 0.63771653175354
0.36144888401031494 -0.09567819535732269 0.6655659675598145
0.36199715733528137 -0.09734076261520386 0.6667414307594299
0.3631737530231476 -0.09812905639410019 0.6670558452606201
0.3643794059753418 -0.09813743829727173 0.6667432188987732
0.3661853075027466 -0.09832161664962769 0.6664115190505981
0.3677942156791687 -0.10243389755487442 0.669251561164856
0.368384450674057 -0.10263057798147202 0.669251561164856
0.37272945046424866 -0.10985876619815826 0.6738418936729431
0.3739047646522522 -0.11004666984081268 0.6736800074577332
0.3745001256465912 -0.11004085093736649 0.6735177040100098
0.37629055976867676 -0.11002352088689804 0.6730298399925232
0.3780707120895386 -0.11020635813474655 0.6727038621902466
0.3828877806663513 -0.11018570512533188 0.6714122891426086
0.3840830624103546 -0.1103396937251091 0.6712179780006409
0.38649165630340576 -0.11052855104207993 0.6707305908203125
0.38953298330307007 -0.11060453951358795 0.6699856519699097
0.39753714203834534 -0.1106579601764679 0.6679090857505798
0.4056319296360016 -0.1108892560005188 0.6659498810768127
0.41324320435523987 -0.11089839786291122 0.663942277431488
0.41449418663978577 -0.11104687303304672 0.6637288331985474
0.4198874533176422 -0.0898597314953804 0.6454742550849915
0.4227999150753021 -0.082038514316082 0.6384914517402649
0.4235820472240448 -0.08162034302949905 0.637952446937561
0.42660748958587646 -0.08056224882602692 0.6363110542297363
0.42740651965141296 -0.08011563122272491 0.6357446908950806
0.366679310798645 -0.09889733046293259 0.6659315824508667
0.3696936368942261 -0.10981002449989319 0.673822820186615
0.3702629506587982 -0.11017505824565887 0.673962414264679
0.379163533449173 -0.11061801016330719 0.6719522476196289
0.3803517818450928 -0.11076977103948593 0.671757698059082
0.3875975012779236 -0.11095543205738068 0.669981837272644
0.403637170791626 -0.11124677211046219 0.6659553647041321
0.41182205080986023 -0.11144571751356125 0.6639410853385925
0.41972801089286804 -0.09045371413230896 0.6451226472854614
0.4234100878238678 -0.08226493746042252 0.637623131275177
0.42578402161598206 -0.08093763887882233 0.6359357237815857
0.42804253101348877 -0.08026514947414398 0.6348007917404175
0.3612789511680603 -0.09541065990924835 0.6637766361236572
0.3617960810661316 -0.09806754440069199 0.6657610535621643
0.36239147186279297 -0.09826601296663284 0.6657610535621643
0.3647642433643341 -0.09926769882440567 0.6659294366836548
0.36763957142829895 -0.10222664475440979 0.6675271987915039
0.36823126673698425 -0.10242387652397156 0.6675271987915039
0.36870020627975464 -0.10488751530647278 0.6693702340126038
0.36916306614875793 -0.10731866210699081 0.6711887121200562
0.3778446614742279 -0.11119451373815536 0.6719731688499451
0.39420509338378906 -0.11156248301267624 0.6679111123085022
0.40980735421180725 -0.11179148405790329 0.6639400720596313
0.4203486442565918 -0.09054244309663773 0.6441612243652344
0.42403650283813477 -0.08241552859544754 0.6366881728172302
0.42867958545684814 -0.08041425794363022 0.633853554725647
0.36171194911003113 -0.09793967753648758 0.6648735404014587
0.36524927616119385 -0.10003333538770676 0.6656062006950378
0.36645758152008057 -0.10002106428146362 0.6652736067771912
0.375955194234848 -0.11150401085615158 0.671935498714447
0.38433438539505005 -0.1118483617901802 0.6699742078781128
0.3855288028717041 -0.11201442033052444 0.6697883605957031
0.38856014609336853 -0.11209432035684586 0.6690429449081421
0.39040303230285645 -0.11200659722089767 0.6684805154800415
0.392225444316864 -0.11214104294776917 0.6681016087532043
0.3928436040878296 -0.11211024224758148 0.6679120063781738
0.3940823972225189 -0.11204848438501358 0.6675317287445068
0.3965402841567993 -0.11214074492454529 0.6669493317604065
0.3983825147151947 -0.11226515471935272 0.666557252407074
0.40026476979255676 -0.11215552687644958 0.6659667491912842
0.40211859345436096 -0.11228038370609283 0.6655718684196472
0.40461108088493347 -0.11236903816461563 0.6649773120880127
0.4065191149711609 -0.11224529147148132 0.6643686890602112
0.40839827060699463 -0.11233502626419067 0.6639389991760254
0.41028308868408203 -0.11242524534463882 0.663507878780365
0.412219375371933 -0.1122676432132721 0.6628648638725281
0.4141123592853546 -0.1123829036951065 0.6624516248703003
0.4201478660106659 -0.09134623408317566 0.6439898014068604
0.4246642589569092 -0.08256664127111435 0.6357516050338745
0.4261147975921631 -0.08234480023384094 0.6351864337921143
0.36162763833999634 -0.09781146794557571 0.6639837026596069
0.3622244596481323 -0.09801041334867477 0.6639837026596069
0.36334019899368286 -0.10044971853494644 0.6656445860862732
0.36808234453201294 -0.10212108492851257 0.665717363357544
0.36854830384254456 -0.10468759387731552 0.667654275894165
0.3690131902694702 -0.10712561756372452 0.6694880127906799
0.36947202682495117 -0.10953190922737122 0.6712981462478638
0.36994025111198425 -0.11164746433496475 0.6728721261024475
0.3734646737575531 -0.11201462149620056 0.6722233295440674
0.37405839562416077 -0.11201012134552002 0.6720607280731201
0.37465283274650574 -0.11200547963380814 0.6718979477882385
0.3764246106147766 -0.11218996345996857 0.671571671962738
0.3782181739807129 -0.11216568201780319 0.6710719466209412
0.3800031840801239 -0.11230941116809845 0.6707095503807068
0.38239845633506775 -0.11241820454597473 0.6701554656028748
0.38300418853759766 -0.11238954216241837 0.6699702143669128
0.38602104783058167 -0.11247022449970245 0.6692271828651428
0.3908986747264862 -0.1124599352478981 0.6679130792617798
0.39888468384742737 -0.11270610988140106 0.6659725308418274
0.4063977301120758 -0.11267776042222977 0.6639379262924194
0.41463273763656616 -0.11278511583805084 0.6618192791938782
0.4199846088886261 -0.09195806831121445 0.6436564922332764
0.42062386870384216 -0.09217114746570587 0.6436564922332764
0.4237133264541626 -0.08359619975090027 0.6359412670135498
0.427545428276062 -0.0820525586605072 0.633675217628479
0.3621408939361572 -0.09787813574075699 0.6630887985229492
0.3680233359336853 -0.10166450589895248 0.6645593643188477
0.3704302906990051 -0.11200858652591705 0.6722455620765686
0.3727758228778839 -0.11231215298175812 0.67186039686203
0.38109591603279114 -0.11273441463708878 0.6699665784835815
0.3895486891269684 -0.11300402879714966 0.6679139733314514
0.39691832661628723 -0.11305727064609528 0.6659780144691467
0.4050005078315735 -0.1132175400853157 0.6639368534088135
0.41261211037635803 -0.11311323940753937 0.6618090867996216
0.41984134912490845 -0.09246837347745895 0.6432374715805054
0.42355185747146606 -0.08418522030115128 0.6355686187744141
0.42819449305534363 -0.08213844150304794 0.6326733231544495
0.36791911721229553 -0.10207949578762054 0.6641140580177307
0.3683958053588867 -0.1044851765036583 0.6659292578697205
0.36886268854141235 -0.10693033039569855 0.6677786707878113
0.3693234324455261 -0.1093442514538765 0.6696045398712158
0.3697783946990967 -0.11172690242528915 0.6714069247245789
0.37035754323005676 -0.11191993951797485 0.6714069247245789
0.3708931803703308 -0.11281456798315048 0.671985387802124
0.37977683544158936 -0.11327187716960907 0.6699626445770264
0.38761740922927856 -0.11335042119026184 0.6679147481918335
0.3955499827861786 -0.11360384523868561 0.6659834384918213
0.40301400423049927 -0.11355718970298767 0.6639359593391418
0.41119813919067383 -0.11363983154296875 0.6617987155914307
0.42417794466018677 -0.08433735370635986 0.6346321702003479
0.42884549498558044 -0.08222292363643646 0.6316671371459961
0.3624844551086426 -0.10025938600301743 0.6632981896400452
0.3636198937892914 -0.10204152017831802 0.6644352674484253
0.3642207086086273 -0.1020335778594017 0.6642665863037109
0.36601656675338745 -0.10225111246109009 0.6639577746391296
0.377881795167923 -0.11361376196146011 0.6699588894844055
0.38808539509773254 -0.11402730643749237 0.667538583278656
0.39112722873687744 -0.11409216374158859 0.6667696833610535
0.39236077666282654 -0.11402207612991333 0.6663799285888672
0.3935975730419159 -0.11395192891359329 0.6659890413284302
0.3941868245601654 -0.11414835602045059 0.6659890413284302
0.3960496783256531 -0.11404324322938919 0.6654007434844971
0.39851608872413635 -0.11410730332136154 0.6647864580154419
0.40036624670028687 -0.11419913172721863 0.664361298084259
0.40162864327430725 -0.1140933632850647 0.6639348864555359
0.4022611081600189 -0.11404028534889221 0.663720965385437
0.40412378311157227 -0.11413245648145676 0.6632925868034363
0.40663179755210876 -0.11416268348693848 0.6626399755477905
0.4085516333580017 -0.11400620639324188 0.6619946956634521
0.40919142961502075 -0.11396513879299164 0.6617886424064636
0.4104306399822235 -0.11412331461906433 0.6615821123123169
0.4129595160484314 -0.11419985443353653 0.6609613299369812
0.41425105929374695 -0.11411747336387634 0.660545825958252
0.42481422424316406 -0.0844462662935257 0.6336563229560852
0.4262700378894806 -0.08419708907604218 0.6330612897872925
0.4278780519962311 -0.08325597643852234 0.6318647265434265
0.4301609396934509 -0.08252870291471481 0.6306591033935547
0.3629317879676819 -0.10208278149366379 0.663847804069519
0.3641134798526764 -0.10256140679121017 0.6639164686203003
0.3682836592197418 -0.1035047173500061 0.6635538339614868
0.36917436122894287 -0.10915590077638626 0.667903482913971
0.36963126063346863 -0.11154425144195557 0.6697202324867249
0.3702116906642914 -0.11173772811889648 0.6697202324867249
0.37597864866256714 -0.11415188014507294 0.6701197624206543
0.37657421827316284 -0.1141422837972641 0.6699506044387817
0.3783694803714752 -0.11406583338975906 0.6694023609161377
0.3801523447036743 -0.1142050251364708 0.669032633304596
0.38254398107528687 -0.1143173947930336 0.6684763431549072
0.38436105847358704 -0.11423438787460327 0.6679166555404663
0.3861616849899292 -0.11437089741230011 0.6675400733947754
0.3922407627105713 -0.11449483036994934 0.6659944653511047
0.39965593814849854 -0.11443006247282028 0.6639338135719299
0.40715155005455017 -0.11452872306108475 0.6619842052459717
0.41477087140083313 -0.11452003568410873 0.6599138975143433
0.41944798827171326 -0.09381352365016937 0.6418251395225525
0.4200860857963562 -0.09402625262737274 0.6418251395225525
0.42078083753585815 -0.09395483881235123 0.6415790319442749
0.4238645136356354 -0.08546534180641174 0.6338470578193665
0.36231809854507446 -0.10000374913215637 0.6615126132965088
0.3686356842517853 -0.10663734376430511 0.6652013659477234
0.3705868124961853 -0.11400625854730606 0.670674741268158
0.37233981490135193 -0.11426887661218643 0.6704128384590149
0.37469449639320374 -0.11445203423500061 0.6699224710464478
0.38303372263908386 -0.11477095633745193 0.6679177284240723
0.39030224084854126 -0.11484000831842422 0.6659999489784241
0.4051612615585327 -0.11485093832015991 0.661973774433136
0.4133516252040863 -0.11504428088665009 0.6599069237709045
0.4237104058265686 -0.08601696044206619 0.6334452033042908
0.42675840854644775 -0.08483957499265671 0.6316581964492798
0.4290298521518707 -0.08412027359008789 0.6304554343223572
0.42984122037887573 -0.08364856243133545 0.6298510432243347
0.3674887418746948 -0.10401508212089539 0.662567675113678
0.3680850565433502 -0.10414738953113556 0.662513256072998
0.3705144226551056 -0.11391891539096832 0.669835090637207
0.3733997344970703 -0.11494626104831696 0.6698884963989258
0.38112956285476685 -0.11511041224002838 0.6679176688194275
0.3895699083805084 -0.11534513533115387 0.665810763835907
0.39632320404052734 -0.11529634892940521 0.6639319062232971
0.4037683606147766 -0.11539629101753235 0.6619859933853149
0.41133931279182434 -0.11536723375320435 0.6599003672599792
0.42131826281547546 -0.09425318241119385 0.6399325728416443
0.42435768246650696 -0.0860653892159462 0.6324154138565063
0.4258100092411041 -0.08581988513469696 0.6318193078041077
0.42969024181365967 -0.08416751772165298 0.6294124722480774
0.3626601994037628 -0.10237077623605728 0.6617288589477539
0.3637925088405609 -0.10414039343595505 0.662869393825531
0.3643837571144104 -0.10433747619390488 0.662869393825531
0.3684852421283722 -0.10640785098075867 0.6634456515312195
0.3689493238925934 -0.10887143015861511 0.6653373837471008
0.3694092035293579 -0.11127020418643951 0.667177140712738
0.3715327978134155 -0.11524635553359985 0.6698547005653381
0.3798133134841919 -0.11564233899116516 0.667917788028717
0.39496085047721863 -0.1158251091837883 0.6639308333396912
0.40993186831474304 -0.11588803678750992 0.6598936915397644
0.4242117702960968 -0.0865749642252922 0.631977379322052
0.366678923368454 -0.10484352707862854 0.6618481278419495
0.3684520721435547 -0.10550153255462646 0.6619030833244324
0.37553638219833374 -0.11608275026082993 0.668656587600708
0.37613174319267273 -0.1160569041967392 0.6684723496437073
0.3779223561286926 -0.11597888171672821 0.6679177284240723
0.37850213050842285 -0.11617213487625122 0.6679177284240723
0.38030123710632324 -0.1160922721028328 0.6673592925071716
0.3820866644382477 -0.1162281483411789 0.6669819355010986
0.38448360562324524 -0.1163228303194046 0.6664034128189087
0.38630661368370056 -0.11622222512960434 0.6658215522766113
0.3881147503852844 -0.1163158118724823 0.6654030680656433
0.3905438482761383 -0.11635928601026535 0.66477370262146
0.3923962414264679 -0.11620684713125229 0.6641412377357483
0.3930155038833618 -0.11615613102912903 0.6639297604560852
0.3942241370677948 -0.11630123108625412 0.6637179851531982
0.39609161019325256 -0.1161482036113739 0.6630807518959045
0.3985583782196045 -0.11619152873754501 0.6624409556388855
0.40040624141693115 -0.11628644913434982 0.6620126366615295
0.4010383188724518 -0.11622098088264465 0.6617858409881592
0.4023057818412781 -0.11608734726905823 0.6613287925720215
0.40416261553764343 -0.1162065863609314 0.6609184741973877
0.40602463483810425 -0.11632616072893143 0.6605067253112793
0.4079333245754242 -0.11620821803808212 0.6598871946334839
0.40857136249542236 -0.11616875231266022 0.6596798896789551
0.4104476273059845 -0.116288922727108 0.659264862537384
0.4123293161392212 -0.11640940606594086 0.6588484048843384
0.41427141427993774 -0.11624481528997421 0.658181369304657
0.4149227440357208 -0.11617959290742874 0.6579492688179016
0.4263150990009308 -0.08637779206037521 0.6303437352180481
0.42711684107780457 -0.0859127938747406 0.6297420859336853
0.36249446868896484 -0.10212024301290512 0.6599428057670593
0.36300501227378845 -0.10456297546625137 0.6618152856826782
0.36536863446235657 -0.10537435114383698 0.6618345379829407
0.36926037073135376 -0.11108534783124924 0.665471076965332
0.37029626965522766 -0.11365353316068649 0.6673025488853455
0.3713169991970062 -0.11621822416782379 0.6691354513168335
0.3724823594093323 -0.11640821397304535 0.6689718961715698
0.3766171634197235 -0.11650730669498444 0.667917788028717
0.384976863861084 -0.1167437955737114 0.6658169627189636
0.3916644752025604 -0.1166812852025032 0.6639286875724792
0.399069219827652 -0.1165633574128151 0.6617978811264038
0.41350257396698 -0.11671027541160583 0.6579549312591553
0.4160958528518677 -0.11651492118835449 0.6570818424224854
0.42312952876091003 -0.08805164694786072 0.6316986083984375
0.4239204227924347 -0.08759262412786484 0.6311031579971313
0.4261677861213684 -0.08688848465681076 0.6299057602882385
0.3624112606048584 -0.10199656337499619 0.6590481400489807
0.36705318093299866 -0.10608429461717606 0.6611471176147461
0.36824873089790344 -0.10623964667320251 0.6609464287757874
0.3700391948223114 -0.10657545179128647 0.6607306599617004
0.37473931908607483 -0.11684095859527588 0.6679179072380066
0.3830702602863312 -0.11706958711147308 0.6658123731613159
0.38973259925842285 -0.1170094683766365 0.6639278531074524
0.39769861102104187 -0.11709454655647278 0.6618041396141052
0.4045524597167969 -0.11704304814338684 0.6598739624023438
0.41148969531059265 -0.11703959107398987 0.6579604148864746
0.42072969675064087 -0.09635265916585922 0.6383236050605774
0.42155882716178894 -0.09561929106712341 0.6374890804290771
0.4244288206100464 -0.08831866830587387 0.6306668519973755
0.3639718294143677 -0.10604728758335114 0.661156415939331
0.36455437541007996 -0.1064271330833435 0.6613103151321411
0.3693624436855316 -0.10643716156482697 0.6599907875061035
0.37014999985694885 -0.11347577720880508 0.6656051278114319
0.37059831619262695 -0.11582440882921219 0.6674271821975708
0.373445063829422 -0.11736568808555603 0.6679179668426514
0.3817515969276428 -0.11758775264024734 0.665807843208313
0.39574483036994934 -0.11742352694272995 0.6618070602416992
0.4031679630279541 -0.11755683273077011 0.6598672866821289
0.4206062853336334 -0.09675866365432739 0.6378185153007507
0.42507699131965637 -0.08836778998374939 0.6296316385269165
0.42587941884994507 -0.08788128197193146 0.6290068626403809
0.3627528250217438 -0.10434924811124802 0.6592728495597839
0.37047499418258667 -0.10670750588178635 0.6590935587882996
0.3715817928314209 -0.11767041683197021 0.6678958535194397
0.3780575692653656 -0.11805517226457596 0.6664219498634338
0.3798579275608063 -0.11791078001260757 0.6658035516738892
0.3810400366783142 -0.11805512756109238 0.665596067905426
0.3840400278568268 -0.11805300414562225 0.6647632718086243
0.3864741921424866 -0.11785633862018585 0.6639257669448853
0.38705775141716003 -0.11805085837841034 0.6639257669448853
0.3900933265686035 -0.11804872751235962 0.6630832552909851
0.39314669370651245 -0.11804640293121338 0.6622357368469238
0.39621832966804504 -0.11804311722517014 0.661382257938385
0.40119674801826477 -0.11787157505750656 0.6598608493804932
0.4024174213409424 -0.11803103983402252 0.6596550941467285
0.4055362343788147 -0.11807708442211151 0.6588296890258789
0.4061700999736786 -0.11803899705410004 0.6586224436759949
0.40808260440826416 -0.11789336055517197 0.6579718589782715
0.4086783230304718 -0.11809193342924118 0.6579718589782715
0.4118521213531494 -0.11803653091192245 0.6570467352867126
0.41570234298706055 -0.1178937628865242 0.6558619737625122
0.4164245128631592 -0.11748187243938446 0.6553194522857666
0.42348960041999817 -0.08908994495868683 0.6297723650932312
0.3661513924598694 -0.10714321583509445 0.6598420143127441
0.3704532980918884 -0.11565247923135757 0.6657371520996094
0.371474027633667 -0.1181541308760643 0.6675381660461426
0.37204915285110474 -0.11834583431482315 0.6675381660461426
