ply
format ascii 1.0
element vertex 808
property float x
property float y
property float z
end_header
0.5071653723716736 -0.02450842596590519 0.6471558213233948
0.5066972970962524 -0.03025592304766178 0.6508969664573669
0.5092868208885193 -0.032176800072193146 0.6515673995018005
0.5106765627861023 -0.032876066863536835 0.6517170071601868
0.5126429200172424 -0.03421887010335922 0.6521521210670471
0.5139302015304565 -0.03305521607398987 0.6511428356170654
0.5160688161849976 -0.03186877444386482 0.649939239025116
0.5176371932029724 -0.03213730454444885 0.6497783660888672
0.5183609127998352 -0.03242245689034462 0.6498058438301086
0.5205646753311157 -0.0331980399787426 0.6498319506645203
0.5218352675437927 -0.03621936962008476 0.6514780521392822
0.5244064927101135 -0.03807451203465462 0.6521108150482178
0.5267510414123535 -0.03847489133477211 0.6518691182136536
0.5284335613250732 -0.03847157582640648 0.6515114307403564
0.5327191352844238 -0.03447747603058815 0.6480752825737
0.5336688160896301 -0.03425905480980873 0.6477360725402832
0.534622073173523 -0.034037280827760696 0.6473945379257202
0.5363502502441406 -0.03400404378771782 0.6470080018043518
0.5379542708396912 -0.03614896535873413 0.6480287909507751
0.5410882830619812 -0.03679785877466202 0.6477778553962708
0.5453596711158752 -0.03504298999905586 0.645763099193573
0.5503300428390503 -0.02823377214372158 0.6403979659080505
0.49747493863105774 -0.016375411301851273 0.6430944204330444
0.4977383613586426 -0.018062517046928406 0.6441115736961365
0.499194860458374 -0.021111126989126205 0.6457410454750061
0.4996284246444702 -0.02225853130221367 0.6463785767555237
0.5036336779594421 -0.02273993380367756 0.6458353996276855
0.504548192024231 -0.022527536377310753 0.6455066204071045
0.5052734017372131 -0.02966552972793579 0.6498906016349792
0.5058861970901489 -0.03024766407907009 0.6501308083534241
0.5117979645729065 -0.03431234881281853 0.6514621376991272
0.5126217603683472 -0.03432677313685417 0.6512970328330994
0.5207909345626831 -0.034761279821395874 0.6498419046401978
0.5218955874443054 -0.03815511614084244 0.6517651677131653
0.5226834416389465 -0.0382687970995903 0.6516708731651306
0.5242602825164795 -0.03849659487605095 0.6514814496040344
0.5371944308280945 -0.03603347763419151 0.6471747756004333
0.538465142250061 -0.03700680285692215 0.6475240588188171
0.5440835952758789 -0.03602397441864014 0.645709216594696
0.5494050979614258 -0.028433887287974358 0.6397560238838196
0.550150454044342 -0.0287245474755764 0.6397829055786133
0.49739402532577515 -0.009095371700823307 0.6375142931938171
0.49816036224365234 -0.009350813925266266 0.6375142931938171
0.4974246621131897 -0.01898905076086521 0.6438167095184326
0.4977685511112213 -0.02042241394519806 0.644657552242279
0.4993945062160492 -0.022944457828998566 0.6459200978279114
0.5009568929672241 -0.023240890353918076 0.6457774043083191
0.5056540369987488 -0.024128681048750877 0.6453452110290527
0.5061737895011902 -0.024995902553200722 0.6457872986793518
0.5050746202468872 -0.030239287763834 0.6493645310401917
0.5062990784645081 -0.0314008891582489 0.6498450636863708
0.5076450109481812 -0.03222532942891121 0.6500848531723022
0.5139979124069214 -0.03299384191632271 0.6492241621017456
0.5147355198860168 -0.033239711076021194 0.6492241621017456
0.5297994613647461 -0.039374079555273056 0.6499342918395996
0.5344322919845581 -0.03464805707335472 0.6459357142448425
0.5387968420982361 -0.0382525734603405 0.6473063230514526
0.542077898979187 -0.03672684356570244 0.6456361413002014
0.49873095750808716 -0.010190041735768318 0.6369577646255493
0.5068360567092896 -0.03221745789051056 0.6493199467658997
0.5080767869949341 -0.033316027373075485 0.6497583985328674
0.509386420249939 -0.03422209247946739 0.6500588059425354
0.5126867890357971 -0.03426821157336235 0.6493841409683228
0.5157034993171692 -0.03296465054154396 0.647907018661499
0.5164121985435486 -0.03328777849674225 0.6479630470275879
0.5185964107513428 -0.03410777822136879 0.6480218172073364
0.5199358463287354 -0.036978207528591156 0.6495721340179443
0.5263580679893494 -0.03963404893875122 0.6499017477035522
0.5324065685272217 -0.035455372184515 0.6459389328956604
0.5362070202827454 -0.03651631623506546 0.6458073258399963
0.5379998683929443 -0.03822413831949234 0.6465171575546265
0.5398107767105103 -0.038012173026800156 0.6459957361221313
0.5409132242202759 -0.03748507797718048 0.645423173904419
0.5440590381622314 -0.036290258169174194 0.643988311290741
0.5453261137008667 -0.03544006124138832 0.6431743502616882
0.5513921976089478 -0.03005341999232769 0.6384352445602417
0.497056245803833 -0.010107963345944881 0.6362916827201843
0.4962569773197174 -0.0175112783908844 0.6412127614021301
0.49682191014289856 -0.020770054310560226 0.6431832909584045
0.4979828894138336 -0.022244054824113846 0.6438805460929871
0.49893736839294434 -0.024286339059472084 0.6449868679046631
0.5014874935150146 -0.024141840636730194 0.6443489193916321
0.50331050157547 -0.023719778284430504 0.6436882615089417
0.5039253830909729 -0.024336885660886765 0.6439527273178101
0.5059016346931458 -0.03254334628582001 0.6487955451011658
0.5085470080375671 -0.034299448132514954 0.6493564248085022
0.5105884671211243 -0.03544791415333748 0.6496565937995911
0.5169653296470642 -0.034058742225170135 0.6474013924598694
0.518433153629303 -0.034574955701828 0.6474189162254333
0.5195245742797852 -0.03804656118154526 0.6494125723838806
0.5206724405288696 -0.03930601850152016 0.6499754190444946
0.5222464203834534 -0.03953399509191513 0.6497849822044373
0.5245559811592102 -0.040006984025239944 0.649594783782959
0.5262270569801331 -0.040020499378442764 0.6492457389831543
0.5286675691604614 -0.04020916298031807 0.6488451361656189
0.5313547849655151 -0.0359981432557106 0.6455684304237366
0.5354629158973694 -0.036361921578645706 0.6449229121208191
0.5420394539833069 -0.037018898874521255 0.6439380049705505
0.5481225252151489 -0.029615025967359543 0.6378859877586365
0.5496118068695068 -0.030195657163858414 0.6379402279853821
0.5503736734390259 -0.030449610203504562 0.6379402279853821
0.5525360703468323 -0.027783911675214767 0.6357672810554504
0.49614590406417847 -0.010285980068147182 0.6356287598609924
0.49593865871429443 -0.018458597362041473 0.6409338116645813
0.4962143898010254 -0.020111486315727234 0.6419383883476257
0.4997258484363556 -0.02442922629415989 0.6439642310142517
0.5006335973739624 -0.024219250306487083 0.6436343193054199
0.5042080879211426 -0.0258935634046793 0.6439446806907654
0.5049536228179932 -0.026142073795199394 0.6439446806907654
0.5038663744926453 -0.031376808881759644 0.64754718542099
0.504479706287384 -0.03195664659142494 0.6477888226509094
0.5077076554298401 -0.03437647223472595 0.648654043674469
0.5127521753311157 -0.034209318459033966 0.647464394569397
0.5139129757881165 -0.033377207815647125 0.6466795802116394
0.5191832184791565 -0.03691199794411659 0.6478242874145508
0.5228884220123291 -0.0400698147714138 0.6490613222122192
0.5312505960464478 -0.03632383793592453 0.6448566317558289
0.5321979522705078 -0.0361076220870018 0.6445140242576599
0.5362628102302551 -0.03847961500287056 0.6451683640480042
0.5407963395118713 -0.03794395551085472 0.643851101398468
0.547943651676178 -0.03010498732328415 0.6372727155685425
0.49523475766181946 -0.01046812068670988 0.6349696516990662
0.4959033727645874 -0.02103339694440365 0.641646683216095
0.4979532063007355 -0.024756766855716705 0.6436094045639038
0.5039800405502319 -0.02655176818370819 0.6434714198112488
0.5042816996574402 -0.03252812847495079 0.6472648978233337
0.5062393546104431 -0.03392863646149635 0.6477479338645935
0.5068681240081787 -0.03445363789796829 0.6479515433311462
0.5095653533935547 -0.03605370223522186 0.648404598236084
0.5102183818817139 -0.03650454431772232 0.6485546231269836
0.5114454030990601 -0.03547881916165352 0.6476286053657532
0.5144805312156677 -0.034113917499780655 0.646094024181366
0.5203819274902344 -0.04014817252755165 0.6487201452255249
0.5259649753570557 -0.04079267010092735 0.6479341983795166
0.5268051624298096 -0.04079235717654228 0.6477532386779785
0.5284551978111267 -0.04086723551154137 0.6474463939666748
0.532096266746521 -0.03642803058028221 0.6437968015670776
0.5344751477241516 -0.03684486821293831 0.643554151058197
0.5354991555213928 -0.03837438300251961 0.6443209648132324
0.5396345853805542 -0.03870002552866936 0.6436412930488586
0.5407598614692688 -0.038126591593027115 0.6430290937423706
0.5440229177474976 -0.036689579486846924 0.6413989067077637
0.49428701400756836 -0.01839447394013405 0.6393334269523621
0.5020747184753418 -0.024910548701882362 0.6418724060058594
0.5034709572792053 -0.03252032771706581 0.64649897813797
0.5053066611289978 -0.034253429621458054 0.6472252607345581
0.5086479783058167 -0.03633740171790123 0.647853434085846
0.5101460814476013 -0.036741457879543304 0.6477922201156616
0.5128624439239502 -0.03403536602854729 0.6454529762268066
0.5143094658851624 -0.034604042768478394 0.645508885383606
0.5164691209793091 -0.03548077866435051 0.6456101536750793
0.5183635950088501 -0.039047643542289734 0.6475114226341248
0.5187188982963562 -0.040210843086242676 0.6481878757476807
0.5210230350494385 -0.04068360850214958 0.6479969620704651
0.522597074508667 -0.04091266542673111 0.6478054523468018
0.5293541550636292 -0.03694329783320427 0.6437758803367615
0.5300967693328857 -0.037190843373537064 0.6437758803367615
0.5347347259521484 -0.038269273936748505 0.6434733271598816
0.541999340057373 -0.03741971775889397 0.6413547992706299
0.5427476763725281 -0.03766921907663345 0.6413547992706299
0.5500779747962952 -0.02955462411046028 0.6345168948173523
0.49489861726760864 -0.011478162370622158 0.6337489485740662
0.49397361278533936 -0.019333278760313988 0.6390519738197327
0.4953448176383972 -0.02269027754664421 0.6409357786178589
0.4994024336338043 -0.025406811386346817 0.6418220400810242
0.500309944152832 -0.025197824463248253 0.6414897441864014
0.5024728775024414 -0.026156583800911903 0.6416440010070801
0.501923680305481 -0.03226734697818756 0.6457328796386719
0.502659797668457 -0.032512761652469635 0.6457328796386719
0.5078101754188538 -0.03641462326049805 0.6471521258354187
0.5115082859992981 -0.03542226925492287 0.6457066535949707
0.517047107219696 -0.03618716448545456 0.645004153251648
0.5180187225341797 -0.037916429340839386 0.6459174156188965
0.5179561376571655 -0.04011015594005585 0.647355854511261
0.5185741782188416 -0.04063154757022858 0.6475610136985779
0.5339906215667725 -0.03811684995889664 0.6425888538360596
0.5355700254440308 -0.0402999110519886 0.6436649560928345
0.5365795493125916 -0.03995725139975548 0.6432240009307861
0.5373218655586243 -0.040204692631959915 0.6432240009307861
0.5407315492630005 -0.0383945032954216 0.6413097977638245
0.5466630458831787 -0.031283486634492874 0.6354057788848877
0.5481513738632202 -0.03186352178454399 0.635460376739502
0.49546557664871216 -0.012328928336501122 0.6332051753997803
0.49366456270217896 -0.020258506760001183 0.6387632489204407
0.4944159984588623 -0.020508987829089165 0.6387632489204407
0.4946965277194977 -0.022152505815029144 0.6397735476493835
0.4954971969127655 -0.024689828976988792 0.6412530541419983
0.4960031807422638 -0.025634562596678734 0.641758918762207
0.49748486280441284 -0.02614908665418625 0.6417716145515442
0.5036891102790833 -0.03423868492245674 0.6456959247589111
0.5043004751205444 -0.034814849495887756 0.6459382176399231
0.5102064609527588 -0.036687448620796204 0.6458759307861328
0.5154064893722534 -0.03616740554571152 0.6444072723388672
0.5176104307174683 -0.03898408263921738 0.6457642912864685
0.5255724191665649 -0.04195081442594528 0.645967960357666
0.5264840722084045 -0.04178442806005478 0.6456611752510071
0.5318113565444946 -0.03734414279460907 0.6416112184524536
0.5325011610984802 -0.03771562874317169 0.6417034268379211
0.538358211517334 -0.039912737905979156 0.6418625116348267
0.541972815990448 -0.03768698126077652 0.6396273374557495
0.5427221655845642 -0.03793676942586899 0.6396273374557495
0.5472287535667419 -0.03206256031990051 0.6348206996917725
0.5480202436447144 -0.0322515033185482 0.6347717046737671
0.49381911754608154 -0.012169267050921917 0.6324838995933533
0.49307242035865784 -0.01952768862247467 0.637455940246582
0.4957725703716278 -0.02631611004471779 0.6413052082061768
0.49828070402145386 -0.02626701444387436 0.6407262682914734
0.5008409023284912 -0.026099340990185738 0.6400593519210815
0.5025413036346436 -0.028337348252534866 0.6411515474319458
0.5054782629013062 -0.036118216812610626 0.6455974578857422
0.5061336159706116 -0.03656943887472153 0.6457496285438538
0.5116092562675476 -0.03526896983385086 0.6437067985534668
0.512350857257843 -0.03550512343645096 0.6436994075775146
0.5137965679168701 -0.036073148250579834 0.6437556147575378
0.5145154595375061 -0.03636656329035759 0.6437909007072449
0.5172035098075867 -0.040047962218523026 0.6456111669540405
0.5213736891746521 -0.042060885578393936 0.646018922328949
0.5221962928771973 -0.04209086671471596 0.6458590030670166
0.5246029496192932 -0.04233640804886818 0.6454949975013733
0.5281007885932922 -0.0381292887032032 0.6419829726219177
0.5290409326553345 -0.03792031109333038 0.6416414976119995
0.5322601795196533 -0.03835124522447586 0.641221821308136
0.5340439081192017 -0.040091924369335175 0.641970694065094
0.5364602208137512 -0.04041598364710808 0.6416561007499695
0.5382989645004272 -0.04014258459210396 0.641076922416687
0.5407034754753113 -0.03866318240761757 0.6395863890647888
0.5427093505859375 -0.03807053342461586 0.6387616395950317
0.5483964681625366 -0.031570110470056534 0.6332740783691406
0.4936513304710388 -0.01267408300191164 0.631875216960907
0.49438825249671936 -0.01301247626543045 0.6319355368614197
0.49276307225227356 -0.020457809790968895 0.6371726393699646
0.4930490255355835 -0.02210223488509655 0.6381885409355164
0.4945540726184845 -0.02503732219338417 0.6397838592529297
0.4990783929824829 -0.026385221630334854 0.6396784782409668
0.500732958316803 -0.02642577886581421 0.6393439173698425
0.5017734169960022 -0.028181955218315125 0.6402676105499268
0.5007194876670837 -0.03340168297290802 0.6439206600189209
0.5082074403762817 -0.03767566755414009 0.6450862884521484
0.5102669596672058 -0.03663334622979164 0.6439525485038757
0.5181397795677185 -0.04189325496554375 0.6456806063652039
0.5189245343208313 -0.04200809821486473 0.6455844640731812
0.5204420685768127 -0.04236679524183273 0.6454878449440002
0.5279942750930786 -0.03845950588583946 0.6412757635116577
0.5306463241577148 -0.03823105990886688 0.6405460834503174
0.5338141918182373 -0.04069802165031433 0.641471266746521
0.5394395589828491 -0.039634861052036285 0.6395452618598938
0.5446239113807678 -0.032206859439611435 0.633542001247406
0.5461280941963196 -0.03275001421570778 0.633569061756134
0.4927424490451813 -0.023020492866635323 0.6379020810127258
0.4938724637031555 -0.024604586884379387 0.6386956572532654
0.49479907751083374 -0.02675914764404297 0.6399099826812744
0.4962595999240875 -0.027332181110978127 0.6399665474891663
0.5015475153923035 -0.02883746474981308 0.6397973299026489
0.5011380910873413 -0.03454877808690071 0.6436430811882019
0.502485990524292 -0.03536951541900635 0.6438874006271362
0.5037236213684082 -0.03647949546575546 0.6443460583686829
0.5064213871955872 -0.03807426989078522 0.6448034644126892
0.5157148241996765 -0.03974123299121857 0.6438623666763306
0.5164490938186646 -0.03998598828911781 0.6438623666763306
0.5164336562156677 -0.042067721486091614 0.645235002040863
0.5252504944801331 -0.04294496774673462 0.6438791155815125
0.5305511951446533 -0.03853645175695419 0.6398180723190308
0.5381808280944824 -0.04060215875506401 0.639503538608551
0.5406752228736877 -0.038931842893362045 0.6378583312034607
0.4918109178543091 -0.013102548196911812 0.6306073069572449
0.49186021089553833 -0.020657256245613098 0.6355798244476318
0.49318933486938477 -0.02417035773396492 0.6376053690910339
0.5029013156890869 -0.03651191294193268 0.6436105966567993
0.5041970014572144 -0.03745778277516365 0.6439499258995056
0.5055842399597168 -0.03815146163105965 0.6441025733947754
0.5082640051841736 -0.037623293697834015 0.6431647539138794
0.510350227355957 -0.036520298570394516 0.6419782638549805
0.5125558972358704 -0.03727215901017189 0.6419893503189087
0.5147621631622314 -0.03802183270454407 0.641998827457428
0.5153111815452576 -0.040803417563438416 0.6437130570411682
0.5160441994667053 -0.041047755628824234 0.6437130570411682
0.5218048691749573 -0.043246667832136154 0.6438969373703003
0.5226406455039978 -0.04324769973754883 0.6437139511108398
0.5277854204177856 -0.039110828191041946 0.6398535370826721
0.528740406036377 -0.03886878862977028 0.6394837498664856
0.5315428972244263 -0.04024301469326019 0.6397742629051208
0.5341023802757263 -0.04214160144329071 0.6404638290405273
0.5351899266242981 -0.04162444546818733 0.6398836374282837
0.536281168460846 -0.041105326265096664 0.6393014788627625
0.5394096970558167 -0.039904557168483734 0.6378210783004761
0.49314260482788086 -0.014205812476575375 0.6300652027130127
0.49184367060661316 -0.02322053536772728 0.6363162398338318
0.4933483898639679 -0.026164505630731583 0.6379324793815613
0.4938250184059143 -0.027202509343624115 0.6385143399238586
0.4978490173816681 -0.027570920065045357 0.6378707885742188
0.4987545907497406 -0.027363991364836693 0.6375337243080139
0.49930042028427124 -0.02817918173968792 0.6379528045654297
0.5000454783439636 -0.02842743881046772 0.6379528045654297
0.4995167553424835 -0.03453480452299118 0.6421108245849609
0.5047467947006226 -0.03822902962565422 0.6434016823768616
0.5060552954673767 -0.03912688046693802 0.643707275390625
0.5138628482818604 -0.03824304789304733 0.6414002776145935
0.5156408548355103 -0.04210590571165085 0.6435642838478088
0.5161383748054504 -0.042924027889966965 0.6439960598945618
0.5184903144836426 -0.04326896741986275 0.643705427646637
0.5325922966003418 -0.04180534929037094 0.6396263837814331
0.5331268310546875 -0.0425122007727623 0.639976441860199
0.5340420603752136 -0.04237108305096626 0.6396806240081787
0.5381497740745544 -0.040872398763895035 0.637783408164978
0.5433475971221924 -0.03338239714503288 0.6316806077957153
0.544090986251831 -0.03367171809077263 0.6317081451416016
0.5455942749977112 -0.0342143215239048 0.631735622882843
0.49147269129753113 -0.014123493805527687 0.6294010877609253
0.4922366142272949 -0.014378132298588753 0.6294010877609253
0.4912484884262085 -0.022501980885863304 0.635011613368988
0.4915387034416199 -0.024137059226632118 0.6360329985618591
0.494293212890625 -0.02826564386487007 0.6381638050079346
0.49519211053848267 -0.02806048095226288 0.6378287672996521
0.49683743715286255 -0.02810271456837654 0.637492835521698
0.49932146072387695 -0.03510415554046631 0.6415902972221375
0.5005508661270142 -0.03625435009598732 0.6420813202857971
0.5031769275665283 -0.038062408566474915 0.6427006721496582
0.5083209276199341 -0.03757084906101227 0.6412359476089478
0.5145543813705444 -0.040742214769124985 0.641961932182312
0.5198763012886047 -0.044013772159814835 0.6429564356803894
0.5207095146179199 -0.04401547089219093 0.6427729725837708
0.5223797559738159 -0.044018346816301346 0.6424055695533752
0.524018406867981 -0.04410368949174881 0.6420993804931641
0.5316228270530701 -0.04216291382908821 0.6391286253929138
0.536161482334137 -0.04156573861837387 0.6377282738685608
0.5439136624336243 -0.03415935859084129 0.6310975551605225
0.4906509518623352 -0.021780844777822495 0.6337025761604309
0.49123474955558777 -0.02505125105381012 0.6357502937316895
0.49165964126586914 -0.026264041662216187 0.6364634037017822
0.49336788058280945 -0.02856144867837429 0.6376135945320129
0.5001159906387329 -0.030611705034971237 0.6374809145927429
0.4997413158416748 -0.03624769672751427 0.6413161158561707
0.50035560131073 -0.036821428686380386 0.64156174659729
0.5023391842842102 -0.03813974931836128 0.641999363899231
0.5057178139686584 -0.04010424017906189 0.6425576210021973
0.5070288777351379 -0.03882906585931778 0.641417384147644
0.5106230974197388 -0.038115374743938446 0.6401448845863342
0.5214137434959412 -0.044401977211236954 0.6419353485107422
0.5222678184509277 -0.04435913637280464 0.6417170763015747
0.5256041288375854 -0.04048654064536095 0.6383988857269287
0.5265318155288696 -0.04029927775263786 0.6380680203437805
0.5274851322174072 -0.04005768522620201 0.6376957893371582
0.5284543037414551 -0.03978442773222923 0.6372987031936646
0.5291977524757385 -0.040032122284173965 0.6372987031936646
0.5303211212158203 -0.041351836174726486 0.6379284262657166
0.5350094437599182 -0.04231439158320427 0.6375288963317871
0.539365291595459 -0.04030967131257057 0.635227382183075
0.4903462827205658 -0.022702578455209732 0.6334203481674194
0.49752506613731384 -0.02854929305613041 0.6357271671295166
0.498604953289032 -0.030208364129066467 0.6365945935249329
0.5015054941177368 -0.03820497542619705 0.6412889957427979
0.5041996836662292 -0.03980732336640358 0.6417592763900757
0.5048536658287048 -0.04025544598698616 0.6419129371643066
0.5083023905754089 -0.03771562501788139 0.6394492983818054
0.5097463130950928 -0.03828234225511551 0.6395058631896973
0.5104535222053528 -0.03860337659716606 0.639563262462616
0.5126429796218872 -0.0393897145986557 0.6396005153656006
0.5137957334518433 -0.040680740028619766 0.6402064561843872
0.5137530565261841 -0.04285900667309761 0.6416704058647156
0.5149230360984802 -0.04406740143895149 0.6422167420387268
0.5164884924888611 -0.04429790750145912 0.6420221328735352
0.5172721147537231 -0.04441316798329353 0.6419250965118408
0.5180562138557434 -0.04452885687351227 0.6418276429176331
0.5254926085472107 -0.04082779586315155 0.6377009749412537
0.5306310653686523 -0.042664144188165665 0.6377832889556885
0.532776951789856 -0.043574728071689606 0.6379139423370361
0.5368622541427612 -0.042108017951250076 0.636025071144104
0.5420732498168945 -0.03455626219511032 0.6298222541809082
0.5443183779716492 -0.03538723662495613 0.6298776865005493
0.5463891625404358 -0.03285454586148262 0.6277253031730652
0.49020934104919434 -0.015380267053842545 0.6275823712348938
0.4907150864601135 -0.02661244571208954 0.6349927186965942
0.49188482761383057 -0.028066271916031837 0.6357052326202393
0.49486789107322693 -0.029036996886134148 0.6356894969940186
0.49812108278274536 -0.036234766244888306 0.6397842168807983
0.503286600112915 -0.040089201182127 0.6412127614021301
0.5070832967758179 -0.03877905383706093 0.6394876837730408
0.5132206082344055 -0.04009362310171127 0.6389978528022766
0.5140489935874939 -0.04424352943897247 0.6415920853614807
0.5298662185668945 -0.042561691254377365 0.6369341611862183
0.5316795706748962 -0.04421883821487427 0.6376397013664246
0.5348889827728271 -0.04277508705854416 0.6359559297561646
0.5361008644104004 -0.04199553653597832 0.635162889957428
0.5368461608886719 -0.042243972420692444 0.635162889957428
0.5418963432312012 -0.03504333645105362 0.6292122006416321
0.4892955422401428 -0.015579551458358765 0.6269395351409912
0.4886941909790039 -0.022643866017460823 0.6318202614784241
0.48973971605300903 -0.024538595229387283 0.6328592300415039
0.49003416299819946 -0.026164263486862183 0.633885383605957
0.49216774106025696 -0.02968193218111992 0.6357709765434265
0.49762773513793945 -0.03066352568566799 0.6352079510688782
0.4981631338596344 -0.03149908035993576 0.6356493830680847
0.49792683124542236 -0.03680236637592316 0.6392652988433838
0.4997704327106476 -0.03852047771215439 0.6400065422058105
0.5057954788208008 -0.04003281146287918 0.6396734714508057
0.5115867257118225 -0.04006870836019516 0.6384007334709167
0.5129957795143127 -0.042800650000572205 0.639920175075531
0.5131236910820007 -0.044547174125909805 0.6410652995109558
0.5210405588150024 -0.04551481083035469 0.639942467212677
0.5226818323135376 -0.045589085668325424 0.6396245360374451
0.5262322425842285 -0.04124453663825989 0.6359110474586487
0.5285846590995789 -0.04169666767120361 0.635688066482544
0.5326552391052246 -0.044034700840711594 0.6363470554351807
0.5337398648262024 -0.04352136328816414 0.6357594132423401
0.5380720496177673 -0.041550517082214355 0.633465051651001
0.5440301299095154 -0.036219120025634766 0.6285486817359924
0.4891163408756256 -0.016124259680509567 0.6263651847839355
0.4897700250148773 -0.0269607063382864 0.6335208415985107
0.4919416904449463 -0.030355455353856087 0.6353210210800171
0.4928470551967621 -0.03012220188975334 0.634960412979126
0.49629735946655273 -0.029732631519436836 0.6339228749275208
0.49896252155303955 -0.038514308631420135 0.6392418146133423
0.5003076791763306 -0.039329517632722855 0.6394891738891602
0.5016136169433594 -0.04024413973093033 0.6398122310638428
0.5022688508033752 -0.040691595524549484 0.6399666666984558
0.5070887207984924 -0.03885772451758385 0.6376482844352722
0.5085321068763733 -0.039423611015081406 0.6377052664756775
0.5099529027938843 -0.04004566743969917 0.6378051042556763
0.5106895565986633 -0.040289219468832016 0.6378039717674255
0.5121626853942871 -0.04077594727277756 0.6378011703491211
0.5176628232002258 -0.045689843595027924 0.6398767828941345
0.5183937549591064 -0.045933499932289124 0.6398767828941345
0.5235071778297424 -0.04175649210810661 0.6359133720397949
0.5242475271224976 -0.042003266513347626 0.6359133720397949
0.5251758098602295 -0.04181143641471863 0.6355754733085632
0.5276045799255371 -0.04208074137568474 0.6352112293243408
0.5283465385437012 -0.04232806712388992 0.6352112293243408
0.5299501419067383 -0.04447264224290848 0.636296808719635
0.5325945019721985 -0.044264983385801315 0.6355628371238708
0.536067545413971 -0.042267605662345886 0.6334367990493774
0.5408006310462952 -0.03572804108262062 0.6279659867286682
0.541543185710907 -0.03601674363017082 0.6279937624931335
0.5422852635383606 -0.03630562126636505 0.6280219554901123
0.5439562201499939 -0.034605592489242554 0.6265011429786682
0.5447187423706055 -0.03485976159572601 0.6265011429786682
0.48808854818344116 -0.024490192532539368 0.6312695145606995
0.48993998765945435 -0.02894117310643196 0.6338610649108887
0.49363285303115845 -0.03025273233652115 0.6339154839515686
0.49453526735305786 -0.030038734897971153 0.6335678100585938
0.4961129426956177 -0.030278412625193596 0.6333743333816528
0.4971693158149719 -0.03200409188866615 0.6343022584915161
0.49618861079216003 -0.03711883723735809 0.6379804015159607
0.505847692489624 -0.03998488187789917 0.6377414464950562
0.5122014880180359 -0.04490594565868378 0.6396360397338867
0.5143476128578186 -0.045743610709905624 0.6397188305854797
0.5167027115821838 -0.04607127979397774 0.639409601688385
0.5182636976242065 -0.046317845582962036 0.6392248868942261
0.5208277106285095 -0.04617123678326607 0.6385480761528015
0.5233956575393677 -0.042097944766283035 0.6352159976959229
0.5291862487792969 -0.0443713553249836 0.6354483366012573
0.5307124853134155 -0.04475988820195198 0.6353670358657837
0.5348159670829773 -0.04322946444153786 0.633407711982727
0.5421087145805359 -0.036791812628507614 0.627413272857666
0.487493634223938 -0.023748360574245453 0.6299347281455994
0.48778828978538513 -0.02540554292500019 0.6309918165206909
0.49022459983825684 -0.0305623896420002 0.633937656879425
0.49693411588668823 -0.032691944390535355 0.6338649988174438
0.49599534273147583 -0.03768584877252579 0.6374629139900208
0.4973447620868683 -0.03850274905562401 0.6377118825912476
0.4992087483406067 -0.04015538468956947 0.6384111642837524
0.5025608539581299 -0.04218694940209389 0.6390310525894165
0.5045647025108337 -0.04123423993587494 0.6379322409629822
0.5074586868286133 -0.04015212506055832 0.6365442276000977
0.5118393898010254 -0.043798018246889114 0.638026237487793
0.5119125247001648 -0.04568805173039436 0.6392910480499268
0.514203667640686 -0.04616249352693558 0.639094889163971
0.5207213759422302 -0.04649977758526802 0.6378510594367981
0.5259451270103455 -0.04215974733233452 0.6337276101112366
0.5266204476356506 -0.04256156086921692 0.6338473558425903
0.532472550868988 -0.04472588747739792 0.6339923143386841
0.5360338687896729 -0.042540404945611954 0.6317058801651001
0.48718780279159546 -0.024684013798832893 0.6296718716621399
0.48748889565467834 -0.026318436488509178 0.6307151317596436
0.4882364869117737 -0.026567678898572922 0.6307151317596436
0.48856693506240845 -0.028087077662348747 0.6316733360290527
0.4894810914993286 -0.030319662764668465 0.6329843401908875
0.49580225348472595 -0.03825242444872856 0.6369459629058838
0.4983801245689392 -0.040208850055933 0.637691855430603
0.5017256736755371 -0.042264316231012344 0.6383316516876221
0.5058767795562744 -0.03999795392155647 0.6358491778373718
0.5065838098526001 -0.04031827673316002 0.6359071731567383
0.5080258250236511 -0.04088360443711281 0.6359642744064331
0.5107410550117493 -0.04243858903646469 0.6364065408706665
0.5114436149597168 -0.04485052078962326 0.6378874778747559
0.51176917552948 -0.04610638692975044 0.6386675238609314
0.5125494599342346 -0.046222202479839325 0.6385697722434998
0.5172731876373291 -0.04684234783053398 0.6379206776618958
0.5180040597915649 -0.0470859669148922 0.6379206776618958
0.5231859087944031 -0.042749159038066864 0.6337966918945312
0.527656078338623 -0.04416820779442787 0.6337484121322632
0.5305895805358887 -0.04522041603922844 0.6337993144989014
0.5347810983657837 -0.04350266978144646 0.6316808462142944
0.4932890832424164 -0.031285278499126434 0.6318188309669495
0.494075208902359 -0.031410057097673416 0.6317253112792969
0.4953491985797882 -0.03251904249191284 0.6321921348571777
0.49757274985313416 -0.04020319879055023 0.6369278430938721
0.5002351999282837 -0.0418955534696579 0.6374766826629639
0.5008904337882996 -0.042341697961091995 0.6376321315765381
0.5025811195373535 -0.042211685329675674 0.6371590495109558
0.5046143531799316 -0.041188981384038925 0.635999321937561
0.5100510120391846 -0.04213500767946243 0.6354081034660339
0.5124059915542603 -0.046640533953905106 0.6379457116127014
0.5146976113319397 -0.04711561277508736 0.6377490162849426
0.5285083055496216 -0.046174682676792145 0.6339673399925232
0.5294516682624817 -0.04595978185534477 0.6336061954498291
0.5335333347320557 -0.04446132481098175 0.6316556334495544
0.4865875542163849 -0.026520632207393646 0.6291267275810242
0.48689180612564087 -0.02813795581459999 0.6301636695861816
0.48850831389427185 -0.03076273389160633 0.6315904855728149
0.489717572927475 -0.032082945108413696 0.6322184801101685
0.490458607673645 -0.03232995420694351 0.6322184801101685
0.4913631081581116 -0.03209280967712402 0.6318498849868774
0.4938221573829651 -0.032156363129615784 0.631332278251648
0.4945652484893799 -0.032404057681560516 0.631332278251648
0.49564939737319946 -0.034047454595565796 0.6322094798088074
0.49479949474334717 -0.03881257027387619 0.6356635689735413
0.4961491823196411 -0.03962767496705055 0.6359134316444397
0.5084187984466553 -0.04211345314979553 0.6348156332969666
0.5099520683288574 -0.04455089941620827 0.6361334323883057
0.510702908039093 -0.04682733863592148 0.6375195980072021
0.5246936678886414 -0.043344445526599884 0.6319463849067688
0.5259237289428711 -0.04442276433110237 0.6324033737182617
0.527744710445404 -0.04607420787215233 0.6331184506416321
0.534745991230011 -0.04377662390470505 0.6299495697021484
0.4859902262687683 -0.025785282254219055 0.6277911067008972
0.4866207540035248 -0.028963454067707062 0.6298277378082275
0.48779842257499695 -0.03041083551943302 0.6305516362190247
0.48879188299179077 -0.03239021450281143 0.6316825151443481
0.4948422312736511 -0.03400661423802376 0.6314078569412231
0.49399319291114807 -0.03879493474960327 0.6348876953125
0.4959564208984375 -0.04019232839345932 0.6353979706764221
0.49657174944877625 -0.0407618023455143 0.6356475949287415
0.4984891712665558 -0.04225349426269531 0.636232852935791
0.5026074051856995 -0.042220257222652435 0.635267972946167
0.5067889094352722 -0.042088206857442856 0.6342206001281738
0.509559690952301 -0.045601487159729004 0.6359977722167969
0.5102903246879578 -0.04584503546357155 0.6359977722167969
0.5168837308883667 -0.047994110733270645 0.6359645128250122
0.517614483833313 -0.04823768883943558 0.6359645128250122
0.5184845924377441 -0.04814863204956055 0.6357042193412781
0.5210235714912415 -0.04410257190465927 0.6323471665382385
0.5219390988349915 -0.04393186420202255 0.6320202350616455
0.5228952765464783 -0.0436704196035862 0.6316221952438354
0.5251647233963013 -0.04430224373936653 0.6315367221832275
0.5304049253463745 -0.04591242969036102 0.6314432621002197
0.5311461687088013 -0.04615951329469681 0.6314432621002197
0.5334968566894531 -0.044735681265592575 0.6299284100532532
0.4856870770454407 -0.02671661227941513 0.6275310516357422
0.4859924614429474 -0.028340741991996765 0.6285789608955383
0.49765339493751526 -0.042331259697675705 0.6355330944061279
0.49830979108810425 -0.042776864022016525 0.6356892585754395
0.5012797117233276 -0.04361376538872719 0.635583758354187
0.5044736266136169 -0.04169020801782608 0.6335269808769226
0.5059052109718323 -0.04227937012910843 0.6336039900779724
0.5066304206848145 -0.042549118399620056 0.6336231827735901
0.508101224899292 -0.043034832924604416 0.6336205005645752
0.5091687440872192 -0.0466485321521759 0.6358628273010254
0.5127559900283813 -0.04801154136657715 0.6359775066375732
0.5142681002616882 -0.04836564138531685 0.6358741521835327
0.5209120512008667 -0.04444362595677376 0.6316506862640381
0.5235404372215271 -0.044222138822078705 0.6308955550193787
0.5260165929794312 -0.04632812738418579 0.6317768692970276
0.528192937374115 -0.047157712280750275 0.6318485736846924
0.48611173033714294 -0.030511517077684402 0.629082977771759
0.48782286047935486 -0.03282793611288071 0.6302882432937622
0.4910067021846771 -0.03316260501742363 0.6297870874404907
0.49247869849205017 -0.033691827207803726 0.6298131942749023
0.49301737546920776 -0.034529805183410645 0.6302680373191833
0.49306195974349976 -0.03915056958794594 0.6334479451179504
0.5001875758171082 -0.044384073466062546 0.6354212164878845
0.5026174187660217 -0.042272865772247314 0.6334043145179749
0.5102737545967102 -0.048080816864967346 0.6356521248817444
0.5252510905265808 -0.046227917075157166 0.6309264898300171
0.5302814841270447 -0.04637463390827179 0.6298702359199524
0.485421359539032 -0.030086999759078026 0.627984344959259
0.4858579933643341 -0.031283438205718994 0.6287119388580322
0.4870833158493042 -0.032572079449892044 0.6293218731880188
0.488330215215683 -0.03377648442983627 0.6298677921295166
0.49216875433921814 -0.034607090055942535 0.6295568346977234
0.4934144914150238 -0.040500227361917496 0.6333503127098083
0.4940314292907715 -0.04107126221060753 0.633603036403656
0.4959939122200012 -0.04245036467909813 0.6341052055358887
0.4986802935600281 -0.044066011905670166 0.63460373878479
0.5012956261634827 -0.04364658519625664 0.6337097883224487
0.5077572464942932 -0.04402286931872368 0.6324782967567444
0.5083764791488647 -0.044561874121427536 0.6327091455459595
0.5086244940757751 -0.0481395423412323 0.6351289749145508
0.5165321826934814 -0.04905499890446663 0.6339379549026489
0.5197846293449402 -0.04527265205979347 0.6305681467056274
0.521648645401001 -0.04485161229968071 0.6298460960388184
0.5226072072982788 -0.044585492461919785 0.6294407248497009
0.5269989967346191 -0.048123009502887726 0.6308767795562744
0.5291421413421631 -0.0471135750412941 0.6296830177307129
0.5334422588348389 -0.04514840990304947 0.6273297071456909
0.4856048822402954 -0.0320536307990551 0.6283414363861084
0.48734793066978455 -0.034258805215358734 0.6294693946838379
0.48820066452026367 -0.03416505455970764 0.6292070746421814
0.4913199841976166 -0.03468463197350502 0.6288456916809082
0.49243155121803284 -0.0362541638314724 0.6296781301498413
0.4944562017917633 -0.042202070355415344 0.6333405375480652
0.4964594542980194 -0.04345564544200897 0.6337472200393677
0.4977720081806183 -0.044345054775476456 0.6340614557266235
0.5024652481079102 -0.04275866225361824 0.631872832775116
0.5046296119689941 -0.04359174519777298 0.6319506764411926
0.5061002969741821 -0.04407254606485367 0.6319441795349121
0.5079264044761658 -0.04787539318203926 0.634162187576294
0.5138799548149109 -0.04951506853103638 0.6339229345321655
0.5147073268890381 -0.04951995238661766 0.6337348818778992
0.5196731090545654 -0.04561350867152214 0.6298721432685852
0.5237177610397339 -0.046026937663555145 0.6292228102684021
0.5242612361907959 -0.04672800377011299 0.6295837759971619
0.5253450870513916 -0.048125818371772766 0.6303036212921143
0.5321962833404541 -0.046104297041893005 0.6273139715194702
0.48535946011543274 -0.03280000388622284 0.6279542446136475
0.4861009418964386 -0.033047158271074295 0.6279542446136475
0.4915482997894287 -0.03643900528550148 0.629052460193634
0.4910723567008972 -0.04021437466144562 0.6317924857139587
0.4936485290527344 -0.04219702631235123 0.6325759887695312
0.49693748354911804 -0.044422540813684464 0.6333624124526978
0.4983217120170593 -0.04510987177491188 0.6335197687149048
0.5013116598129272 -0.04367927834391594 0.6318286657333374
0.504443347454071 -0.04412631690502167 0.6314128041267395
0.5074790716171265 -0.046965036541223526 0.6326854825019836
0.507564127445221 -0.04885198920965195 0.6339799165725708
0.5083392262458801 -0.048974182456731796 0.6338855624198914
0.5106236934661865 -0.04944965988397598 0.6336858868598938
0.5245805382728577 -0.048026759177446365 0.6294544339179993
0.5268738865852356 -0.04858444258570671 0.6293100714683533
0.5302127599716187 -0.046808499842882156 0.6272978782653809
0.48793724179267883 -0.034954752773046494 0.6278952956199646
0.4888359606266022 -0.03472680225968361 0.627527117729187
0.49014151096343994 -0.03574180603027344 0.6279322504997253
0.49222517013549805 -0.04161516949534416 0.6315503120422363
0.49284011125564575 -0.042192548513412476 0.6318106055259705
0.49544557929039 -0.04405607283115387 0.6325055360794067
0.5028279423713684 -0.04407302290201187 0.63079833984375
0.5120664834976196 -0.05003318190574646 0.6328111290931702
0.5144481062889099 -0.05028626695275307 0.6324331760406494
0.516212522983551 -0.050038669258356094 0.6318491697311401
0.5194517970085144 -0.04629166051745415 0.6284773945808411
0.5204041600227356 -0.04603102430701256 0.6280729174613953
0.5213602781295776 -0.04576660692691803 0.627665638923645
0.5219911932945251 -0.04627108946442604 0.627871036529541
0.5227313041687012 -0.046517789363861084 0.627871036529541
0.5278816819190979 -0.04831241816282272 0.6279256343841553
0.528978705406189 -0.04775680974125862 0.6272820830345154
0.4898231029510498 -0.03668857738375664 0.627707302570343
0.4909854531288147 -0.03810296580195427 0.6284269690513611
0.4946117103099823 -0.04412982612848282 0.6318033337593079
0.49799615144729614 -0.04606371745467186 0.6323680877685547
0.49869340658187866 -0.046390339732170105 0.6324339509010315
0.4998922348022461 -0.04536176845431328 0.6314329504966736
0.5011692047119141 -0.044137775897979736 0.6302769184112549
0.5066338181495667 -0.04711980000138283 0.6310902237892151
0.5087817907333374 -0.05005098506808281 0.6326425671577454
0.5103377103805542 -0.05028444156050682 0.6324426531791687
0.5134920477867126 -0.05066400766372681 0.6319717168807983
0.5143188834190369 -0.05066945031285286 0.6317824721336365
0.5176982879638672 -0.04653553664684296 0.6280964016914368
0.5193541646003723 -0.046599261462688446 0.6277544498443604
0.5235927104949951 -0.04852592945098877 0.6281144618988037
0.48758310079574585 -0.036018963903188705 0.6267992258071899
0.4901043176651001 -0.038287051022052765 0.6278021931648254
0.48988887667655945 -0.041315365582704544 0.6299813389778137
0.491228848695755 -0.042162951081991196 0.6302632689476013
0.49370306730270386 -0.04441293701529503 0.6312646865844727
0.4964115619659424 -0.04596033692359924 0.6317179203033447
0.49710920453071594 -0.046287111937999725 0.6317842602729797
0.49853435158729553 -0.04685623198747635 0.6318501830101013
0.5009547472000122 -0.044751834124326706 0.6298043131828308
0.5024155974388123 -0.04525119438767433 0.6298129558563232
0.5046477913856506 -0.04589343070983887 0.629741370677948
0.5053915977478027 -0.04610909894108772 0.6297187209129333
0.5061241984367371 -0.046353355050086975 0.6297187209129333
0.5061391592025757 -0.04844345897436142 0.6311843991279602
0.5071345567703247 -0.05010872334241867 0.6321210265159607
0.5094168186187744 -0.050584711134433746 0.6319211721420288
0.5101948380470276 -0.05070146545767784 0.6318210363388062
0.5175745487213135 -0.046905405819416046 0.6274240612983704
0.5228269696235657 -0.0484270341694355 0.6272631287574768
0.5248816013336182 -0.049532450735569 0.6275584101676941
0.48854050040245056 -0.0380655936896801 0.6270527243614197
0.49030640721321106 -0.04248528927564621 0.6297537684440613
0.49556806683540344 -0.04606497287750244 0.6310408115386963
0.4999287724494934 -0.04533572494983673 0.62950199842453
0.5029041767120361 -0.04618331417441368 0.6294003129005432
0.5056968927383423 -0.04963265359401703 0.6311756372451782
0.5062200427055359 -0.05039842426776886 0.631592333316803
0.5213214755058289 -0.04808153957128525 0.626410722732544
0.5237566828727722 -0.05026255175471306 0.6273757219314575
0.5255563259124756 -0.05000956729054451 0.6267746090888977
0.48745355010032654 -0.038866933435201645 0.626913845539093
0.48950570821762085 -0.0424540638923645 0.6289663910865784
0.49207764863967896 -0.04443857818841934 0.6297633051872253
0.5005056262016296 -0.04603369161486626 0.6289049386978149
0.5046617984771729 -0.04810260236263275 0.6293882727622986
0.5053473114967346 -0.05058285593986511 0.6309806108474731
0.5139886736869812 -0.051677726209163666 0.6297176480293274
0.5210606455802917 -0.048773229122161865 0.6259973645210266
0.4884936809539795 -0.040639232844114304 0.6269631385803223
0.49127036333084106 -0.04443444311618805 0.6289984583854675
0.49389970302581787 -0.04622047767043114 0.6296432614326477
0.4945564568042755 -0.046663299202919006 0.6298024654388428
0.4984802305698395 -0.04710658639669418 0.6291893124580383
0.5097737312316895 -0.05193375051021576 0.6299425959587097
0.5105968713760376 -0.051939938217401505 0.629752516746521
0.5121492743492126 -0.05218895152211189 0.6295619606971741
0.48851627111434937 -0.042983826249837875 0.6276661157608032
0.4897346496582031 -0.044180192053318024 0.6282281279563904
0.496425986289978 -0.04828493669629097 0.6295610666275024
0.5022481679916382 -0.04804505407810211 0.6280099153518677
0.503024160861969 -0.04816965013742447 0.6279144883155823
0.5038177371025085 -0.05039195343852043 0.6293070912361145
0.5045453310012817 -0.050634488463401794 0.6293070912361145
0.5065658092498779 -0.05177479609847069 0.6296388506889343
0.5080692172050476 -0.052134398370981216 0.6295385956764221
0.5104678273200989 -0.05232221260666847 0.6291035413742065
0.4889322519302368 -0.04415787383913994 0.6274479031562805
0.49027419090270996 -0.04498710483312607 0.6277199387550354
0.49150794744491577 -0.046117790043354034 0.6282331943511963
0.49557745456695557 -0.04840612784028053 0.6288982033729553
0.4983386695384979 -0.04755932837724686 0.6276375651359558
0.49981021881103516 -0.0480138398706913 0.6276113986968994
0.5005381107330322 -0.0482625812292099 0.6276160478591919
0.5056480765342712 -0.0520738884806633 0.6291200518608093
0.5064235925674438 -0.05219091847538948 0.6290186643600464
0.5127573013305664 -0.05286042019724846 0.6279906630516052
0.4907014071941376 -0.046113915741443634 0.627469003200531
0.5028982162475586 -0.05074375122785568 0.6278725862503052
0.5039678812026978 -0.052226003259420395 0.6286783814430237
0.5093873143196106 -0.05307989567518234 0.6279969215393066
0.5102100968360901 -0.0530865341424942 0.6278055906295776
0.4898946285247803 -0.04611028730869293 0.6267043352127075
0.4924854636192322 -0.04799884557723999 0.6274399161338806
0.4932127892971039 -0.04824128374457359 0.6274399161338806
0.49454888701438904 -0.04905501753091812 0.6277042627334595
0.49623069167137146 -0.04891270026564598 0.6272000670433044
0.5024335384368896 -0.052003566175699234 0.6279339790344238
0.5045928955078125 -0.05277911573648453 0.6279741525650024
0.5061393976211548 -0.05302305519580841 0.6277793645858765
0.491631418466568 -0.04813603311777115 0.6267898082733154
0.4982907176017761 -0.05001024529337883 0.6265410780906677
0.5005679130554199 -0.05048886686563492 0.6263390183448792
0.5115138292312622 -0.05407674238085747 0.6262955665588379
0.5123403072357178 -0.05407961457967758 0.6260989904403687
0.4941886067390442 -0.05010860040783882 0.6266435384750366
0.4965156018733978 -0.0504290834069252 0.626315176486969
0.5014618039131165 -0.052496276795864105 0.6266170144081116
0.5073590874671936 -0.0542105957865715 0.6264352798461914
0.5081794857978821 -0.05421789735555649 0.6262432336807251
0.5041651129722595 -0.054033227264881134 0.6261232495307922
0.5270867943763733 -0.010798257775604725 0.6796749830245972
0.5366455912590027 -0.013993044383823872 0.6824381351470947
0.5346027612686157 -0.011598641984164715 0.6826350092887878
0.5329259037971497 -0.00973877776414156 0.6827378273010254
0.5279911756515503 -0.009786023758351803 0.679945170879364
0.5320056676864624 -0.007995953783392906 0.6824055314064026
0.5282552242279053 -0.009523154236376286 0.6794384717941284
0.5246444344520569 -0.01277067419141531 0.675583004951477
0.5373223423957825 -0.013282591477036476 0.681627631187439
0.5360841751098633 -0.011861969716846943 0.6817304491996765
0.5356443524360657 -0.011422162875533104 0.6817304491996765
0.533995509147644 -0.009529637172818184 0.6818678379058838
0.5323205590248108 -0.0076721045188605785 0.6819708347320557
0.5212006568908691 -0.01584167219698429 0.6710943579673767
0.5399858951568604 -0.021009640768170357 0.6779674291610718
0.5347221493721008 -0.009678198024630547 0.6813988089561462
0.5317844152450562 -0.006436769850552082 0.6815704703330994
0.5425492525100708 -0.01777922362089157 0.6804466843605042
0.529048502445221 -0.008732536807656288 0.6779202222824097
0.5254465341567993 -0.011971778236329556 0.674039900302887
0.5179252624511719 -0.018735483288764954 0.6659373641014099
0.538264274597168 -0.012306933291256428 0.68032306432724
0.5361748933792114 -0.009975135326385498 0.6804609894752502
0.5340878367424011 -0.007645721081644297 0.6805987358093262
0.5324141979217529 -0.005790169350802898 0.680702269077301
0.5257145166397095 -0.011704536154866219 0.6735264658927917
0.5220120549201965 -0.015033615753054619 0.669526219367981
0.5182007551193237 -0.018460670486092567 0.6654084920883179
0.5177367329597473 -0.017996562644839287 0.6654084920883179
0.5138052105903625 -0.02151859924197197 0.6611682176589966
0.5385779142379761 -0.011982104741036892 0.6798886060714722
0.5377528071403503 -0.011035934090614319 0.6799576282501221
0.5180127024650574 -0.01772173121571541 0.6648798584938049
0.5140851736068726 -0.021239764988422394 0.6606315970420837
0.5465585589408875 -0.02195090614259243 0.6779512763023376
0.5460243821144104 -0.01957836002111435 0.6790033578872681
0.544342577457428 -0.017714256420731544 0.6791077256202698
0.5294129848480225 -0.02965470962226391 0.6637309193611145
0.540982186794281 -0.01399024948477745 0.6793157458305359
0.537214994430542 -0.00979936309158802 0.6795582175254822
0.5359789729118347 -0.00838197860866785 0.6796618700027466
0.5355672240257263 -0.007909862324595451 0.6796964406967163
0.5338935256004333 -0.006054899655282497 0.679800271987915
0.5334822535514832 -0.005583220161497593 0.6798348426818848
0.5103224515914917 -0.024581238627433777 0.6557096838951111
0.5280596613883972 0.0004418373282533139 0.6801794767379761
0.5263918042182922 0.002290236996486783 0.6802829504013062
0.5257925391197205 0.002550835721194744 0.6800891160964966
0.5342077612876892 -0.005731804762035608 0.6793668866157532
0.5325355529785156 -0.0038789031095802784 0.679470419883728
0.5287847518920898 0.0002928782778326422 0.6797120571136475
0.5279646515846252 0.0012330346507951617 0.6797810792922974
0.5271167755126953 0.0021411117631942034 0.6798155903816223
0.5238741040229797 0.004102862440049648 0.6790804266929626
0.5420214533805847 -0.013813001103699207 0.6784128546714783
0.5403702259063721 -0.011920355260372162 0.6785517334938049
0.5382815599441528 -0.009590412490069866 0.6786906123161316
