ply
format ascii 1.0
element vertex 805
property float x
property float y
property float z
end_header
0.46290528774261475 -0.009694458916783333 0.6816784143447876
0.4583546817302704 -0.0019776122644543648 0.6832326054573059
0.45229852199554443 0.0043646967969834805 0.6833727359771729
0.45155563950538635 0.005494360346347094 0.6835625767707825
0.4512953758239746 0.006148694083094597 0.6837559938430786
0.4505161643028259 0.008106010034680367 0.6843340992927551
0.44829440116882324 0.012312225066125393 0.6853078603744507
0.44218412041664124 0.016014233231544495 0.6841262578964233
0.43533027172088623 0.020074084401130676 0.6827550530433655
0.4315386414527893 0.022289840504527092 0.6819816827774048
0.42836815118789673 0.02415013127028942 0.681338906288147
0.4690341353416443 -0.014173834584653378 0.6816630363464355
0.46584051847457886 -0.014366802759468555 0.6799961924552917
0.46535784006118774 -0.013884010724723339 0.6799961924552917
0.4644306004047394 -0.011957812123000622 0.6804876327514648
0.4621213972568512 -0.00763250095769763 0.6814802289009094
0.4618537425994873 -0.0069630821235477924 0.6816779971122742
0.4603078365325928 -0.003817194141447544 0.6824655532836914
0.45074594020843506 0.00834715273231268 0.6837464570999146
0.4427952170372009 0.016548050567507744 0.6838697195053101
0.44041627645492554 0.01809498853981495 0.6834602355957031
0.4334934651851654 0.02212715893983841 0.6820372343063354
0.4328313171863556 0.02247488684952259 0.6818826198577881
0.4303598999977112 0.024000687524676323 0.6814171075820923
0.4236423671245575 0.02749684453010559 0.6798313856124878
0.4733932614326477 -0.012824533507227898 0.68365478515625
0.46751493215560913 -0.014649610035121441 0.6798511743545532
0.4646657407283783 -0.01171803567558527 0.6798919439315796
0.4615520238876343 -0.005387789104133844 0.6814801692962646
0.46054020524024963 -0.003577436786144972 0.6818743348121643
0.45904773473739624 -0.002191987121477723 0.6818214654922485
0.4585690498352051 -0.0017134208464995027 0.6818214654922485
0.4578697085380554 -0.001424948452040553 0.6816186904907227
0.4557552635669708 0.00032175498199649155 0.6814371943473816
0.4541471004486084 0.0024967931676656008 0.6817169189453125
0.4536682367324829 0.002975490177050233 0.6817169189453125
0.4530191123485565 0.0041880072094500065 0.6819950938224792
0.4499817490577698 0.010363909415900707 0.6835446357727051
0.4489905536174774 0.012134143151342869 0.6839293241500854
0.44529643654823303 0.016012029722332954 0.6840202212333679
0.4445886015892029 0.01630827784538269 0.6838167905807495
0.43525826930999756 0.021833602339029312 0.6819382309913635
0.4284900426864624 0.026045620441436768 0.6806758046150208
0.42408907413482666 0.027894798666238785 0.6794160604476929
0.47155916690826416 -0.013620558194816113 0.6815322041511536
0.4692614674568176 -0.013925429433584213 0.6802432537078857
0.46628984808921814 -0.013907934539020061 0.6787801384925842
0.46387800574302673 -0.009647869504988194 0.6796956062316895
0.4620527923107147 -0.005815313663333654 0.6806899309158325
0.45639917254447937 2.6046569473692216e-05 0.6807828545570374
0.45224860310554504 0.006219167727977037 0.6817943453788757
0.45198744535446167 0.006873254664242268 0.6819890141487122
0.45021140575408936 0.010605351068079472 0.6829578280448914
0.44846707582473755 0.01432530302554369 0.6839362978935242
0.4427502155303955 0.01832537353038788 0.6830858588218689
0.43719759583473206 0.021672552451491356 0.6819936633110046
0.4270972013473511 0.027611559256911278 0.6799325346946716
0.4259358048439026 0.028437037020921707 0.6797662377357483
0.4757186472415924 -0.019956884905695915 0.6796252131462097
0.47568798065185547 -0.015260576270520687 0.6819431781768799
0.47532564401626587 -0.011883621104061604 0.6834405660629272
0.4693756401538849 -0.013800517655909061 0.6795324683189392
0.4641123414039612 -0.009407885372638702 0.679099977016449
0.46330341696739197 -0.00739323953166604 0.6796988844871521
0.4516965448856354 0.008420324884355068 0.6817886829376221
0.4446326196193695 0.018151642754673958 0.6831139326095581
0.44161972403526306 0.020045025274157524 0.6825579404830933
0.43847301602363586 0.02185753360390663 0.6818948984146118
0.4309205114841461 0.02628895826637745 0.6803444623947144
0.4284153878688812 0.027799446135759354 0.6798503994941711
0.4277385175228119 0.028144093230366707 0.6796851754188538
0.4759623408317566 -0.017811819911003113 0.6799849271774292
0.4735904932022095 -0.012593889608979225 0.6814032793045044
0.4680096507072449 -0.014130626805126667 0.6778563261032104
0.4672309458255768 -0.013924261555075645 0.6775710582733154
0.4659154713153839 -0.01235084980726242 0.6776995062828064
0.46564316749572754 -0.01167392823845148 0.6779012084007263
0.4625197649002075 -0.00533536309376359 0.6795034408569336
0.4619843661785126 -0.004001897294074297 0.6799011826515198
0.46150514483451843 -0.003522786544635892 0.6799011826515198
0.46026134490966797 -0.0019175090128555894 0.6800810694694519
0.4595624804496765 -0.0016293919179588556 0.6798763871192932
0.45783138275146484 -0.0004438509058672935 0.6796045303344727
0.4573120176792145 1.6776699567344622e-06 0.6795677542686462
0.45581749081611633 0.0013937357580289245 0.6795168519020081
0.45511385798454285 0.002567944349721074 0.6797512769699097
0.45218801498413086 0.008009959012269974 0.6810051798820496
0.4509303867816925 0.010439645498991013 0.6815893650054932
0.4501532018184662 0.012383771128952503 0.6821706891059875
0.4480595886707306 0.016661010682582855 0.6832588911056519
0.44286227226257324 0.020216284319758415 0.6824405193328857
0.4403311312198639 0.02164793573319912 0.6818926930427551
0.4398556649684906 0.022123457863926888 0.6818926930427551
0.42277902364730835 0.028099635615944862 0.676361083984375
0.4754909873008728 -0.011699041351675987 0.6819756031036377
0.47190505266189575 -0.013246680609881878 0.679409921169281
0.46817484498023987 -0.013957438990473747 0.6771900653839111
0.4648531377315521 -0.009601037949323654 0.6777071952819824
0.46404144167900085 -0.007583556696772575 0.6783098578453064
0.46221745014190674 -0.0037618086207658052 0.6793085336685181
0.46043336391448975 -0.0017300044419243932 0.679432213306427
0.45420894026756287 0.00449791643768549 0.6794342398643494
0.45394566655158997 0.005155178718268871 0.6796309947967529
0.45038270950317383 0.012625458650290966 0.6815841197967529
0.44990742206573486 0.013100581243634224 0.6815841197967529
0.44939133524894714 0.014391106553375721 0.6819711923599243
0.4372672736644745 0.024429582059383392 0.6809285879135132
0.4341605305671692 0.026297366246581078 0.6803093552589417
0.4328407347202301 0.026995500549674034 0.6799986958503723
0.4278613030910492 0.03002973459661007 0.6790263056755066
0.4256337285041809 0.029320288449525833 0.6775581240653992
0.4229639172554016 0.028319859877228737 0.6757236123085022
0.47713667154312134 -0.011967410333454609 0.6818442344665527
0.4738227427005768 -0.012344307266175747 0.6799938678741455
0.4663873016834259 -0.01187026035040617 0.6765035390853882
0.4642760157585144 -0.007343483157455921 0.6777147650718689
0.4635252058506012 -0.006192258559167385 0.6779153347015381
0.45391425490379333 0.00605339091271162 0.6792363524436951
0.45264968276023865 0.00849374569952488 0.6798259615898132
0.448637992143631 0.016398506239056587 0.6817779541015625
0.4481566846370697 0.01854114793241024 0.6826106309890747
0.439015656709671 0.024133995175361633 0.6808317303657532
0.4341250956058502 0.02717205323278904 0.6799030303955078
0.43214526772499084 0.02822088450193405 0.6794362664222717
0.42897891998291016 0.030078815296292305 0.6787800192832947
0.47794392704963684 -0.019654471427202225 0.6775627136230469
0.4778944253921509 -0.014962427318096161 0.6798976063728333
0.47409912943840027 -0.01206737570464611 0.6794447302818298
0.4701152741909027 -0.013035165145993233 0.6769546270370483
0.4679309129714966 -0.013212271966040134 0.6757668256759644
0.4666232466697693 -0.011629702523350716 0.675905168056488
0.46375980973243713 -0.005951919127255678 0.6773205995559692
0.462952584028244 -0.003947626333683729 0.6779226064682007
0.46015629172325134 -0.0009981446200981736 0.6779996156692505
0.4596768021583557 -0.0005186415510252118 0.6779996156692505
0.4584689736366272 0.00022742127475794405 0.6777675747871399
0.4579482674598694 0.0006726207211613655 0.6777294874191284
0.45649340748786926 0.0021002960857003927 0.6777157783508301
0.4557861089706421 0.003272529225796461 0.6779494285583496
0.4541460871696472 0.006295502185821533 0.678645133972168
0.4523581564426422 0.0100388890132308 0.6796285510063171
0.4518813192844391 0.010515631176531315 0.6796285510063171
0.45010754466056824 0.01422999706119299 0.6806043982505798
0.44854557514190674 0.018070807680487633 0.6817505955696106
0.44707682728767395 0.020283369347453117 0.6821244359016418
0.44641199707984924 0.02061009779572487 0.6819545030593872
0.4440545439720154 0.022152742370963097 0.6815447807312012
0.43719378113746643 0.02617579884827137 0.6801177263259888
0.4365382790565491 0.02652348019182682 0.6799628138542175
0.43409010767936707 0.028045853599905968 0.6794971823692322
0.43028873205184937 0.030261604115366936 0.6786999106407166
0.42604872584342957 0.02978997677564621 0.6763302087783813
0.478659063577652 -0.017989737913012505 0.6779292821884155
0.4743846654891968 -0.01178133673965931 0.6789047718048096
0.47264301776885986 -0.012501402758061886 0.6776629686355591
0.4689618945121765 -0.013164528645575047 0.6754717230796814
0.4660412669181824 -0.009362016804516315 0.6759164929389954
0.46555906534194946 -0.008879683911800385 0.6759164929389954
0.46217048168182373 -0.0018971291137859225 0.6777293682098389
0.45567336678504944 0.00410656351596117 0.6774805784225464
0.4515909254550934 0.012056308798491955 0.6794313788414001
0.4481770694255829 0.0203575287014246 0.6818968653678894
0.44229856133461 0.02422337792813778 0.6808817386627197
0.4391185939311981 0.026005888357758522 0.6801767349243164
0.43225955963134766 0.030096273869276047 0.6787799596786499
0.4294826090335846 0.030607173219323158 0.6776369214057922
0.4262846112251282 0.030044080689549446 0.6757396459579468
0.4235062301158905 0.0289724450558424 0.6737973690032959
0.4763951301574707 -0.010783283971250057 0.6795979142189026
0.4724509119987488 -0.011734907515347004 0.6771208047866821
0.47069212794303894 -0.012457959353923798 0.6758649349212646
0.46552252769470215 -0.007965834811329842 0.6755221486091614
0.46470949053764343 -0.005951844155788422 0.6761299967765808
0.46021953225135803 2.9413829906843603e-05 0.6768844723701477
0.45487385988235474 0.006123941857367754 0.6772634387016296
0.45386824011802673 0.0079134376719594 0.6776597499847412
0.4536052942276001 0.008567200042307377 0.6778577566146851
0.4508255124092102 0.014068430289626122 0.6792347431182861
0.4500489830970764 0.016002148389816284 0.6798202991485596
0.4469892382621765 0.022014742717146873 0.6813146471977234
0.4402077794075012 0.026054974645376205 0.679927408695221
0.4797300100326538 -0.023657159879803658 0.6739302277565002
0.4800087511539459 -0.010088754817843437 0.6809583306312561
0.4795372784137726 -0.009617270901799202 0.6809583306312561
0.47495684027671814 -0.011209120973944664 0.6778255701065063
0.46816912293434143 -0.01199576910585165 0.6739810705184937
0.46768543124198914 -0.011512057855725288 0.6739810705184937
0.4649440050125122 -0.005711423698812723 0.6755338907241821
0.4639230966567993 -0.0038934394251555204 0.6759385466575623
0.45819467306137085 0.0019013461424037814 0.6759723424911499
0.4577144682407379 0.0023816244211047888 0.6759723424911499
0.4565083980560303 0.004019427113234997 0.6761912107467651
0.4541000425815582 0.008155829273164272 0.677068293094635
0.4533122479915619 0.01011444628238678 0.6776626110076904
0.4520516097545624 0.012540675699710846 0.6782543063163757
0.44957178831100464 0.017381399869918823 0.6794525384902954
0.4494048058986664 0.018092557787895203 0.6797288060188293
0.4452405571937561 0.024079058319330215 0.6806536912918091
0.43839138746261597 0.028092626482248306 0.6792142987251282
0.43464186787605286 0.030311986804008484 0.6784378290176392
0.4321870505809784 0.03183780610561371 0.6779661774635315
0.4788605868816376 -0.009329267777502537 0.6799389123916626
0.47126880288124084 -0.011880721896886826 0.674775242805481
0.4697648882865906 -0.012356546707451344 0.6737672686576843
0.46729472279548645 -0.00999034009873867 0.6737143397331238
0.4641574025154114 -0.0036527980118989944 0.6753435134887695
0.46313875913619995 -0.001840266166254878 0.6757475733757019
0.46193769574165344 -0.00019414641428738832 0.675974428653717
0.46124231815338135 9.820848936215043e-05 0.675769031047821
0.4584547281265259 0.0021660493221133947 0.6754026412963867
0.45676881074905396 0.004284698981791735 0.6756229996681213
0.45594102144241333 0.005354707594960928 0.6757462024688721
0.4525427520275116 0.012134271673858166 0.6774678230285645
0.44646888971328735 0.02424287050962448 0.6805400252342224
0.4434897303581238 0.02614521235227585 0.679991602897644
0.4295690655708313 0.03094230405986309 0.675347089767456
0.4262602925300598 0.03030998446047306 0.6733406186103821
0.4811002016067505 -0.00994208175688982 0.6799460053443909
0.47747334837913513 -0.009715230204164982 0.6782097816467285
0.4739131033420563 -0.011236950755119324 0.6756148338317871
0.4700842499732971 -0.012039058841764927 0.6732499599456787
0.4665014445781708 -0.007916677743196487 0.6735253930091858
0.4659567177295685 -0.006571329198777676 0.6739340424537659
0.46220919489860535 7.992173777893186e-05 0.6754169464111328
0.45585396885871887 0.006209670100361109 0.6753019094467163
0.45504218339920044 0.008162406273186207 0.6758843660354614
0.45199090242385864 0.014319593086838722 0.6774705648422241
0.4509958028793335 0.016085175797343254 0.6778637766838074
0.4496374726295471 0.02007816918194294 0.6792094111442566
0.4451930820941925 0.025834349915385246 0.6798794269561768
0.44156938791275024 0.02809249982237816 0.6791819334030151
0.48156052827835083 -0.021814828738570213 0.6732774376869202
0.4817753732204437 -0.013950107619166374 0.6774157881736755
0.481321781873703 -0.007869798690080643 0.6802979111671448
0.47784313559532166 -0.009349294938147068 0.6777582764625549
0.4760737717151642 -0.01010451465845108 0.6764652729034424
0.474287748336792 -0.010866943746805191 0.6751599311828613
0.472038209438324 -0.011122523806989193 0.6738765835762024
0.47044870257377625 -0.011679052375257015 0.6727774739265442
0.46591997146606445 -0.005659335758537054 0.6735410690307617
0.4648962616920471 -0.0038391035050153732 0.6739491820335388
0.4640859067440033 -0.0018386549782007933 0.6745587587356567
0.45612046122550964 0.00648027379065752 0.6747397780418396
0.45426878333091736 0.010190046392381191 0.6756916642189026
0.4522208571434021 0.014561883173882961 0.6768817901611328
0.450333833694458 0.01816629059612751 0.677761435508728
0.45016518235206604 0.0188763365149498 0.678039014339447
0.45001479983329773 0.021267201751470566 0.6791865825653076
0.4496046006679535 0.022614918649196625 0.6796665787696838
0.44265100359916687 0.02813904359936714 0.6789345741271973
0.43910932540893555 0.030473047867417336 0.6783159375190735
0.43715378642082214 0.031519364565610886 0.6778500080108643
0.43602585792541504 0.03234326094388962 0.6776942014694214
0.43293076753616333 0.03422384336590767 0.6770724654197693
0.42598956823349 0.030315520241856575 0.6715149879455566
0.42294368147850037 0.029071049764752388 0.6693175435066223
0.4819958806037903 -0.011849974282085896 0.6777781248092651
0.4816972017288208 -0.007498117163777351 0.6798605918884277
0.4782126843929291 -0.008983463980257511 0.6773071885108948
0.46981900930404663 -0.011312959715723991 0.6717978119850159
0.46828269958496094 -0.009939908981323242 0.6717140078544617
0.4661553204059601 -0.005418487824499607 0.6729440093040466
0.46432024240493774 -0.0015978127485141158 0.673964262008667
0.4638403058052063 -0.001117741339839995 0.673964262008667
0.4604114294052124 0.0021837842650711536 0.6738988757133484
0.4598923921585083 0.0026307355146855116 0.6738618016242981
0.45840659737586975 0.004033363424241543 0.6738189458847046
0.4579036235809326 0.004494605120271444 0.6737974286079407
0.4539746344089508 0.011735194362699986 0.675498902797699
0.45349711179733276 0.012212595902383327 0.675498902797699
0.4500592350959778 0.02467716485261917 0.6801364421844482
0.44935840368270874 0.02497309260070324 0.6799286007881165
0.4408440887928009 0.030169690027832985 0.6782239079475403
0.43907201290130615 0.031338345259428024 0.6779139637947083
0.4340335726737976 0.03426807001233101 0.6768304109573364
0.4768182039260864 -0.00936856959015131 0.6755603551864624
0.4746212363243103 -0.009589053690433502 0.6743146777153015
0.4712294936180115 -0.010910725221037865 0.67188560962677
0.4679662883281708 -0.008350756950676441 0.6715231537818909
0.4676922559738159 -0.007676300592720509 0.6717296242713928
0.463535875082016 0.0004510672006290406 0.6737759113311768
0.4570094645023346 0.006439171265810728 0.6734985709190369
0.45601215958595276 0.008242747746407986 0.6739140152931213
0.4529426097869873 0.01440048310905695 0.6755056977272034
0.45194506645202637 0.016168374568223953 0.6759026050567627
0.4505549371242523 0.02014688402414322 0.6772363185882568
0.4495397210121155 0.026000818237662315 0.6797298789024353
0.44210144877433777 0.030339015647768974 0.6781323552131653
0.4414542019367218 0.030686154961586 0.6779776215553284
0.43903475999832153 0.032202884554862976 0.677512526512146
0.4840659499168396 -0.03011319786310196 0.6677496433258057
0.48356837034225464 -0.017866862937808037 0.6738225817680359
0.4832814633846283 -0.00964900478720665 0.6779220700263977
0.48069778084754944 -0.007509727496653795 0.6776924729347229
0.475542813539505 -0.009632445871829987 0.6739306449890137
0.47337934374809265 -0.009809846058487892 0.6727204918861389
0.46689876914024353 -0.005607110448181629 0.6715431809425354
0.46587201952934265 -0.0037845096085220575 0.6719545125961304
0.4640388488769531 2.886846414185129e-05 0.6729780435562134
0.46246975660324097 0.0022503952495753765 0.6733152270317078
0.45598751306533813 0.009146986529231071 0.6735295057296753
0.45522788166999817 0.01026600319892168 0.673715353012085
0.454437255859375 0.012220761738717556 0.6743168830871582
0.4522168040275574 0.016443854197859764 0.675352156162262
0.45096078515052795 0.022192630916833878 0.6776743531227112
0.4506804049015045 0.02610572800040245 0.6795521378517151
0.4471241533756256 0.028371227905154228 0.6788849234580994
0.43722304701805115 0.03423885628581047 0.676800012588501
0.43414539098739624 0.03612333536148071 0.6761834025382996
0.4334801435470581 0.03646884113550186 0.6760181784629822
0.4793217182159424 -0.00788615271449089 0.6759564876556396
0.4721277058124542 -0.010032563470304012 0.671113908290863
0.47002559900283813 -0.010125430300831795 0.6699759364128113
0.4695413112640381 -0.009641261771321297 0.6699759364128113
0.468439519405365 -0.007868080399930477 0.6703239679336548
0.466107577085495 -0.003543089609593153 0.6713573932647705
0.465293288230896 -0.0015403261641040444 0.6719734072685242
0.46035686135292053 0.00404502684250474 0.6723098158836365
0.4580439031124115 0.006518571171909571 0.6723933219909668
0.4546688199043274 0.012463636696338654 0.6737256646156311
0.4539284110069275 0.013590572401881218 0.6739262342453003
0.4520918130874634 0.018102601170539856 0.6753131151199341
0.4519011676311493 0.01879807375371456 0.675574779510498
0.4513159394264221 0.020027000457048416 0.675908625125885
0.45111003518104553 0.024031905457377434 0.6778783202171326
0.4488120675086975 0.028058694675564766 0.6787745952606201
0.44507408142089844 0.03020578995347023 0.6779497265815735
0.4420240521430969 0.03206334635615349 0.6773316860198975
0.4323004484176636 0.03815154358744621 0.6754466891288757
0.4846917390823364 -0.023528365418314934 0.6697832345962524
0.4780910611152649 -0.008116292767226696 0.6743652820587158
0.47642791271209717 -0.008763730525970459 0.673163652420044
0.4742704927921295 -0.008937249891459942 0.6719516515731812
0.47257617115974426 -0.009594104252755642 0.670728862285614
0.4711684584617615 -0.009975445456802845 0.6697984933853149
0.46867606043815613 -0.007626537699252367 0.6697238683700562
0.46791812777519226 -0.006469132844358683 0.6699316501617432
0.4645068645477295 0.0005113335209898651 0.671787679195404
0.4612876772880554 0.003992167767137289 0.671923816204071
0.4607178568840027 0.004395641852170229 0.6718373894691467
0.4597717821598053 0.005367065314203501 0.6718506217002869
0.45883893966674805 0.00634984765201807 0.6718765497207642
0.45789286494255066 0.007321040611714125 0.6718894839286804
0.45608949661254883 0.010206706821918488 0.6724522709846497
0.453954815864563 0.014527679421007633 0.6735892295837402
0.44707515835762024 0.03011298179626465 0.6781166791915894
0.44645261764526367 0.030471257865428925 0.6779792308807373
0.4371502995491028 0.03596453368663788 0.6759982109069824
0.48525288701057434 -0.011438273824751377 0.6755325794219971
0.4839903712272644 -0.006159201264381409 0.6776276230812073
0.48352113366127014 -0.005690195597708225 0.6776276230812073
0.4801758825778961 -0.007045108824968338 0.6751758456230164
0.4785301387310028 -0.007684844080358744 0.6739838719367981
0.4764207601547241 -0.007826059125363827 0.6728100180625916
0.4678802490234375 -0.005554627161473036 0.6695398092269897
0.46603402495384216 -0.001724196714349091 0.6705747246742249
0.46420159935951233 0.0020781748462468386 0.6716023087501526
0.46393251419067383 0.002739446237683296 0.6718069314956665
0.4623435437679291 0.00404706783592701 0.6716601252555847
0.4578532576560974 0.008215498179197311 0.671492338180542
0.4568607211112976 0.010019879788160324 0.6719158887863159
0.4545072615146637 0.014169442467391491 0.672852635383606
0.4537842869758606 0.016160933300852776 0.6735144257545471
0.45207497477531433 0.020743640139698982 0.6750131249427795
0.45206838846206665 0.022409340366721153 0.6758785843849182
0.4523105025291443 0.02342492900788784 0.6765345335006714
0.45212164521217346 0.024935919791460037 0.677224338054657
0.45203638076782227 0.02651616558432579 0.6780039072036743
0.4482930302619934 0.03026650846004486 0.6780076622962952
0.4451669752597809 0.03204821050167084 0.6773064136505127
0.48599112033843994 -0.021229274570941925 0.6699648499488831
0.4857812821865082 -0.01756652630865574 0.671771228313446
0.48593249917030334 -0.009827203117311 0.6758996248245239
0.4843423664569855 -0.005809694062918425 0.6771695613861084
0.4822407066822052 -0.00598441855981946 0.6759788393974304
0.4753992259502411 -0.007841968908905983 0.6714273691177368
0.4721340835094452 -0.009035398252308369 0.6690946221351624
0.4683910608291626 -0.005985646974295378 0.6687317490577698
0.4675687849521637 -0.0039704409427940845 0.6693561673164368
0.4662691354751587 -0.0014826861442998052 0.6699777245521545
0.4604969918727875 0.0060700178146362305 0.6709092855453491
0.45866942405700684 0.008064708672463894 0.6709966063499451
0.45609864592552185 0.012058185413479805 0.6717411279678345
0.45581310987472534 0.012691914103925228 0.6719231009483337
0.4540821313858032 0.016456985846161842 0.6729872822761536
0.45318543910980225 0.01830051839351654 0.6734827756881714
0.45251724123954773 0.0261274054646492 0.6772281527519226
0.4515397846698761 0.02785339578986168 0.6776199340820312
0.4512863755226135 0.028480740264058113 0.6778155565261841
0.4433719217777252 0.03406975418329239 0.6765989065170288
0.4407917857170105 0.035463497042655945 0.6759781241416931
0.43663641810417175 0.03818042576313019 0.6752254366874695
0.43351438641548157 0.04003722593188286 0.6745635867118835
0.4812501072883606 -0.005994583945721388 0.6746240258216858
0.47022807598114014 -0.007985913194715977 0.6677947044372559
0.4697384536266327 -0.007506853435188532 0.6677892208099365
0.46596086025238037 9.090346429729834e-05 0.6697940230369568
0.45537322759628296 0.014118915423750877 0.6715995073318481
0.4534381330013275 0.02024838700890541 0.6738006472587585
0.4533989131450653 0.02438976615667343 0.6759533882141113
0.45068100094795227 0.030545303598046303 0.6777573227882385
0.448242723941803 0.032001662999391556 0.6772422194480896
0.4444453716278076 0.0341099351644516 0.6763555407524109
0.44204476475715637 0.035623807460069656 0.675890326499939
0.44092926383018494 0.0364433117210865 0.6757350564002991
0.43480104207992554 0.040201157331466675 0.6744911074638367
0.48706191778182983 -0.015318579040467739 0.6719423532485962
0.4862927794456482 -0.005748416297137737 0.6765750050544739
0.4802881181240082 -0.005972226615995169 0.6732964515686035
0.47658562660217285 -0.006692796014249325 0.6709684729576111
0.47496819496154785 -0.0072808656841516495 0.6698076725006104
0.47333744168281555 -0.007873968221247196 0.6686370968818665
0.47189825773239136 -0.008281616494059563 0.6676649451255798
0.46934792399406433 -0.005985698197036982 0.6675309538841248
0.46804070472717285 -0.0034870568197220564 0.6681580543518066
0.4661957025527954 0.00033246426028199494 0.6691974401473999
0.46517330408096313 0.0021405103616416454 0.6696109175682068
0.46248188614845276 0.006068775895982981 0.6702620983123779
0.4582573175430298 0.010450408793985844 0.6703446507453918
0.45499387383461 0.01644611358642578 0.6717828512191772
0.4541696310043335 0.018348755314946175 0.6723504662513733
0.44265055656433105 0.03613205999135971 0.6756476759910583
0.43959859013557434 0.03800068795681 0.6750248670578003
0.4340992271900177 0.041404664516448975 0.6739218831062317
0.48778989911079407 -0.019405191764235497 0.6693292856216431
0.4877784550189972 -0.007067687343806028 0.6758366227149963
0.48600614070892334 -0.005095298867672682 0.6759421825408936
0.4853667616844177 -0.0047916327603161335 0.6757650971412659
0.47934141755104065 -0.005930121056735516 0.6719828248023987
0.47235554456710815 -0.007836020551621914 0.6672884821891785
0.4685512185096741 -0.003915751352906227 0.667349636554718
0.467520534992218 -0.0020931994076818228 0.6677677035331726
0.4672473967075348 -0.0014248904772102833 0.6679763793945312
0.464387983083725 0.004185019060969353 0.6694284081459045
0.4638496935367584 0.005503472406417131 0.6698403358459473
0.46293070912361145 0.006493516732007265 0.6698780059814453
0.4618929326534271 0.00738337729126215 0.6697998642921448
0.4608530104160309 0.00827238243073225 0.6697201132774353
0.45987656712532043 0.009214990772306919 0.6697020530700684
0.4590509831905365 0.010282131843268871 0.6698299050331116
0.4566200077533722 0.014373185113072395 0.6707062125205994
0.454789400100708 0.018048670142889023 0.671680212020874
0.4543684124946594 0.020257407799363136 0.6726239323616028
0.453915536403656 0.022424297407269478 0.6735289692878723
0.4540063440799713 0.023328078910708427 0.6740542054176331
0.45420747995376587 0.024313002824783325 0.6746804118156433
0.45345187187194824 0.026219531893730164 0.6752879619598389
0.45268604159355164 0.0281075369566679 0.6758805513381958
0.45048266649246216 0.03216923400759697 0.676861584186554
0.4456484317779541 0.03512674942612648 0.6758707165718079
0.44085341691970825 0.03815692663192749 0.674938976764679
0.43783316016197205 0.040056731551885605 0.674347460269928
0.4852503538131714 -0.003973319195210934 0.6753087043762207
0.4800225496292114 -0.005270370747894049 0.6718535423278809
0.4779125154018402 -0.0054113841615617275 0.670661449432373
0.4762631952762604 -0.006032054778188467 0.6694594025611877
0.4669376611709595 0.0001507363485870883 0.6677952408790588
0.4582987427711487 0.012329833582043648 0.6696696877479553
0.4579542875289917 0.012916453182697296 0.6697980165481567
0.4560644030570984 0.016560625284910202 0.6707272529602051
0.45444145798683167 0.022058749571442604 0.6727792620658875
0.4519352316856384 0.03007034957408905 0.6756947040557861
0.4489375948905945 0.03434735909104347 0.6763720512390137
0.4391065537929535 0.04022003710269928 0.6742758750915527
0.437792032957077 0.04091021418571472 0.6739453077316284
0.4360032081604004 0.04207365959882736 0.6736140847206116
0.4353429079055786 0.042420484125614166 0.6734482049942017
0.4839165210723877 -0.0034007064532488585 0.6740759015083313
0.4823160469532013 -0.004004049580544233 0.6729053854942322
0.4769536852836609 -0.00536733865737915 0.6693329215049744
0.4752955436706543 -0.005989697761833668 0.6681217551231384
0.47101840376853943 -0.0062356372363865376 0.665719211101532
0.47045835852622986 -0.0058210305869579315 0.665641725063324
0.4695753753185272 -0.004775570705533028 0.6657280921936035
0.4661478102207184 0.00220295786857605 0.6676144599914551
0.46587681770324707 0.0028660190291702747 0.6678227186203003
0.46404793858528137 0.006644880399107933 0.6688583493232727
0.46293914318084717 0.00835619680583477 0.6691781878471375
0.4609038829803467 0.010166308842599392 0.6690587401390076
0.4577791392803192 0.014557785354554653 0.6697316765785217
0.45615440607070923 0.018396349623799324 0.6709074378013611
0.45540449023246765 0.020348360762000084 0.6715461015701294
0.4551468789577484 0.02433541789650917 0.6735267043113708
0.4541621208190918 0.026070762425661087 0.6739254593849182
0.45216065645217896 0.030311325564980507 0.6751147508621216
0.45118603110313416 0.03202814981341362 0.675508975982666
0.450014591217041 0.034398846328258514 0.6761459112167358
0.4489123821258545 0.03521015867590904 0.6759914755821228
0.4468465745449066 0.03613943234086037 0.6753879189491272
0.4896462857723236 -0.023399634286761284 0.6656422019004822
0.4897390305995941 -0.015496338717639446 0.669901967048645
0.4895087778568268 -0.011910133063793182 0.6716899871826172
0.4890698492527008 -0.007644398137927055 0.6737285256385803
0.48805585503578186 -0.005850971210747957 0.67414391040802
0.4864232540130615 -0.003742735367268324 0.6743972897529602
0.48458340764045715 -0.0027519401628524065 0.6739447712898254
0.4829878509044647 -0.0033516644034534693 0.672775387763977
0.4813789427280426 -0.003956601954996586 0.6715960502624512
0.4759892225265503 -0.005323152057826519 0.6679965257644653
0.4739393889904022 -0.005374569911509752 0.6668771505355835
0.47237667441368103 -0.005890406668186188 0.6657696962356567
0.46953654289245605 -0.0038608000613749027 0.6653379201889038
0.46871131658554077 -0.0018493669340386987 0.6659699082374573
0.4655696153640747 0.004430912435054779 0.6676420569419861
0.46012309193611145 0.012189967557787895 0.668874204158783
0.45849114656448364 0.014325900934636593 0.669142484664917
0.45748522877693176 0.016098124906420708 0.6695508360862732
0.4561408460140228 0.02014213614165783 0.6709890365600586
0.45614343881607056 0.022666621953248978 0.672335147857666
0.4538763463497162 0.02757314220070839 0.6737414598464966
0.45362013578414917 0.028202317655086517 0.673940122127533
0.4506528973579407 0.034135643392801285 0.6755204200744629
0.4488833546638489 0.03606943413615227 0.6756079196929932
0.4450606107711792 0.03815457969903946 0.6746821999549866
0.44202721118927 0.04002008214592934 0.674060046672821
0.4413854777812958 0.04037163034081459 0.6739052534103394
0.48828670382499695 -0.005618777126073837 0.673560619354248
0.48774322867393494 -0.004298983607441187 0.67397540807724
0.4867751896381378 -0.0033933164086192846 0.6739420890808105
0.4820541739463806 -0.0033024591393768787 0.6714679598808289
0.47996222972869873 -0.0034344627056270838 0.6702793836593628
0.478328675031662 -0.004043945576995611 0.6690807342529297
0.476722776889801 -0.00462004030123353 0.6679148077964783
0.46791690587997437 0.0002107299369527027 0.665790855884552
0.4660745859146118 0.0040120212361216545 0.6668374538421631
0.46478408575057983 0.006471035070717335 0.6674620509147644
0.4637674391269684 0.008264021947979927 0.6678767800331116
0.46294644474983215 0.010212666355073452 0.668479323387146
0.4585541784763336 0.01615414395928383 0.6693070530891418
0.4566703736782074 0.02230178937315941 0.6715856194496155
0.45286715030670166 0.030167438089847565 0.6737565994262695
0.4521041810512543 0.032043006271123886 0.6743510365486145
0.44629842042922974 0.0383094847202301 0.6745972037315369
0.44327226281166077 0.0401722751557827 0.67397540807724
0.4402916729450226 0.04208320006728172 0.673403799533844
0.49115851521492004 -0.017921535298228264 0.6676738858222961
0.49074071645736694 -0.009730391204357147 0.6718400120735168
0.485380619764328 -0.00196560425683856 0.6731290221214294
0.4790133833885193 -0.003385141957551241 0.6689556241035461
0.4774627089500427 -0.003910715226083994 0.6678426861763
0.475434273481369 -0.003948085010051727 0.6667357087135315
0.4704342782497406 -0.003914539236575365 0.6640734672546387
0.46815282106399536 0.00045301992213353515 0.6651917695999146
0.46712496876716614 0.0022657394874840975 0.665612518787384
0.4644792675971985 0.008027496747672558 0.6672826409339905
0.4631964862346649 0.010469168424606323 0.6679035425186157
0.462103009223938 0.012181838043034077 0.6682353019714355
0.46040838956832886 0.0142631521448493 0.6684427261352539
0.4581867456436157 0.01848326437175274 0.6695138216018677
0.4560893774032593 0.02442619577050209 0.6715749502182007
0.45583072304725647 0.025060024112462997 0.6717761158943176
0.4543302059173584 0.028056032955646515 0.672577440738678
0.4523296654224396 0.03228416293859482 0.6737715005874634
0.4518621563911438 0.032751716673374176 0.6737715005874634
0.45013195276260376 0.0363234244287014 0.6747583746910095
0.44816818833351135 0.03811662271618843 0.6746668815612793
0.4445140063762665 0.040324147790670395 0.6738916039466858
0.4384712874889374 0.04409302771091461 0.6726730465888977
0.49003830552101135 -0.00761146005243063 0.6717650294303894
0.489764541387558 -0.006947583984583616 0.6719749569892883
0.4882044792175293 -0.0038344680797308683 0.6728097796440125
0.48637208342552185 -0.0019221219699829817 0.6728527545928955
0.4829278886318207 -0.0015290062874555588 0.6712124347686768
0.47820043563842773 -0.0032038353383541107 0.6677708625793457
0.47462087869644165 -0.0037535724695771933 0.665550947189331
0.47191137075424194 -0.004391779191792011 0.6637513637542725
0.47079846262931824 -0.0035568000748753548 0.6636019945144653
0.4699716866016388 -0.002461950993165374 0.6637461185455322
0.4696959853172302 -0.0017916825599968433 0.6639583110809326
0.4665440320968628 0.0044965497218072414 0.6656441688537598
0.4657924771308899 0.005637411959469318 0.6658535599708557
0.4624179005622864 0.012492132373154163 0.6677241921424866
0.460068017244339 0.01662595383822918 0.6686833500862122
0.45856356620788574 0.0205385684967041 0.6699777245521545
0.45554205775260925 0.026566561311483383 0.6715940833091736
0.4545573592185974 0.028297606855630875 0.6719954013824463
0.4515807032585144 0.034238096326589584 0.6735886335372925
0.4468553364276886 0.039660483598709106 0.6739633679389954
0.4462180733680725 0.0400087796151638 0.6738079786300659
0.4427269995212555 0.04234135523438454 0.6731849908828735
0.4919383227825165 -0.015198279172182083 0.6678627729415894
0.4916934370994568 -0.011615938507020473 0.6696625351905823
0.48944926261901855 -0.005390772130340338 0.6718090176582336
0.48406845331192017 -0.0013516637263819575 0.6710854172706604
0.4819939136505127 -0.0014746981905773282 0.6699004173278809
0.4738526940345764 -0.003513184143230319 0.6644117832183838
0.47252795100212097 -0.003802661318331957 0.6635413765907288
0.4688992500305176 0.00027105348999612033 0.6637813448905945
0.4680774509906769 0.002269065473228693 0.6644154787063599
0.46575620770454407 0.006539315916597843 0.6654664278030396
0.4621175229549408 0.014033705927431583 0.6675453186035156
0.46185174584388733 0.014682008884847164 0.667751669883728
0.45779794454574585 0.02253011055290699 0.6697975993156433
0.45602816343307495 0.026176325976848602 0.670809268951416
0.4538020193576813 0.030265163630247116 0.6718137264251709
0.45083314180374146 0.03618704900145531 0.6734058260917664
0.44808605313301086 0.03981243818998337 0.6738793253898621
0.4444350600242615 0.04202265292406082 0.6731025576591492
0.44081881642341614 0.04428206756711006 0.672370970249176
0.4917995035648346 -0.009614598006010056 0.6699604392051697
0.4886661469936371 -0.0033695725724101067 0.6716431379318237
0.4870755076408386 -0.0012247032718732953 0.671943187713623
0.4826980233192444 -0.0007965698605403304 0.6698072552680969
0.479667991399765 -0.0017970256740227342 0.6676273941993713
0.4777190089225769 -0.0017697160365059972 0.6665881872177124
0.47624334692955017 -0.002212905092164874 0.6655504703521729
0.47054538130760193 -0.0018870371859520674 0.662645161151886
0.46831294894218445 0.002511613303795457 0.6638165712356567
0.4678313732147217 0.002993270056322217 0.6638165712356567
0.466261625289917 0.006122319959104061 0.6646600961685181
0.4654495120048523 0.008097659796476364 0.6652891635894775
0.4641630947589874 0.010542436502873898 0.6659156084060669
0.4613420367240906 0.016047073528170586 0.6673668622970581
0.4600740075111389 0.018456781283020973 0.6679842472076416
0.4582881033420563 0.02213427610695362 0.6690072417259216
0.45750588178634644 0.024044912308454514 0.6696174740791321
0.45449796319007874 0.03003772720694542 0.6712318658828735
0.45326197147369385 0.032384321093559265 0.6718324422836304
0.45228490233421326 0.034098993986845016 0.6722312569618225
0.4427296817302704 0.0440925657749176 0.6724686026573181
0.44030889868736267 0.04559633135795593 0.6719724535942078
0.49203261733055115 -0.009381886571645737 0.6693730354309082
0.49100983142852783 -0.0075782123021781445 0.6697965860366821
0.49018582701683044 -0.005587260238826275 0.6704295873641968
0.48835262656211853 -0.0018217619508504868 0.6714777946472168
0.48493242263793945 0.00040859912405721843 0.6708323955535889
0.4805392026901245 -0.0009660181822255254 0.6677036881446838
0.47713714838027954 -0.0013667191378772259 0.6656410098075867
0.4756569564342499 -0.0018091873498633504 0.6645981669425964
0.4741659164428711 -0.002254686551168561 0.6635474562644958
0.4675208330154419 0.004562252666801214 0.6636407375335693
0.46385952830314636 0.012090420350432396 0.6657382249832153
0.45977798104286194 0.019983619451522827 0.6678059101104736
0.4567434787750244 0.026027100160717964 0.6694380640983582
0.4557548463344574 0.027762431651353836 0.6698430180549622
0.45251068472862244 0.034340664744377136 0.6716514229774475
0.45054128766059875 0.04011838883161545 0.6737172603607178
0.442036896944046 0.045282356441020966 0.6719053983688354
0.4409187436103821 0.04609539732336998 0.6717399954795837
0.49402710795402527 -0.015972193330526352 0.6660314798355103
0.4936843812465668 -0.013427925296127796 0.667229175567627
0.4904177784919739 -0.00535455159842968 0.669844388961792
0.48650237917900085 8.474654168821871e-05 0.6706734299659729
0.4843240976333618 0.0007643977296538651 0.6698581576347351
0.4828647971153259 0.0003091387334279716 0.6688165664672852
0.4780265688896179 -0.0005243676714599133 0.6657306551933289
0.47506868839263916 -0.0014040685491636395 0.6636428833007812
0.4735735058784485 -0.0018489517970010638 0.6625872850418091
0.4719441533088684 -0.0014869681326672435 0.6618978381156921
0.46988826990127563 0.0003351970808580518 0.6617706418037415
0.4680294692516327 0.00414241710677743 0.6628307104110718
0.4672110676765442 0.006127184256911278 0.6634653806686401
0.4640924036502838 0.012332787737250328 0.6651448011398315
0.4630800485610962 0.014111465774476528 0.6655616164207458
0.4600081443786621 0.020225783810019493 0.6672168970108032
0.4597450792789459 0.02086651511490345 0.6674224138259888
0.45874708890914917 0.022618507966399193 0.6678325533866882
0.4559825658798218 0.028004389256238937 0.6692589521408081
0.45201432704925537 0.03647354245185852 0.6717075109481812
0.451547771692276 0.03694015368819237 0.6717075109481812
0.44859743118286133 0.042001884430646896 0.6728564500808716
0.494612455368042 -0.015375249087810516 0.665826141834259
0.49380406737327576 -0.011395690031349659 0.667556643486023
0.4927758574485779 -0.00958412978798151 0.6679840683937073
0.48990586400032043 -0.003990862984210253 0.6694700717926025
0.48238664865493774 0.000794163323007524 0.6679781079292297
0.48091304302215576 0.0003368142351973802 0.6669244170188904
0.47895294427871704 0.0003515495336614549 0.6658628582954407
0.4725800156593323 -0.0008838120265863836 0.661710798740387
0.47068482637405396 0.0001630511396797374 0.6612482070922852
0.4692951738834381 0.002575043123215437 0.661806046962738
0.46642258763313293 0.008168119937181473 0.6632905602455139
0.4658811390399933 0.009481741115450859 0.6637117862701416
0.46513232588768005 0.010616002604365349 0.6639221906661987
0.4623023271560669 0.016127407550811768 0.6653854846954346
0.46177107095718384 0.017419937998056412 0.665800929069519
0.4584536850452423 0.024135148152709007 0.6676549315452576
0.4577203094959259 0.025243083015084267 0.6678594350814819
0.4562106132507324 0.028246525675058365 0.6686745285987854
0.4554361402988434 0.03013533353805542 0.6692826151847839
0.4541964828968048 0.032484784722328186 0.6698881983757019
0.45190632343292236 0.03807526081800461 0.6716892719268799
0.44682326912879944 0.044008661061525345 0.6721531748771667
0.4461880922317505 0.044358473271131516 0.6719973683357239
0.4952554702758789 -0.021587086841464043 0.6619275808334351
0.4949866533279419 -0.017922407016158104 0.6637862920761108
0.4942086637020111 -0.013868455775082111 0.6655792593955994
0.49431684613227844 -0.011834095232188702 0.6667519211769104
0.4921787977218628 -0.007350379601120949 0.6680359244346619
0.4901376962661743 -0.00375790661200881 0.668884813785553
0.489317387342453 -0.0017806560499593616 0.6695179343223572
0.4883047044277191 3.272569699674932e-07 0.6699386835098267
0.48735153675079346 0.0009191633434966207 0.6699198484420776
0.485712468624115 0.0021020211279392242 0.669670045375824
0.4799562394618988 0.0012984764762222767 0.6660798192024231
0.4769652485847473 0.0003796711389441043 0.6639399528503418
0.4749729633331299 0.00039469628245569766 0.6628575921058655
0.4685004651546478 0.004628186114132404 0.6616321206092834
0.4648270905017853 0.012165853753685951 0.6637473106384277
0.4617370367050171 0.01830727607011795 0.6654174327850342
0.4607328474521637 0.02006879262626171 0.6658320426940918
0.4576888680458069 0.02611987665295601 0.6674776077270508
0.4539113938808441 0.033975373953580856 0.6697096824645996
0.4534432590007782 0.03444356843829155 0.6697096824645996
0.4510413408279419 0.04229697585105896 0.6726933121681213
0.4480511248111725 0.04415343329310417 0.6720728874206543
0.4451470673084259 0.046085067093372345 0.6715407371520996
0.49268838763237 -0.00778310326859355 0.6672346591949463
0.49194055795669556 -0.0066462187096476555 0.6674482822418213
0.4916645586490631 -0.005981835070997477 0.6676613092422485
0.48672741651535034 0.0021650490816682577 0.6694235801696777
0.4828971028327942 0.0022189023438841105 0.6673502326011658
0.48095449805259705 0.0022405816707760096 0.6662958264350891
0.47797891497612 0.0013311301590874791 0.6641631126403809
0.47308677434921265 0.0005479275714606047 0.6610476970672607
0.4700682461261749 0.002417607232928276 0.6604170203208923
0.4681890606880188 0.0061951871030032635 0.6614590883255005
0.4679161310195923 0.006855624727904797 0.6616718769073486
0.46404534578323364 0.014189494773745537 0.6635729670524597
0.46377724409103394 0.01483940239995718 0.6637824773788452
0.4601724147796631 0.022233350202441216 0.665862500667572
0.45969873666763306 0.022707082331180573 0.665862500667572
0.45713767409324646 0.02826000563800335 0.667505145072937
0.4541375935077667 0.0342172309756279 0.6691282987594604
0.4530729055404663 0.0366712361574173 0.6698910593986511
0.456079363822937 0.04041527211666107 0.6735967397689819
0.45305201411247253 0.04221351444721222 0.6729220151901245
0.44927459955215454 0.04429759830236435 0.6719924807548523
0.4463248550891876 0.04619095101952553 0.671412467956543
0.44334572553634644 0.048081088811159134 0.6708146333694458
0.49592944979667664 -0.01598380133509636 0.6636587977409363
0.4945819079875946 -0.011576604098081589 0.6653436422348022
0.49107110500335693 -0.0037615292239934206 0.667713463306427
0.49005308747291565 -0.001972710946574807 0.6681380867958069
0.4804726839065552 0.002729326020926237 0.6654518246650696
0.47898727655410767 0.0022777188569307327 0.664385199546814
0.47701317071914673 0.002299806335940957 0.6633105874061584
0.4741591811180115 0.001542754820547998 0.661322295665741
0.4719023108482361 0.0013447515666484833 0.6599705815315247
0.47083207964897156 0.0022170802112668753 0.65986168384552
0.4673982560634613 0.00823860801756382 0.6612865328788757
0.466583251953125 0.010210199281573296 0.661923348903656
0.46347495913505554 0.01637897454202175 0.6636084914207458
0.4624658226966858 0.018147865310311317 0.6640267968177795
0.45940351486206055 0.024225512519478798 0.6656869649887085
0.4581466615200043 0.026604659855365753 0.6663050055503845
0.4563769996166229 0.03023315593600273 0.667328417301178
0.4558606445789337 0.03148939833045006 0.6677356362342834
0.45513370633125305 0.03258560597896576 0.6679390072822571
0.4540976583957672 0.04224485903978348 0.6726870536804199
0.45095720887184143 0.043978601694107056 0.6719123721122742
0.4504944980144501 0.044441379606723785 0.6719123721122742
0.44459497928619385 0.04822918772697449 0.670749843120575
0.49620094895362854 -0.015713348984718323 0.6631032228469849
0.49523645639419556 -0.013801724649965763 0.6636263728141785
0.49446192383766174 -0.009792745113372803 0.665412425994873
0.4939892888069153 -0.009320088662207127 0.665412425994873
0.4934326708316803 -0.007983489893376827 0.66584312915802
0.49213001132011414 -0.00551539845764637 0.6664867401123047
0.4902847409248352 -0.0017395488684996963 0.6675528883934021
0.4897376298904419 -0.00042470358312129974 0.6679767966270447
0.4892690181732178 4.380301834316924e-05 0.6679767966270447
0.48845306038856506 0.002007903065532446 0.6686108708381653
0.48583027720451355 0.004079070407897234 0.6683063507080078
0.48486045002937317 0.004081343300640583 0.6677718758583069
0.4829351007938385 0.0041097113862633705 0.6667241454124451
0.47850093245506287 0.0027688792906701565 0.6635352969169617
0.4752253592014313 0.002532042795792222 0.6615952253341675
0.4738158881664276 0.0021761630196124315 0.6606205701828003
0.472573846578598 0.001976247876882553 0.6598241329193115
0.4720916748046875 0.002458241768181324 0.6598241329193115
0.46996527910232544 0.004212183877825737 0.6596184968948364
0.4657972455024719 0.012241589836776257 0.6617509126663208
0.46269720792770386 0.018390610814094543 0.6634345054626465
0.4616905152797699 0.020154284313321114 0.6638525724411011
0.4586367607116699 0.026212841272354126 0.6655120253562927
0.4548470973968506 0.0340779609978199 0.6677626967430115
0.4589690864086151 0.04027508944272995 0.6734613180160522
0.4527999758720398 0.04377545416355133 0.6719877123832703
0.44856083393096924 0.0463278628885746 0.6710562109947205
0.49795451760292053 -0.021768517792224884 0.6598645448684692
0.4946756958961487 -0.011494552716612816 0.6637391448020935
0.4926397204399109 -0.005946301389485598 0.6656844019889832
0.48684433102607727 0.004140081815421581 0.6680611968040466
0.48625966906547546 0.004498343449085951 0.6679357290267944
0.4824584126472473 0.004598044790327549 0.6658855080604553
0.4809877872467041 0.004155781585723162 0.6648260354995728
0.4790615439414978 0.004211710300296545 0.6637901663780212
0.47628554701805115 0.0035156747326254845 0.6618669629096985
0.47028812766075134 0.004531285725533962 0.6591074466705322
0.46916988492012024 0.006263375282287598 0.6594476699829102
0.468141108751297 0.008066116832196712 0.6598763465881348
0.46603095531463623 0.012484628707170486 0.6611548066139221
0.4650129973888397 0.01426766999065876 0.6615787148475647
0.46420735120773315 0.016216810792684555 0.662212073802948
0.4611274302005768 0.022321542724967003 0.6638875007629395
0.46012604236602783 0.024073490872979164 0.664303183555603
0.4580831825733185 0.02835560031235218 0.665543258190155
0.45782271027565 0.0289870984852314 0.6657488942146301
0.45709216594696045 0.030088715255260468 0.6659544110298157
0.45433762669563293 0.036211952567100525 0.6678202748298645
0.4571770131587982 0.04222553223371506 0.6727238893508911
0.45415911078453064 0.0440235361456871 0.6720481514930725
0.44754448533058167 0.0480610691010952 0.6706207394599915
0.4983125329017639 -0.016454990953207016 0.6621504426002502
