ply
format ascii 1.0
element vertex 831
property float x
property float y
property float z
end_header
0.5740809440612793 0.1339716613292694 0.6287752985954285
0.5725204944610596 0.12433149665594101 0.6337305903434753
0.572786271572113 0.12226260453462601 0.6346958875656128
0.5737313628196716 0.1219475269317627 0.6346958875656128
0.5739998817443848 0.11991004645824432 0.6356465220451355
0.5742670297622681 0.11788658052682877 0.6365898251533508
0.575901210308075 0.11399019509553909 0.6382240056991577
0.5766862034797668 0.11068502068519592 0.639708936214447
0.583950400352478 0.10526619106531143 0.6411707997322083
0.5843977928161621 0.10382725298404694 0.6417995095252991
0.5845165848731995 0.09429336339235306 0.6464299559593201
0.585019052028656 0.09304828941822052 0.6469554901123047
0.5855589509010315 0.09189820289611816 0.6474285125732422
0.5860975980758667 0.09075192362070084 0.6478998064994812
0.5886127352714539 0.08705170452594757 0.6492958664894104
0.5900930762290955 0.08573147654533386 0.6496986150741577
0.5923938155174255 0.08167863637208939 0.6513014435768127
0.5956734418869019 0.0820687934756279 0.6505780220031738
0.5972480177879333 0.08322920650243759 0.6497564911842346
0.6007117033004761 0.07953961193561554 0.6509924530982971
0.6022487282752991 0.07840623706579208 0.6512954831123352
0.6028875112533569 0.07757294178009033 0.6515977382659912
0.6035362482070923 0.07461687177419662 0.6529337763786316
0.6034781336784363 0.07236460596323013 0.6540417075157166
0.6043046116828918 0.06983613222837448 0.6551405787467957
0.6062212586402893 0.06746756285429001 0.6559838056564331
0.6168880462646484 0.0681261345744133 0.6539289355278015
0.6177756190299988 0.06783027201890945 0.6539289355278015
0.6186716556549072 0.06755107641220093 0.6539190411567688
0.6205910444259644 0.06723520904779434 0.653761625289917
0.6220158338546753 0.06796054542064667 0.6531763076782227
0.6257747411727905 0.06912193447351456 0.6519986987113953
0.6272184252738953 0.06985585391521454 0.6514061689376831
0.6324827075004578 0.0717729851603508 0.649615466594696
0.6339508295059204 0.07251734286546707 0.6490134000778198
0.6363287568092346 0.07296330481767654 0.6484096050262451
0.6378107666969299 0.07371309399604797 0.6478031277656555
0.5708497762680054 0.13685056567192078 0.6267524361610413
0.5715224146842957 0.13575106859207153 0.6271812319755554
0.5723263025283813 0.13500607013702393 0.6274140477180481
0.5740926265716553 0.1339394599199295 0.6276479959487915
0.5718258023262024 0.12524086236953735 0.6322750449180603
0.5720908045768738 0.12315675616264343 0.6332521438598633
0.5739148855209351 0.11692261695861816 0.6360056400299072
0.574289083480835 0.1151866689324379 0.6367941498756409
0.5746610164642334 0.11345934122800827 0.6375789046287537
0.5774113535881042 0.10978776216506958 0.6389269828796387
0.5783479809761047 0.10949403792619705 0.638918399810791
0.5802145600318909 0.10889028012752533 0.6389092206954956
0.5819206833839417 0.1078997328877449 0.6391158699989319
0.5823695063591003 0.10643921792507172 0.6397569179534912
0.5846914052963257 0.10193794220685959 0.6415814757347107
0.5829381346702576 0.0953669548034668 0.645083487033844
0.5843929648399353 0.09390480071306229 0.645561695098877
0.5874555706977844 0.08901036530733109 0.6474577188491821
0.5880030393600464 0.08790131658315659 0.6479113101959229
0.5891653299331665 0.08585719019174576 0.6487218141555786
0.5912200212478638 0.08352462947368622 0.6495283842086792
0.5952696800231934 0.08331935852766037 0.6489681601524353
0.5966570973396301 0.08407487720251083 0.6483720541000366
0.5988391637802124 0.08205483853816986 0.6490045189857483
0.5994851589202881 0.08121415227651596 0.6493107676506042
0.6001298427581787 0.08037532866001129 0.6496157646179199
0.60077303647995 0.07953805476427078 0.6499208211898804
0.6028783917427063 0.07526146620512009 0.6516705751419067
0.6028233766555786 0.07300502806901932 0.6527838706970215
0.6028115153312683 0.07085418701171875 0.653838038444519
0.6086723208427429 0.06605462729930878 0.6552314758300781
0.6094133853912354 0.06548193097114563 0.6553909182548523
0.6101766228675842 0.06495621055364609 0.6555231213569641
0.612941324710846 0.06431785225868225 0.6553847789764404
0.6181668043136597 0.06843052804470062 0.652519702911377
0.6281853318214417 0.06952489912509918 0.6503493189811707
0.6312538981437683 0.07129418104887009 0.6489830017089844
0.6349318623542786 0.07218702137470245 0.6479463577270508
0.6358348727226257 0.07188601046800613 0.6479463577270508
0.5719137787818909 0.13386189937591553 0.6268996596336365
0.5728771090507507 0.13354095816612244 0.6268996596336365
0.5711285471916199 0.12615400552749634 0.6308138370513916
0.571392834186554 0.1240544319152832 0.6318022012710571
0.5716692209243774 0.12200313061475754 0.632764995098114
0.571944534778595 0.11996599286794662 0.6337203979492188
0.5728874802589417 0.119651660323143 0.6337203979492188
0.5732322931289673 0.11781615763902664 0.6345650553703308
0.5739830136299133 0.11434147506952286 0.6361486911773682
0.5758432149887085 0.11105369031429291 0.6374591588973999
0.576777994632721 0.11075018346309662 0.6374551057815552
0.5786550641059875 0.1101621612906456 0.6374363303184509
0.5795869827270508 0.10985153168439865 0.6374363303184509
0.5805256366729736 0.10955760627985 0.6374267935752869
0.5821648836135864 0.10585680603981018 0.6389763951301575
0.5823055505752563 0.09622972458600998 0.643682062625885
0.5853919982910156 0.09130416065454483 0.6455960273742676
0.5879748463630676 0.08772733062505722 0.6469298005104065
0.5891382098197937 0.08568306267261505 0.6477435827255249
0.5900393724441528 0.08538267016410828 0.6477435827255249
0.5939611196517944 0.08487708121538162 0.6473494172096252
0.5948634743690491 0.08457630127668381 0.6473494172096252
0.5960642099380493 0.08492407202720642 0.6469822525978088
0.5973504781723022 0.08319941908121109 0.6476189494132996
0.598899781703949 0.0820559561252594 0.6479272246360779
0.6022729873657227 0.07818987965583801 0.6492735743522644
0.6021661162376404 0.07364697754383087 0.6515220403671265
0.6044206619262695 0.06979396939277649 0.6530457139015198
0.6065434217453003 0.06783223897218704 0.6536615490913391
0.6081321239471436 0.0668860599398613 0.6538662910461426
0.6167683005332947 0.06960994750261307 0.6511139273643494
0.6185594201087952 0.06903284788131714 0.6511043310165405
0.619974672794342 0.06773507595062256 0.65151047706604
0.6210778951644897 0.06585405021905899 0.6522536277770996
0.6233921647071838 0.06627998501062393 0.6516651511192322
0.6248242259025574 0.06700468808412552 0.6510749459266663
0.6262624859809875 0.0677323117852211 0.650482177734375
0.6277060508728027 0.06846277415752411 0.6498873233795166
0.6286008358001709 0.06816451251506805 0.6498873233795166
0.6324763298034668 0.07338940352201462 0.6466863751411438
0.6337211728096008 0.07174915820360184 0.6472882032394409
0.6369448304176331 0.07178578525781631 0.6467422842979431
0.6393942832946777 0.07428416609764099 0.6451142430305481
0.5694752931594849 0.12738792598247528 0.62934809923172
0.5704285502433777 0.1270701289176941 0.62934809923172
0.5709711313247681 0.12289769947528839 0.6313154697418213
0.5712491869926453 0.12085405737161636 0.6322773694992065
0.5729258060455322 0.11696573346853256 0.6339187026023865
0.5733025670051575 0.11522741615772247 0.6347129344940186
0.5737597942352295 0.11370526254177094 0.6353885531425476
0.5742684006690979 0.11232303828001022 0.6359864473342896
0.5761423707008362 0.11171699315309525 0.6359771490097046
0.5780229568481445 0.11112769693136215 0.6359582543373108
0.5815069079399109 0.10672233998775482 0.637557327747345
0.5819833874702454 0.10532918572425842 0.6381657719612122
0.5833978056907654 0.10366758704185486 0.6387525200843811
0.5816714763641357 0.09709674119949341 0.6422752141952515
0.5822204947471619 0.09593170881271362 0.6427585482597351
0.5842244625091553 0.0933101698756218 0.6437212824821472
0.5858699083328247 0.08991211652755737 0.6451263427734375
0.5867761969566345 0.08960995078086853 0.6451263427734375
0.5879466533660889 0.08755369484424591 0.6459477543830872
0.5913023948669434 0.0834726020693779 0.6474078297615051
0.5935507416725159 0.08614186197519302 0.6457229852676392
0.5945641398429871 0.08607819676399231 0.6455876231193542
0.5954692959785461 0.08577648550271988 0.6455876231193542
0.5961070656776428 0.08489398658275604 0.645918071269989
0.5996068120002747 0.08121456205844879 0.6471562385559082
0.6002619862556458 0.08039480447769165 0.6474528312683105
0.6007108688354492 0.0791439488530159 0.6479954123497009
0.6006621718406677 0.07685502618551254 0.6491313576698303
0.6015070676803589 0.07428967952728271 0.6502574682235718
0.6016316413879395 0.0724012479186058 0.6511677503585815
0.6022709012031555 0.07158993929624557 0.6514625549316406
0.6045801639556885 0.06997962296009064 0.651877224445343
0.6067051291465759 0.06801530718803406 0.6524962186813354
0.6106502413749695 0.06559615582227707 0.6530404090881348
0.6122976541519165 0.06477491557598114 0.6531744003295898
0.6162576675415039 0.07049696892499924 0.6497034430503845
0.6180674433708191 0.06994850933551788 0.6496762633323669
0.6201989650726318 0.06600687652826309 0.6512690782546997
0.6206105351448059 0.06480429321527481 0.6517940163612366
0.6229209303855896 0.06522730737924576 0.6512061357498169
0.624350905418396 0.0659494549036026 0.6506153345108032
0.6272271275520325 0.06740192323923111 0.6494266986846924
0.6281208395957947 0.06710401922464371 0.6494266986846924
0.6325585842132568 0.07337024807929993 0.6456092596054077
0.6370981931686401 0.07188823074102402 0.6455932855606079
0.5687717795372009 0.12830998003482819 0.6278756856918335
0.5699892044067383 0.12585902214050293 0.6288873553276062
0.5702705979347229 0.1237950548529625 0.6298619508743286
0.570551335811615 0.12174513190984726 0.6308293342590332
0.5709155797958374 0.11992747336626053 0.6316685676574707
0.5730894804000854 0.11461535096168518 0.6339377760887146
0.5764462351799011 0.11239267140626907 0.6344836354255676
0.5803900361061096 0.10905150324106216 0.6354859471321106
0.5818204879760742 0.10484616458415985 0.637330174446106
0.5827474594116211 0.10453711450099945 0.637330174446106
0.5810343027114868 0.09796647727489471 0.6408625841140747
0.5821354389190674 0.09563405811786652 0.6418349146842957
0.5846832394599915 0.09185874462127686 0.6432824730873108
0.5885013341903687 0.08635517209768295 0.6453748345375061
0.5890832543373108 0.08533395081758499 0.6457840800285339
0.590819239616394 0.08458133786916733 0.6458704471588135
0.5974686741828918 0.08320280909538269 0.6454562544822693
0.5981179475784302 0.08235792070627213 0.6457661986351013
0.5999974608421326 0.07750668376684189 0.6478560566902161
0.5999526381492615 0.07523124665021896 0.6489891409873962
0.6008450388908386 0.07493387162685394 0.6489891409873962
0.6010386347770691 0.07317879796028137 0.6498255133628845
0.6040288805961609 0.0708235502243042 0.6504976749420166
0.6061626076698303 0.06886055320501328 0.6511166095733643
0.6085865497589111 0.06750498712062836 0.6513873934745789
0.6101216077804565 0.06644631177186966 0.651658296585083
0.6108883023262024 0.06591787189245224 0.6517931818962097
0.6157448887825012 0.0713871642947197 0.6482869386672974
0.6179192662239075 0.06950486451387405 0.6488593816757202
0.6192169189453125 0.06796995550394058 0.6494047045707703
0.6253108978271484 0.06561801582574844 0.6495636701583862
0.6338871717453003 0.0717083141207695 0.6451370120048523
0.6345082521438599 0.07088956981897354 0.6454389691352844
0.568331241607666 0.12708929181098938 0.6274190545082092
0.5698510408401489 0.1226397156715393 0.6293764114379883
0.5709971785545349 0.11733226478099823 0.6318206787109375
0.5739258527755737 0.11397454142570496 0.6330028176307678
0.5748699307441711 0.11367915570735931 0.6329931020736694
0.5767513513565063 0.11307068914175034 0.6329842805862427
0.5783311724662781 0.11171940714120865 0.6333938241004944
0.5797252655029297 0.10992883145809174 0.6340518593788147
0.5806658864021301 0.1070653647184372 0.6353174448013306
0.5811657905578613 0.10571978241205215 0.6359026432037354
0.5794771313667297 0.09914593398571014 0.6394451856613159
0.580395519733429 0.09883979707956314 0.6394451856613159
0.5809485912322998 0.09766821563243866 0.6399351954460144
0.58351069688797 0.09387040138244629 0.6413966417312622
0.5840553641319275 0.09271358698606491 0.6418800950050354
0.5858114957809448 0.08956515043973923 0.6431530117988586
0.5867189168930054 0.08926267921924591 0.6431530117988586
0.5878901481628418 0.08720521628856659 0.6439802050590515
0.5927231311798096 0.0886911153793335 0.6424427628517151
0.5933640003204346 0.08779384195804596 0.6427823305130005
0.5940065383911133 0.08690621703863144 0.64311683177948
0.5955696702003479 0.08575157076120377 0.6434308886528015
0.5962238311767578 0.08490097522735596 0.6437451243400574
0.599373996257782 0.08046014606952667 0.6454287171363831
0.5993310809135437 0.07816118746995926 0.6465765237808228
0.5992876291275024 0.07587786763906479 0.647716760635376
0.6025858521461487 0.07196713984012604 0.64911288022995
0.6041883230209351 0.071011021733284 0.649322509765625
0.6056233048439026 0.06972020864486694 0.649725615978241
0.6063945293426514 0.06918825209140778 0.6498614549636841
0.6080522537231445 0.06836074590682983 0.6499983668327332
0.6143337488174438 0.07258008420467377 0.6468645930290222
0.6161350607872009 0.07199942320585251 0.6468549966812134
0.6198448538780212 0.06501143425703049 0.6497097015380859
0.6205264329910278 0.06432310491800308 0.6499385237693787
0.622696578502655 0.06447803229093552 0.649502158164978
0.6267719864845276 0.06621801108121872 0.6479646563529968
0.6276651620864868 0.06592027842998505 0.6479646563529968
0.6327230334281921 0.07333159446716309 0.6434488296508789
0.5679092407226562 0.12591786682605743 0.626937210559845
0.5681977272033691 0.1238538846373558 0.6279173493385315
0.5695288181304932 0.1217389926314354 0.6287499070167542
0.5699171423912048 0.11997409909963608 0.6295645236968994
0.5723346471786499 0.1152501255273819 0.6315165162086487
0.574226438999176 0.11465752124786377 0.6314972639083862
0.5761117935180664 0.11404786258935928 0.6314877271652222
0.5770576596260071 0.11375146359205246 0.6314788460731506
0.5785841941833496 0.10964949429035187 0.633268415927887
0.5800070762634277 0.1079462468624115 0.633880615234375
0.5788339972496033 0.10002318769693375 0.6380221247673035
0.5819648504257202 0.09503711760044098 0.6399861574172974
0.5846007466316223 0.09146132320165634 0.641329288482666
0.5890731811523438 0.08741597086191177 0.6426017880439758
0.5912076830863953 0.08986219018697739 0.641028881072998
0.5921189188957214 0.08955860137939453 0.641028881072998
0.5934047102928162 0.08776615560054779 0.641708254814148
0.5976101756095886 0.08325576782226562 0.6432567834854126
0.5978002548217773 0.08142149448394775 0.6441391110420227
0.5986625552177429 0.07881716638803482 0.6452932357788086
0.6005954742431641 0.07414348423480988 0.6473001837730408
0.601312518119812 0.07348006218671799 0.6475117802619934
0.6020282506942749 0.07281751930713654 0.6477226614952087
0.6098283529281616 0.06762491911649704 0.6490147113800049
0.6138145327568054 0.07347778975963593 0.6454369425773621
0.6147218346595764 0.07319598644971848 0.645426869392395
0.6163341999053955 0.07223658263683319 0.6456366777420044
0.6171557307243347 0.06974335759878159 0.6467428803443909
0.6184564828872681 0.06820538640022278 0.6472924947738647
0.618861734867096 0.0669705793261528 0.6478402614593506
0.6253955364227295 0.06544540077447891 0.6475152969360352
0.567882239818573 0.12296563386917114 0.6272832751274109
0.5701203942298889 0.11768040060997009 0.6295520663261414
0.5735788941383362 0.11563587188720703 0.6299973726272583
0.5745282173156738 0.115342877805233 0.6299858093261719
0.5764174461364746 0.11473199725151062 0.629976212978363
0.5779150128364563 0.11052893847227097 0.6318281292915344
0.5798497796058655 0.10747630894184113 0.6330320835113525
0.5781883597373962 0.10090372711420059 0.6365944147109985
0.5787473917007446 0.09972456097602844 0.6370905041694641
0.5802231431007385 0.09824221581220627 0.6375855207443237
0.5824695229530334 0.09367446601390839 0.6394945979118347
0.5857526063919067 0.08921758085489273 0.6411752700805664
0.5866609811782837 0.08891479671001434 0.6411752700805664
0.5872480869293213 0.08788420259952545 0.6415920853614807
0.5886475443840027 0.0886930301785469 0.6409549117088318
0.5905981659889221 0.09073099493980408 0.6396114826202393
0.5912424921989441 0.08982578665018082 0.6399564146995544
0.5921542644500732 0.08952180296182632 0.6399564146995544
0.5941201448440552 0.086916483938694 0.6409310102462769
0.595685601234436 0.08575966209173203 0.6412487030029297
0.5963502526283264 0.08492807298898697 0.6415538191795349
0.5970910787582397 0.07977364212274551 0.6440072059631348
0.5979518294334412 0.07717696577310562 0.6451610922813416
0.5984177589416504 0.07596597820520401 0.6456894278526306
0.6036466956138611 0.07174631953239441 0.646926999092102
0.604538083076477 0.07144933193922043 0.646926999092102
0.606087327003479 0.07037977874279022 0.6472032070159912
0.606860876083374 0.06984598934650421 0.6473416090011597
0.6085234880447388 0.0690162405371666 0.6474792957305908
0.6123849153518677 0.07466211169958115 0.6440133452415466
0.6142077445983887 0.07410729676485062 0.6439869999885559
0.6161561012268066 0.07173312455415726 0.6448495388031006
0.6169776320457458 0.06924145668745041 0.6459583044052124
0.6192092895507812 0.0654732882976532 0.6474694013595581
0.620242714881897 0.06545069068670273 0.6473085880279541
0.6222497224807739 0.06528589874505997 0.6470564603805542
0.6260473728179932 0.06649846583604813 0.6458181738853455
0.6313530802726746 0.07442229241132736 0.6409730315208435
0.6322618722915649 0.07411931455135345 0.6409730315208435
0.6328880786895752 0.07329317182302475 0.6412817239761353
0.5685250163078308 0.1217879205942154 0.6266345977783203
0.5728992819786072 0.11654345691204071 0.6285346150398254
0.5748211741447449 0.1160052940249443 0.6284830570220947
0.5767765641212463 0.11289289593696594 0.6297172904014587
0.5782537460327148 0.10867061465978622 0.6315882205963135
0.5775402784347534 0.10178756713867188 0.6351606249809265
0.5781013369560242 0.10060479491949081 0.6356599926948547
0.5801369547843933 0.09794293344020844 0.6366552710533142
0.5812434554100037 0.0956038236618042 0.6376433372497559
0.584540605545044 0.09111441671848297 0.6393439769744873
0.5882200002670288 0.08997692167758942 0.6392990350723267
0.5899863243103027 0.09160330146551132 0.638187825679779
0.5935178995132446 0.08777795732021332 0.6395163536071777
0.5941771864891052 0.08692136406898499 0.6398360729217529
0.5964480638504028 0.08275061845779419 0.6415479183197021
0.5964159965515137 0.08043250441551208 0.6427162289619446
0.5963878631591797 0.07813925296068192 0.6438719034194946
0.5972858667373657 0.0778399184346199 0.6438719034194946
0.5985713005065918 0.07616111636161804 0.6444988250732422
0.6000128984451294 0.07482729852199554 0.6449265480041504
0.6016263961791992 0.07386370003223419 0.6451402902603149
0.6023441553115845 0.07319968938827515 0.6453534960746765
0.6047691702842712 0.07178232073783875 0.6456589102745056
0.6063205599784851 0.07071138918399811 0.6459370851516724
0.6109586954116821 0.07586856931447983 0.642573893070221
0.6127707362174988 0.07528470456600189 0.6425641179084778
0.6146650910377502 0.07278038561344147 0.6435038447380066
0.6159772276878357 0.07122917473316193 0.6440620422363281
0.6172083616256714 0.06750189512968063 0.6457260251045227
0.6181009411811829 0.06720437854528427 0.6457260251045227
0.620904803276062 0.0665525496006012 0.6455844640731812
0.622024655342102 0.06668593734502792 0.6453301310539246
0.6242513060569763 0.06691764295101166 0.6448416709899902
0.6308053135871887 0.07523171603679657 0.6395750641822815
0.6323843002319336 0.07417503744363785 0.6398409605026245
0.5672768950462341 0.12125807255506516 0.6259798407554626
0.5682248473167419 0.12094209343194962 0.6259798407554626
0.568651020526886 0.11926812678575516 0.6267509460449219
0.5702851414680481 0.117974653840065 0.6271277666091919
0.5722091197967529 0.11743395775556564 0.6270771026611328
0.5740990042686462 0.11680477857589722 0.6270772814750671
0.5746403336524963 0.11547496914863586 0.6276549696922302
0.5770776867866516 0.11092054843902588 0.629539430141449
0.5775880217552185 0.10955774784088135 0.630139172077179
0.575964629650116 0.10298315435647964 0.6337215304374695
0.5768897533416748 0.10267472267150879 0.6337215304374695
0.57857346534729 0.09912564605474472 0.635225772857666
0.5791308879852295 0.09794989228248596 0.635723352432251
0.5800503492355347 0.0976434126496315 0.635723352432251
0.5824069976806641 0.09332887083292007 0.6375002861022949
0.5839166045188904 0.09198089689016342 0.6379256248474121
0.5851362347602844 0.08997968584299088 0.6387284398078918
0.586876392364502 0.09157280623912811 0.6376341581344604
0.5893725156784058 0.09247895330190659 0.6367592215538025
0.5900205969810486 0.09156837314367294 0.6371086835861206
0.591337263584137 0.08980850875377655 0.637773871421814
0.5922507047653198 0.08950402587652206 0.637773871421814
0.595799446105957 0.08576180040836334 0.6390617489814758
0.595769464969635 0.08341947942972183 0.6402459740638733
0.5957390666007996 0.08109342306852341 0.6414223909378052
0.5957788825035095 0.07893548160791397 0.642501711845398
0.5980024337768555 0.07702619582414627 0.6430898904800415
0.5994475483894348 0.07568860799074173 0.6435204744338989
0.6001687049865723 0.07502122223377228 0.6437355875968933
0.6041070222854614 0.07241469621658325 0.6443868279457092
0.6104300618171692 0.07677845656871796 0.6411295533180237
0.6122458577156067 0.07619380950927734 0.6411188840866089
0.6131823658943176 0.07595815509557724 0.6410802602767944
0.6153854727745056 0.0719761997461319 0.642715334892273
0.6162111163139343 0.06947968900203705 0.6438329815864563
0.6215707659721375 0.06766051799058914 0.6438502073287964
0.6229531764984131 0.06828666478395462 0.6433029174804688
0.623850405216217 0.06798757612705231 0.6433029174804688
0.6252527832984924 0.06864013522863388 0.6427390575408936
0.630255937576294 0.07604462653398514 0.6381717920303345
0.5749514698982239 0.11350113898515701 0.6274741888046265
0.5773652791976929 0.1011883020401001 0.6332874298095703
0.5811761021614075 0.09525138139724731 0.6356450915336609
0.5845438838005066 0.09091370552778244 0.6372687220573425
0.5864414572715759 0.09287119656801224 0.6359607577323914
0.5887561440467834 0.0933578684926033 0.6353248357772827
0.5936534404754639 0.08783899247646332 0.637288510799408
0.5942043662071228 0.08674103021621704 0.6377501487731934
0.5951682925224304 0.07973475754261017 0.6411270499229431
0.596531867980957 0.07819432020187378 0.641675591468811
0.597431480884552 0.07789444923400879 0.641675591468811
0.598156213760376 0.07722292840480804 0.6418929696083069
0.6027790307998657 0.07382745295763016 0.6428297758102417
0.6043382883071899 0.07275047153234482 0.643110990524292
0.6060118079185486 0.07191453874111176 0.6432520151138306
0.6098990440368652 0.07769231498241425 0.6396781206130981
0.6108133792877197 0.07740787416696548 0.6396679878234863
0.6126304864883423 0.07681676745414734 0.6396612524986267
0.6138905882835388 0.07302555441856384 0.6413638591766357
0.6143079400062561 0.07177124917507172 0.641927182674408
0.6188680529594421 0.06836795061826706 0.6428784132003784
0.6211503744125366 0.06870780885219574 0.6423223614692688
0.6225484609603882 0.06936218589544296 0.6417563557624817
0.6239513754844666 0.07001810520887375 0.6411887407302856
0.6248524188995361 0.06971791386604309 0.6411887407302856
0.6297047734260559 0.07686055451631546 0.6367638111114502
0.5762485861778259 0.11134178191423416 0.6272253394126892
0.5746527314186096 0.10476851463317871 0.630827009677887
0.5752215385437012 0.10357391834259033 0.6313369274139404
0.5767139792442322 0.10207429528236389 0.6318442225456238
0.577839732170105 0.099705271422863 0.6328557729721069
0.578410267829895 0.09855218231678009 0.6333433985710144
0.5790175199508667 0.09749337285757065 0.6337776184082031
0.5823441743850708 0.09298240393400192 0.6355018615722656
0.5839495658874512 0.0918513685464859 0.6358042359352112
0.5860046148300171 0.09417697787284851 0.6342779994010925
0.5872178077697754 0.09454680234193802 0.633885383605957
0.5901144742965698 0.09155449271202087 0.6349133849143982
0.5914562344551086 0.08984401822090149 0.6355529427528381
0.5923712253570557 0.08953900635242462 0.6355529427528381
0.593495786190033 0.08506330102682114 0.6376317739486694
0.5934736728668213 0.0827229917049408 0.6388221979141235
0.594379186630249 0.08242115378379822 0.6388221979141235
0.5945552587509155 0.08053689450025558 0.6397474408149719
0.6005462408065796 0.07554666697978973 0.6412645578384399
0.6022270917892456 0.07470650225877762 0.6414062976837158
0.6037898659706116 0.07362661510705948 0.6416899561882019
0.604569673538208 0.07308700680732727 0.6418317556381226
0.6093662977218628 0.07860938459634781 0.6382220983505249
0.6102862358093262 0.0783330500125885 0.6382067799568176
0.6128726005554199 0.07504067569971085 0.6394383311271667
0.6154879927635193 0.06980853527784348 0.6416483521461487
0.6163858771324158 0.0695105493068695 0.6416481137275696
0.6186315417289734 0.06978538632392883 0.6411290764808655
0.620741069316864 0.06978538632392883 0.6407724618911743
0.6235463619232178 0.0711011290550232 0.6396315097808838
0.6282355189323425 0.0779842734336853 0.6353504061698914
0.5739930272102356 0.10566633194684982 0.6293715238571167
0.5745639801025391 0.10446804761886597 0.6298847794532776
0.576626181602478 0.10177385061979294 0.630905270576477
0.5777676701545715 0.09944245219230652 0.6318978667259216
0.5805091857910156 0.0959589034318924 0.6332046389579773
0.5817133188247681 0.09385610371828079 0.6340702772140503
0.585565447807312 0.09548977017402649 0.6325861811637878
0.5879088044166565 0.09360850602388382 0.6331457495689392
0.5888283848762512 0.09330197423696518 0.6331457495689392
0.5901681780815125 0.0915631651878357 0.6338028311729431
0.5927891731262207 0.08339044451713562 0.6375157833099365
0.5930354595184326 0.08164333552122116 0.6383625268936157
0.5953797698020935 0.07994183152914047 0.638830840587616
0.5961087942123413 0.07926663011312485 0.6390508413314819
0.5984647870063782 0.07761865854263306 0.6394895315170288
0.6007732152938843 0.07588876038789749 0.6399778127670288
0.6079223155975342 0.07983372360467911 0.6367592811584473
0.6088314056396484 0.07953068614006042 0.6367592811584473
0.6105136275291443 0.07864899933338165 0.6369227170944214
0.6109403967857361 0.07737265527248383 0.6374991536140442
0.613114058971405 0.07327155023813248 0.6392167210578918
0.617041826248169 0.07063403725624084 0.6398922801017761
0.6181672811508179 0.07077206671237946 0.6396311521530151
0.6203299760818481 0.07086770236492157 0.6392160654067993
0.6270403861999512 0.07964669913053513 0.6336123943328857
0.5718233585357666 0.10808616131544113 0.6273924112319946
0.5723991394042969 0.1068783849477768 0.6279109716415405
0.5750443339347839 0.10297269374132156 0.6294541954994202
0.57561194896698 0.1017821803689003 0.6299657821655273
0.5765382647514343 0.10147339850664139 0.6299657821655273
0.5783432126045227 0.09820862114429474 0.6313253045082092
0.578950822353363 0.0971493348479271 0.6317620277404785
0.5841997861862183 0.09711724519729614 0.6308857202529907
0.5866269469261169 0.09540093690156937 0.6313488483428955
0.5912213325500488 0.08908838778734207 0.6337886452674866
0.5921366214752197 0.08878329396247864 0.6337886452674866
0.5921196341514587 0.0864129289984703 0.6350017786026001
0.5931629538536072 0.0818006619811058 0.637178361415863
0.5940684080123901 0.08149883896112442 0.637178361415863
0.596261203289032 0.07946746796369553 0.6378427147865295
0.6002151370048523 0.07677514851093292 0.6385437846183777
0.6026859879493713 0.07538848370313644 0.6388310194015503
0.6073834300041199 0.08075936883687973 0.6352906227111816
0.6083255410194397 0.08051992207765579 0.635252833366394
0.6099045872688293 0.07941778749227524 0.6355466842651367
0.6111865043640137 0.07559267431497574 0.6372811198234558
0.6120916604995728 0.07529094815254211 0.6372811198234558
0.6134828925132751 0.07176394015550613 0.6388443112373352
0.6145463585853577 0.07178443670272827 0.6386534571647644
0.6190130710601807 0.07225640118122101 0.6376520395278931
0.6204163432121277 0.07292071729898453 0.6370742917060852
0.6264797449111938 0.0804746076464653 0.632186770439148
0.5717326998710632 0.10778360813856125 0.6264444589614868
0.5738150477409363 0.10506444424390793 0.6274821162223816
0.5743862390518188 0.10386620461940765 0.6279982924461365
0.5776994228363037 0.09909909218549728 0.629874050617218
0.5804445743560791 0.09561342000961304 0.631190836429596
0.5837535262107849 0.09844506531953812 0.62917560338974
0.5844173431396484 0.09752371907234192 0.6295341849327087
0.5860011577606201 0.09629073739051819 0.6298950910568237
0.5880179405212402 0.09364155679941177 0.6309077143669128
0.5903156995773315 0.09167033433914185 0.6315252780914307
0.5905153155326843 0.08739505708217621 0.6336804628372192
0.5914139747619629 0.08473147451877594 0.6348916888237
0.5918422341346741 0.08336672931909561 0.6355177760124207
0.5925778150558472 0.08268552273511887 0.6357412934303284
0.5942187905311584 0.08170308917760849 0.6359638571739197
0.5980775356292725 0.078756183385849 0.6368142366409302
0.5996548533439636 0.07766517996788025 0.6371040940284729
0.6004424691200256 0.07712043821811676 0.6372485160827637
0.6021311283111572 0.07627496868371964 0.6373932361602783
0.6059202551841736 0.08197440952062607 0.6338270902633667
0.6068417429924011 0.08168834447860718 0.6338164210319519
0.6101535558700562 0.07762742787599564 0.6353310942649841
0.6123345494270325 0.07351808995008469 0.637063205242157
0.6140719056129456 0.0727781280875206 0.637145459651947
0.6161033511161804 0.07261842489242554 0.6368808746337891
0.6200013756752014 0.07401639968156815 0.6354995369911194
0.6249950528144836 0.08161219954490662 0.6307563185691833
0.6266425251960754 0.08062250912189484 0.6309821009635925
0.5755130052566528 0.10137062519788742 0.6279733777046204
0.5764400362968445 0.10106156021356583 0.6279733777046204
0.5782756209373474 0.09786411374807358 0.6293025612831116
0.5809887051582336 0.09680653363466263 0.6293808221817017
0.5831221342086792 0.09935048967599869 0.6277081966400146
0.5867155194282532 0.09539364278316498 0.6291260123252869
0.5880919098854065 0.09370144456624985 0.6297599673271179
0.589828610420227 0.09045985341072083 0.6311284303665161
0.5898204445838928 0.08807535469532013 0.6323557496070862
0.5898122191429138 0.0857086107134819 0.6335738897323608
0.5907233357429504 0.08540491759777069 0.6335738897323608
0.596605658531189 0.07995451241731644 0.6353669762611389
0.5983023643493652 0.07910529524087906 0.6355132460594177
0.6006699800491333 0.0774661973118782 0.6359497904777527
0.6044605374336243 0.08321300894021988 0.632346510887146
0.6063011288642883 0.0826268121600151 0.6323326826095581
0.6082016229629517 0.07998103648424149 0.6333668231964111
0.6099736094474792 0.07711674273014069 0.634535551071167
0.6104010939598083 0.07584366947412491 0.6351168155670166
0.6124675869941711 0.07363343238830566 0.6358984708786011
0.6147249937057495 0.07391893118619919 0.6353650689125061
0.6158658266067505 0.0740799531340599 0.635086715221405
0.6167725920677185 0.0737777128815651 0.635086715221405
0.6181765794754028 0.07444807887077332 0.634501576423645
0.6195840835571289 0.07511761039495468 0.6339159607887268
0.6244280934333801 0.08244675397872925 0.6293197274208069
0.6252214312553406 0.08188805729150772 0.6294708251953125
0.626144289970398 0.08158058673143387 0.6294708251953125
0.5770189762115479 0.09982093423604965 0.6274012327194214
0.5796082019805908 0.09844090044498444 0.627668559551239
0.5805338621139526 0.09813234955072403 0.627668559551239
0.5824862122535706 0.10025374591350555 0.6262387037277222
0.5844833850860596 0.09747514873743057 0.6273285150527954
0.5860893726348877 0.09628574550151825 0.6276654601097107
0.5867804884910583 0.09543653577566147 0.6279851794242859
0.5891289114952087 0.09114842861890793 0.6297925710678101
0.5891234278678894 0.08875759690999985 0.6310263276100159
0.5891492962837219 0.08645562082529068 0.6322092413902283
0.5921382308006287 0.0837811678647995 0.633074939250946
0.5945202112197876 0.08211284130811691 0.6335256099700928
0.5952544808387756 0.08143182098865509 0.6337507963180542
0.5960355401039124 0.08085501194000244 0.6339139342308044
0.5968285799026489 0.08030612766742706 0.6340605616569519
0.6001089215278625 0.07836011797189713 0.6345000267028809
0.6039113402366638 0.08415115624666214 0.630859911441803
0.6048483848571777 0.08388876914978027 0.6308344602584839
0.6067124009132385 0.0833423063158989 0.6307955384254456
0.6075865030288696 0.08075471967458725 0.6319799423217773
0.6093636751174927 0.07788261026144028 0.6331558227539062
0.6131168603897095 0.0747787356376648 0.6341109871864319
0.6142491102218628 0.074923075735569 0.6338421702384949
0.6168440580368042 0.07585405558347702 0.6329156756401062
0.6191651821136475 0.07622413337230682 0.6323258876800537
0.6238590478897095 0.0832844078540802 0.6278778314590454
0.5875062346458435 0.09214627742767334 0.628451943397522
0.5884243845939636 0.08944209665060043 0.6296933889389038
0.5885178446769714 0.08728008717298508 0.6307960152626038
0.589895486831665 0.08566473424434662 0.6313942670822144
0.5908080339431763 0.08536071330308914 0.6313942670822144
0.592287003993988 0.08398944139480591 0.6318491101264954
0.5987532734870911 0.07980643957853317 0.6328979730606079
0.6033596396446228 0.08509260416030884 0.6293681263923645
0.6043077707290649 0.08484944701194763 0.6293302774429321
0.606091320514679 0.08412609994411469 0.6293965578079224
0.6065312027931213 0.08282648026943207 0.6299933195114136
0.607840359210968 0.07895494997501373 0.6317713856697083
0.608751654624939 0.07865113019943237 0.6317713856697083
0.6105961799621582 0.07594332098960876 0.6328548192977905
0.6117274761199951 0.07608916610479355 0.6325839161872864
0.6126366257667542 0.07578612864017487 0.6325839161872864
0.6150119304656982 0.07628670334815979 0.6319148540496826
0.6164184212684631 0.0769629180431366 0.6313223838806152
0.6217111945152283 0.08528809249401093 0.6261005997657776
0.6226389408111572 0.0849788635969162 0.6261005997657776
0.586800754070282 0.09283977001905441 0.6271077394485474
0.5868042707443237 0.09043499827384949 0.6283556818962097
0.5878837704658508 0.0881078690290451 0.6293770670890808
0.5885562896728516 0.08725396543741226 0.6297047138214111
0.5924360752105713 0.08419807255268097 0.6306203007698059
0.5948885083198547 0.08266688138246536 0.6309906840324402
0.5964810848236084 0.08156321942806244 0.6312885284423828
0.598070502281189 0.08046193420886993 0.6315845251083374
0.6028055548667908 0.08603838086128235 0.6278689503669739
0.6037651896476746 0.08581433445215225 0.6278195977210999
0.6045485138893127 0.08521968871355057 0.6279929280281067
0.6049917340278625 0.08391516655683517 0.6285931468009949
0.6067882776260376 0.08101633936166763 0.6297876834869385
0.6090985536575317 0.07705400139093399 0.631445586681366
0.6101091504096985 0.07695422321557999 0.6313226819038391
0.6123777031898499 0.07724764943122864 0.63077712059021
0.6159905195236206 0.07807672023773193 0.6297217011451721
0.5860994458198547 0.09112422913312912 0.6270145177841187
0.5863299369812012 0.08924419432878494 0.6279541850090027
0.5901885628700256 0.0860874205827713 0.6289288401603699
0.5911033749580383 0.08578264713287354 0.6289288401603699
0.5925987362861633 0.08443659543991089 0.6293700337409973
0.5933984518051147 0.08388251066207886 0.6295203566551208
0.5941975712776184 0.08332894742488861 0.6296698451042175
0.5967046618461609 0.08191899210214615 0.6299689412117004
0.6013290286064148 0.08729836344718933 0.6263625025749207
0.6048104166984558 0.08339843153953552 0.6277898550033569
0.6070441007614136 0.07921313494443893 0.6295830607414246
0.6096201539039612 0.07796942442655563 0.6297832131385803
0.610755980014801 0.07811769843101501 0.6295095086097717
0.6132340431213379 0.07881848514080048 0.6287132501602173
0.5856898427009583 0.09007824957370758 0.6265255212783813
0.588100016117096 0.08837363123893738 0.6269962191581726
0.5888462662696838 0.08768130838871002 0.627228319644928
0.5903352499008179 0.08629920333623886 0.627691388130188
0.5912511944770813 0.08599389344453812 0.627691388130188
0.59201580286026 0.085353784263134 0.6278928518295288
0.5961309671401978 0.08282946050167084 0.6284950971603394
0.6059871912002563 0.08127843588590622 0.6275885105133057
0.6082149147987366 0.0792941153049469 0.6282379627227783
0.6102668642997742 0.07913875579833984 0.6279613375663757
0.6127974390983582 0.0799405425786972 0.6271013617515564
0.6142091751098633 0.08062716573476791 0.6264966130256653
0.588991641998291 0.0878954753279686 0.6259854435920715
0.5946395993232727 0.0840485468506813 0.6270159482955933
0.5955550670623779 0.0837433859705925 0.6270159482955933
0.6065827012062073 0.08016888052225113 0.6269633769989014
0.6088584065437317 0.08046990633010864 0.6264068484306335
0.6109492778778076 0.0803794413805008 0.6260892152786255
0.6255017518997192 0.06426431983709335 0.6859850883483887
0.6251713037490845 0.0663147047162056 0.6874488592147827
0.6233024001121521 0.07427944988012314 0.6926365494728088
0.6253079771995544 0.07219883799552917 0.6918522119522095
0.6257306933403015 0.07026838511228561 0.6898396015167236
0.6261767745018005 0.07326577603816986 0.6920667290687561
0.6213008761405945 0.07606609910726547 0.6902855634689331
0.6277133226394653 0.06620973348617554 0.6858581900596619
0.6235858798027039 0.07823454588651657 0.6926735043525696
0.6012725234031677 0.07659661024808884 0.6720038652420044
0.6274687647819519 0.07404617965221405 0.6916894912719727
0.6218044757843018 0.07810213416814804 0.690297544002533
0.6279022693634033 0.07214024662971497 0.6896890997886658
0.5987856984138489 0.07829613983631134 0.6697632074356079
0.6293959617614746 0.06240520626306534 0.681788980960846
0.6251267194747925 0.08011366426944733 0.6934846639633179
0.6012716293334961 0.0780360996723175 0.6709165573120117
0.6269296407699585 0.08017987757921219 0.6943985223770142
0.6216748952865601 0.08005981892347336 0.68970787525177
0.6021856069564819 0.07828998565673828 0.6711554527282715
0.6003917455673218 0.0785301998257637 0.6697994470596313
0.6263118386268616 0.0808100625872612 0.6936945915222168
0.6240367293357849 0.08082234859466553 0.6917141079902649
0.6049317121505737 0.07600638270378113 0.6699995398521423
0.6021702289581299 0.09011613577604294 0.6799585223197937
0.6239210963249207 0.08207400888204575 0.6912676692008972
0.6053948402404785 0.07414858788251877 0.6679893732070923
0.6046889424324036 0.08185399323701859 0.6741492748260498
0.599474310874939 0.09008005261421204 0.6767994165420532
0.6319315433502197 0.06402982771396637 0.6816896796226501
0.6279672980308533 0.08208601921796799 0.694125771522522
0.6259071826934814 0.0823628306388855 0.6925517916679382
0.6223767399787903 0.08226920664310455 0.6893538236618042
0.617734432220459 0.08163363486528397 0.6846960186958313
0.6047986745834351 0.08643297106027603 0.6775157451629639
0.6042920351028442 0.09023628383874893 0.6804251670837402
0.6324064135551453 0.06200501322746277 0.6795681118965149
0.6305077075958252 0.0800982341170311 0.693899393081665
0.6195419430732727 0.0823560357093811 0.6861932873725891
0.6175329685211182 0.08208853006362915 0.6841788291931152
0.6055958271026611 0.08434025943279266 0.6756075620651245
0.6044682860374451 0.09040943533182144 0.6799806356430054
0.6014396548271179 0.09214199334383011 0.6788336634635925
0.6280907392501831 0.08288015425205231 0.6935074329376221
0.6260322332382202 0.08316177874803543 0.6919305920600891
0.6060436964035034 0.08556830137968063 0.6763277649879456
0.6005582213401794 0.09261669218540192 0.6777147650718689
0.6336683034896851 0.06018562614917755 0.6775579452514648
0.6299656629562378 0.08152324706315994 0.6932514309883118
0.6160653829574585 0.0824292004108429 0.6816877126693726
0.6021416783332825 0.0921512246131897 0.6779485940933228
0.633277952671051 0.06828219443559647 0.6836735010147095
0.6258301734924316 0.08428715914487839 0.691309928894043
0.6240749359130859 0.08424993604421616 0.6897104978561401
0.6076860427856445 0.07827332615852356 0.6697514057159424
0.6065846085548401 0.08833905309438705 0.6777511835098267
0.6062357425689697 0.09013225138187408 0.6790400147438049
0.6032550930976868 0.09190341085195541 0.6779607534408569
0.6325070261955261 0.08025024831295013 0.6929492950439453
0.6294054388999939 0.08214403688907623 0.6918685436248779
0.6281054019927979 0.08422202616930008 0.6925646662712097
0.6276633739471436 0.08438892662525177 0.6923186779022217
0.6270877122879028 0.08437708020210266 0.6917927861213684
0.6074011921882629 0.08404087275266647 0.6738746166229248
0.6073862314224243 0.0862705186009407 0.6758565902709961
0.6047088503837585 0.0913127139210701 0.6779727935791016
0.5999132990837097 0.09403414279222488 0.6761167645454407
0.5993810296058655 0.09418711066246033 0.6757773160934448
0.6304442286491394 0.08195578306913376 0.691910445690155
0.6301189064979553 0.08228123188018799 0.691910445690155
0.6280186772346497 0.08403301984071732 0.6915978193283081
0.6203731298446655 0.0854182094335556 0.6859797835350037
0.613959550857544 0.08349121361970901 0.6784950494766235
0.6040756106376648 0.09204073250293732 0.6772976517677307
0.6009153723716736 0.0936577096581459 0.6759127378463745
0.6000971794128418 0.09421706944704056 0.6756805777549744
0.6353466510772705 0.06419385969638824 0.6796168088912964
0.6345447301864624 0.06991482526063919 0.6840434670448303
0.6214891672134399 0.08602877706289291 0.6867958307266235
0.6134966611862183 0.08440060168504715 0.6781380772590637
0.6082653999328613 0.087957464158535 0.6766313314437866
0.602034330368042 0.09340692311525345 0.6759279370307922
0.5959489345550537 0.09419339150190353 0.6711594462394714
0.6358424425125122 0.06217465549707413 0.6774866580963135
0.6337664723396301 0.08022040873765945 0.691897988319397
0.6322711110115051 0.08202455937862396 0.6921765208244324
0.6245863437652588 0.08619118481874466 0.6890016198158264
0.6239991188049316 0.08618269115686417 0.6884642839431763
0.623409628868103 0.08617421239614487 0.6879246234893799
0.6199235320091248 0.08625166118144989 0.6848486065864563
0.6174625158309937 0.08619166910648346 0.6825736165046692
0.6083471179008484 0.09022005647420883 0.6779828667640686
0.6064729690551758 0.09174929559230804 0.6776717901229858
0.635403573513031 0.07017062604427338 0.6835638284683228
0.6345556974411011 0.07806815952062607 0.6899433732032776
0.6321620345115662 0.08257157355546951 0.6918525099754333
0.6268861293792725 0.08612643927335739 0.6902949213981628
0.6152360439300537 0.08642297238111496 0.6800207495689392
0.6079670786857605 0.09266038239002228 0.6790873408317566
0.6062489748001099 0.09220137447118759 0.6771171689033508
0.5978849530220032 0.0961465910077095 0.6731183528900146
0.6305074691772461 0.08406847715377808 0.6909881234169006
0.6267365217208862 0.08662217855453491 0.6898834705352783
0.6241254806518555 0.08698327094316483 0.6878416538238525
0.6020947694778442 0.09414567798376083 0.674349308013916
0.6011515259742737 0.09457380324602127 0.6738818883895874
0.5985609292984009 0.09612913429737091 0.6729423403739929
0.6358329653739929 0.07401374727487564 0.6859608888626099
0.6286035180091858 0.08600806444883347 0.6902967691421509
0.6202557682991028 0.0880148857831955 0.6845266222953796
0.5932579040527344 0.09573817998170853 0.6669867038726807
0.6374813914299011 0.06613034009933472 0.6795333027839661
0.6322425603866577 0.08400529623031616 0.6910643577575684
0.6233338713645935 0.08810684084892273 0.6866776347160339
0.6221488118171692 0.0880984216928482 0.685588538646698
0.6200191378593445 0.08841725438833237 0.6839361190795898
0.6193661093711853 0.08835338056087494 0.6832817792892456
0.5984390377998352 0.09669987112283707 0.6718015670776367
0.6379873156547546 0.06413685530424118 0.6774163842201233
0.6288486123085022 0.08696417510509491 0.6899427771568298
0.6262513399124146 0.0880628302693367 0.6885713934898376
0.6257066130638123 0.08810470253229141 0.6881111860275269
0.6251598000526428 0.0881466343998909 0.6876490712165833
0.6140801310539246 0.08860374242067337 0.6779285669326782
0.6059738397598267 0.09958204627037048 0.6805567145347595
0.5963285565376282 0.09807422012090683 0.6703506112098694
0.5958135724067688 0.09826001524925232 0.6700493097305298
0.637501060962677 0.07203425467014313 0.6834555268287659
0.6365354657173157 0.08214103430509567 0.6918439269065857
0.63066565990448 0.08630318194627762 0.6902770400047302
0.6260169148445129 0.08844894170761108 0.6879801154136658
0.6124873757362366 0.0889153927564621 0.6759927868843079
0.610961377620697 0.09228821098804474 0.6776874661445618
0.6084998846054077 0.10016698390245438 0.6826585531234741
0.6078106760978699 0.10012516379356384 0.6819877028465271
0.6000936627388 0.09627235680818558 0.6713709235191345
0.5965180993080139 0.09826401621103287 0.6699174046516418
0.5955289602279663 0.09867769479751587 0.6693893671035767
0.6370109915733337 0.08034171164035797 0.6899045705795288
0.6365002989768982 0.08437462896108627 0.6931458115577698
0.6349838972091675 0.08609127253293991 0.6933299899101257
0.6337757110595703 0.08669932186603546 0.6927776336669922
0.6302236914634705 0.08715962618589401 0.6899325847625732
0.6287299394607544 0.08818987011909485 0.6895062327384949
0.6058350205421448 0.10079319030046463 0.6800357699394226
0.5980167984962463 0.09766799956560135 0.6699653267860413
0.5975379347801208 0.09788671880960464 0.6697260141372681
0.6400582194328308 0.061702970415353775 0.6747903823852539
0.6378185153007507 0.07819490134716034 0.6879419684410095
0.6323541402816772 0.08617576956748962 0.690264105796814
0.6241211891174316 0.08963950723409653 0.685863196849823
0.6220777034759521 0.09004051238298416 0.6843475699424744
0.6214804649353027 0.09003845602273941 0.6837946772575378
0.6196750998497009 0.09003403037786484 0.6821244359016418
0.6187353134155273 0.09036722034215927 0.6815648078918457
0.6174418926239014 0.0902804583311081 0.6802911162376404
0.6080049276351929 0.10099382698535919 0.6814689636230469
0.6038358211517334 0.10146909952163696 0.6780604720115662
0.6399930715560913 0.06602616608142853 0.677961528301239
0.6395875215530396 0.06804091483354568 0.6794506907463074
0.6386358141899109 0.0760214775800705 0.6859549880027771
0.636139452457428 0.08602498471736908 0.6929017305374146
0.630462646484375 0.08810638636350632 0.6895747184753418
0.6118624210357666 0.09609279036521912 0.6797530055046082
0.6118167042732239 0.09815511852502823 0.6816191077232361
0.6060321927070618 0.1016664132475853 0.6795154809951782
0.5983724594116211 0.09802360832691193 0.66905677318573
0.5947586894035339 0.10001855343580246 0.6675586700439453
0.5936861038208008 0.10036459565162659 0.6668864488601685
0.5917325019836426 0.09988126158714294 0.6646312475204468
0.639133632183075 0.07415085285902023 0.6839432120323181
0.6381236910820007 0.08411877602338791 0.6922558546066284
0.6347559690475464 0.0870710164308548 0.6918702721595764
0.6322149038314819 0.08737201988697052 0.6897915601730347
0.6280112266540527 0.089310422539711 0.6876896023750305
0.6252758502960205 0.09025734663009644 0.6860299110412598
0.6247343420982361 0.09031163901090622 0.685577929019928
0.6222054958343506 0.09084272384643555 0.6837239861488342
0.6126203536987305 0.09620583802461624 0.6798062324523926
0.6078654527664185 0.10219459980726242 0.6809511780738831
0.606479287147522 0.10212089121341705 0.679596483707428
0.605781078338623 0.10208384692668915 0.6789141297340393
0.6040359735488892 0.10234689712524414 0.6775391101837158
0.5967622995376587 0.09921058267354965 0.667879045009613
0.5915964841842651 0.10045360028743744 0.6642388105392456
0.6332859396934509 0.08801213651895523 0.690656840801239
0.6274458169937134 0.09001146256923676 0.6870829463005066
0.6180180907249451 0.09158767759799957 0.6797767281532288
0.6104910373687744 0.10221631824970245 0.6826629042625427
