ply
format ascii 1.0
element vertex 810
property float x
property float y
property float z
end_header
0.3949580192565918 -0.0982629731297493 0.6693897247314453
0.3982716202735901 -0.10176423192024231 0.6712234616279602
0.3988091051578522 -0.10241899639368057 0.6715875267982483
0.40207183361053467 -0.10586667060852051 0.6733932495117188
0.40266841650009155 -0.1060655266046524 0.6733932495117188
0.4064054489135742 -0.11010236293077469 0.6755290627479553
0.40822502970695496 -0.11043939739465714 0.675322949886322
0.3733821511268616 -0.07645679265260696 0.6573650240898132
0.3740120530128479 -0.07666676491498947 0.6573650240898132
0.3776024878025055 -0.08045647293329239 0.6593548655509949
0.3781898617744446 -0.08116684854030609 0.6597498655319214
0.3811444640159607 -0.08419552445411682 0.6613182425498962
0.3852085471153259 -0.0885753408074379 0.663639485836029
0.3880862593650818 -0.09152490645647049 0.6651669144630432
0.3892601430416107 -0.09240976721048355 0.6655455827713013
0.3932010531425476 -0.09666063636541367 0.6677998304367065
0.3965383768081665 -0.10018493980169296 0.6696506142616272
0.4004316031932831 -0.1038639023900032 0.6714779138565063
0.4009646773338318 -0.10451429337263107 0.6718406081199646
0.40420427918434143 -0.1079380065202713 0.6736394166946411
0.40472838282585144 -0.10857798904180527 0.6739964485168457
0.4123278558254242 -0.10837601125240326 0.6718974113464355
0.4160798192024231 -0.1020260602235794 0.6660648584365845
0.4183768928050995 -0.10026582330465317 0.6641265749931335
0.3751263916492462 -0.07801509648561478 0.657273530960083
0.37928810715675354 -0.08249714970588684 0.6596554517745972
0.3822319507598877 -0.08551334589719772 0.6612215042114258
0.3834276795387268 -0.0864173024892807 0.6616103649139404
0.384001225233078 -0.08711283653974533 0.661998450756073
0.3863292932510376 -0.0893934890627861 0.6631561517715454
0.38689616322517395 -0.09008125215768814 0.6635403633117676
0.39031869173049927 -0.09369544684886932 0.6654436588287354
0.3908756971359253 -0.09437184035778046 0.6658214926719666
0.3943033814430237 -0.09746447205543518 0.6673219799995422
0.3948514759540558 -0.0981314480304718 0.6676948070526123
0.39817261695861816 -0.10164069384336472 0.6695436835289001
0.3987114429473877 -0.10229697078466415 0.6699104905128479
0.4025791883468628 -0.10595177859067917 0.6717310547828674
0.406324565410614 -0.1099979430437088 0.6738840341567993
0.40931281447410583 -0.11085797101259232 0.6737793684005737
0.4100610017776489 -0.11018050462007523 0.6730661988258362
0.41409561038017273 -0.10198827087879181 0.6657264828681946
0.41470402479171753 -0.10220344364643097 0.6657357215881348
0.41652342677116394 -0.10287970304489136 0.6657893061637878
0.373507022857666 -0.07172921299934387 0.6519954800605774
0.3741459548473358 -0.07194219529628754 0.6519954800605774
0.37445366382598877 -0.0772048681974411 0.6559784412384033
0.37623700499534607 -0.07935894280672073 0.6571820378303528
0.37745508551597595 -0.08028211444616318 0.6575812697410583
0.3780437707901001 -0.08099421858787537 0.6579793095588684
0.380423903465271 -0.0833263248205185 0.6591669917106628
0.3810054659843445 -0.08403041213750839 0.6595607995986938
0.3850795328617096 -0.08842076361179352 0.6619014143943787
0.3885783851146698 -0.09158200770616531 0.663441002368927
0.3891403079032898 -0.09226488322019577 0.6638234257698059
0.3925381004810333 -0.09585371613502502 0.6657190918922424
0.39643552899360657 -0.10005778074264526 0.6679612398147583
0.40033742785453796 -0.10374515503644943 0.6698033213615417
0.4030638635158539 -0.10654101520776749 0.6712598204612732
0.40411850810050964 -0.10782857239246368 0.6719823479652405
0.4068043828010559 -0.11058151721954346 0.6734160780906677
0.4119943678379059 -0.10971560329198837 0.6714125871658325
0.4139406085014343 -0.1025853231549263 0.6654086112976074
0.4179474115371704 -0.10203477740287781 0.6639527678489685
0.37338605523109436 -0.07229700684547424 0.6516091227531433
0.37402456998825073 -0.07250984758138657 0.6516091227531433
0.3755680024623871 -0.07855334132909775 0.6558888554573059
0.37914466857910156 -0.08232758939266205 0.6578873991966248
0.3820955157279968 -0.08535131067037582 0.6594665050506592
0.3832939565181732 -0.08625741302967072 0.659858763217926
0.3862026631832123 -0.08924051374197006 0.6614171862602234
0.3902014493942261 -0.09355318546295166 0.663723886013031
0.39303508400917053 -0.09645732492208481 0.6652405261993408
0.39419519901275635 -0.0973307266831398 0.6656172275543213
0.3963838517665863 -0.09999395906925201 0.6671140789985657
0.3980732858181 -0.10151664912700653 0.667856752872467
0.4008251130580902 -0.1043379157781601 0.6693305373191833
0.40460139513015747 -0.10841528326272964 0.6715121269226074
0.4090001583099365 -0.11211490631103516 0.6732409596443176
0.4104810357093811 -0.11084774136543274 0.6718779802322388
0.4162084460258484 -0.10407822579145432 0.6651604771614075
0.3760860860347748 -0.07918142527341843 0.655397355556488
0.3773070275783539 -0.08010698109865189 0.6557997465133667
0.3802831172943115 -0.08315862715244293 0.6573986411094666
0.384377121925354 -0.08757109940052032 0.6597647070884705
0.3872753381729126 -0.09054248780012131 0.661321222782135
0.38845667243003845 -0.09143435209989548 0.661707878112793
0.390701562166214 -0.094160296022892 0.6632429957389832
0.3952394425868988 -0.0986003428697586 0.6655154824256897
0.39856404066085815 -0.10211308300495148 0.6673819422721863
0.40244483947753906 -0.10578010976314545 0.6692245602607727
0.402975469827652 -0.10642830282449722 0.669590413570404
0.40620267391204834 -0.10983985662460327 0.6714036464691162
0.4067242443561554 -0.11047735065221786 0.67176353931427
0.4148424565792084 -0.10422104597091675 0.6648063063621521
0.3743748366832733 -0.0745500847697258 0.6513901948928833
0.3748186528682709 -0.07765284180641174 0.6536905765533447
0.37841296195983887 -0.08144667744636536 0.65571129322052
0.3813782036304474 -0.08448575437068939 0.6573076844215393
0.3825817406177521 -0.08539601415395737 0.6577041149139404
0.38488471508026123 -0.0881875604391098 0.6592797636985779
0.38607555627822876 -0.08908706903457642 0.6596711277961731
0.3889599144458771 -0.09204534441232681 0.6612254977226257
0.39008358120918274 -0.09341000765562057 0.6619962453842163
0.3923693895339966 -0.09564705938100815 0.6631444692611694
0.3929238021373749 -0.09632100909948349 0.6635253429412842
0.3940865397453308 -0.09719643741846085 0.6639052629470825
0.39628034830093384 -0.09986589848995209 0.6654140949249268
0.3968869745731354 -0.100068099796772 0.6654140949249268
0.4001953899860382 -0.10356596857309341 0.6672785878181458
0.40073150396347046 -0.10421983152627945 0.6676484942436218
0.4045163094997406 -0.1083068922162056 0.6698481440544128
0.4083176851272583 -0.11189467459917068 0.6716547012329102
0.410153329372406 -0.1121741533279419 0.6713958978652954
0.4134770929813385 -0.10437066107988358 0.6644585132598877
0.4173085689544678 -0.10466621816158295 0.6636943817138672
0.37366142868995667 -0.07420862466096878 0.6504532694816589
0.3748440444469452 -0.07601607590913773 0.6515565514564514
0.3753388524055481 -0.07828359305858612 0.6531983613967896
0.3765650689601898 -0.0792134627699852 0.653605043888092
0.37892860174179077 -0.08207185566425323 0.6552214622497559
0.3801417648792267 -0.08299027383327484 0.6556228995323181
0.3830926716327667 -0.08601600676774979 0.6572173833847046
0.38715043663978577 -0.09039212018251419 0.6595776081085205
0.38833463191986084 -0.0912858247756958 0.659967303276062
0.3905848562717438 -0.09401847422122955 0.6615151166915894
0.3951330780982971 -0.09846889972686768 0.6638059616088867
0.39846524596214294 -0.10198979079723358 0.6656876802444458
0.40235480666160583 -0.10566528886556625 0.667544960975647
0.4028864800930023 -0.10631469637155533 0.6679136157035828
0.4061211347579956 -0.10973382741212845 0.6697412133216858
0.40879714488983154 -0.11247795820236206 0.6711872816085815
0.4163362383842468 -0.10611910372972488 0.6642606854438782
0.37767618894577026 -0.08055955916643143 0.6535200476646423
0.37826696038246155 -0.08127381652593613 0.6539250016212463
0.3812393844127655 -0.08432035148143768 0.6555347442626953
0.382445752620697 -0.08523296564817429 0.6559343338012695
0.38417938351631165 -0.08733436465263367 0.6571269035339355
0.3847543001174927 -0.08803115785121918 0.6575227975845337
0.389402836561203 -0.09258347749710083 0.6598737835884094
0.3922564685344696 -0.09550859034061432 0.6614193320274353
0.39281219244003296 -0.09618424624204636 0.6618033647537231
0.39617642760276794 -0.09973741322755814 0.6637072563171387
0.3989567756652832 -0.10258705914020538 0.6652126312255859
0.4001002013683319 -0.10344571620225906 0.6655864715576172
0.40063759684562683 -0.10410135984420776 0.6659596562385559
0.4066033661365509 -0.11032043397426605 0.6692718863487244
0.40824058651924133 -0.1117931380867958 0.6699977517127991
0.4119175374507904 -0.11238230764865875 0.6694994568824768
0.4137750566005707 -0.1057697981595993 0.6638373136520386
0.4143756330013275 -0.10600955039262772 0.6638683676719666
0.4161795377731323 -0.10671346634626389 0.663948655128479
0.37278375029563904 -0.07512486726045609 0.6496847867965698
0.37518975138664246 -0.07803370803594589 0.6513392925262451
0.3764142692089081 -0.07903515547513962 0.65180504322052
0.3794120252132416 -0.08211002498865128 0.653434693813324
0.3835362493991852 -0.08655565977096558 0.655846118927002
0.386455237865448 -0.08954916894435883 0.6574326753616333
0.38702520728111267 -0.09024086594581604 0.6578264832496643
0.3904675543308258 -0.09387629479169846 0.659779965877533
0.3910825550556183 -0.09408129751682281 0.659779965877533
0.3944753408432007 -0.09766650199890137 0.6617072224617004
0.39727863669395447 -0.10054086893796921 0.6632303595542908
0.39836618304252625 -0.1018659844994545 0.6639861464500427
0.4022642970085144 -0.1055498868227005 0.6658584475517273
0.4043879210948944 -0.1081429272890091 0.6673386693000793
0.40872105956077576 -0.11237753182649612 0.6695297956466675
0.4136209189891815 -0.10636076331138611 0.6635228395462036
0.4179314076900482 -0.10417363792657852 0.6606773734092712
0.4185445308685303 -0.10437800735235214 0.6606773734092712
0.37390702962875366 -0.07656151056289673 0.6496630311012268
0.3775281012058258 -0.08038416504859924 0.6517227292060852
0.38051488995552063 -0.08344626426696777 0.6533499360084534
0.38109996914863586 -0.08415423333644867 0.653753936290741
0.3840470314025879 -0.08717577159404755 0.6553595066070557
0.3852454423904419 -0.08808167278766632 0.6557581424713135
0.3881504535675049 -0.09106207638978958 0.6573426127433777
0.3921428322792053 -0.0953696072101593 0.6596864461898804
0.3949727714061737 -0.09827080368995667 0.6612281799316406
0.3960719704627991 -0.09960828721523285 0.6619930863380432
0.3988587260246277 -0.10246463119983673 0.663510799407959
0.40000465512275696 -0.10332523286342621 0.6638876795768738
0.402752548456192 -0.10614349693059921 0.6653856635093689
0.40652236342430115 -0.110215924680233 0.6676029562950134
0.41083824634552 -0.1143583133816719 0.6697319746017456
0.41648751497268677 -0.10802585631608963 0.6632627248764038
0.37443017959594727 -0.07719669491052628 0.6491692066192627
0.3756294846534729 -0.07864483445882797 0.6499968767166138
0.37626275420188904 -0.07885592430830002 0.6499968767166138
0.3780466914176941 -0.08101317286491394 0.6512309312820435
0.38224032521247864 -0.0849868506193161 0.653265118598938
0.38632798194885254 -0.08939573168754578 0.6556707620620728
0.3892224133014679 -0.09236404299736023 0.6572529673576355
0.3931998908519745 -0.09665397554636002 0.6595938801765442
0.39436668157577515 -0.09753235429525375 0.6599802374839783
0.397176593542099 -0.10041344910860062 0.6615158915519714
0.4010337293148041 -0.10457850992679596 0.6637896299362183
0.4043019413948059 -0.10803315043449402 0.6656574010848999
0.40812429785728455 -0.11164018511772156 0.6674997210502625
0.4086446464061737 -0.11227679997682571 0.6678653955459595
0.4151139259338379 -0.10824042558670044 0.6629751324653625
0.4181160628795624 -0.10612691193819046 0.6605156064033508
0.37374937534332275 -0.07637530565261841 0.6478403210639954
0.3773792088031769 -0.08020797371864319 0.6499172449111938
0.37978532910346985 -0.08256582170724869 0.6511495113372803
0.3803732395172119 -0.0832776427268982 0.6515578627586365
0.38333481550216675 -0.08631438761949539 0.6531811356544495
0.3844916820526123 -0.0877164825797081 0.6539860963821411
0.386836439371109 -0.09001286327838898 0.6551859378814697
0.3880271315574646 -0.09091196954250336 0.6555835008621216
0.3902908265590668 -0.09366150200366974 0.6571632623672485
0.3914691209793091 -0.09454938769340515 0.6575554609298706
0.3920289874076843 -0.09522997587919235 0.657946765422821
0.39486536383628845 -0.0981379970908165 0.6595009565353394
0.39821675419807434 -0.1016792580485344 0.6614206433296204
0.39876019954681396 -0.10234159976243973 0.6618016958236694
0.4021279811859131 -0.1053757295012474 0.6633155941963196
0.40266281366348267 -0.1060289815068245 0.6636916399002075
0.4042587876319885 -0.10797800123691559 0.6648139953613281
0.40644100308418274 -0.11011070013046265 0.6659269332885742
0.4102384150028229 -0.11369528621435165 0.6677631139755249
0.4131603240966797 -0.10812999308109283 0.6625844836235046
0.41729289293289185 -0.10679350048303604 0.6604352593421936
0.37427371740341187 -0.07701203972101212 0.647346019744873
0.3784920871257782 -0.08155567198991776 0.6498379707336426
0.3814750611782074 -0.08461272716522217 0.6514761447906494
0.3821027874946594 -0.08482196927070618 0.6514761447906494
0.38562580943107605 -0.08854451030492783 0.6534998416900635
0.38620030879974365 -0.08924149721860886 0.6539013981819153
0.38910162448883057 -0.09221712499856949 0.6554966568946838
0.39308828115463257 -0.09651733189821243 0.6578563451766968
0.396525502204895 -0.09961725026369095 0.6594083905220032
0.3970741033554077 -0.10028532892465591 0.6597938537597656
0.4004009962081909 -0.10380260646343231 0.6617065072059631
0.40421563386917114 -0.10792276263237 0.6639688014984131
0.4048171043395996 -0.10812325030565262 0.6639688014984131
0.40804633498191833 -0.11153817176818848 0.6658260226249695
0.41071832180023193 -0.11427956819534302 0.6672960519790649
0.37539905309677124 -0.0783739984035492 0.6472705006599426
0.3760344088077545 -0.07858578115701675 0.6472705006599426
0.37964165210723877 -0.08239499479532242 0.6493467092514038
0.38023120164871216 -0.08310861140489578 0.6497584581375122
0.38319987058639526 -0.08615252375602722 0.6513949036598206
0.3872815668582916 -0.09055426716804504 0.6538167595863342
0.39017245173454285 -0.09351739287376404 0.6554095149040222
0.39135321974754333 -0.09440777450799942 0.6558049321174622
0.39420297741889954 -0.09733019769191742 0.6573761105537415
0.39475739002227783 -0.09800487011671066 0.6577664017677307
0.3981165289878845 -0.10155416280031204 0.6597013473510742
0.40089303255081177 -0.10440100729465485 0.6612318158149719
0.40203651785850525 -0.1052592322230339 0.6616114974021912
0.4085294008255005 -0.11212516576051712 0.6653563380241394
0.41011887788772583 -0.11029284447431564 0.663474977016449
0.4115997850894928 -0.10915440320968628 0.6621752977371216
0.41225284337997437 -0.1090872511267662 0.6619483232498169
0.4146488606929779 -0.11000929772853851 0.6620465517044067
0.416870653629303 -0.10852580517530441 0.6602751016616821
0.3747199475765228 -0.07755642384290695 0.6459373235702515
0.37775087356567383 -0.08066322654485703 0.6476118564605713
0.38133546710014343 -0.08444672077894211 0.6496794819831848
0.3842931389808655 -0.08747894316911697 0.6513137817382812
0.3854961395263672 -0.08838809281587601 0.6517198085784912
0.38841143250465393 -0.09137851744890213 0.6533322334289551
0.3889800012111664 -0.0920693650841713 0.6537324786186218
0.39241740107536316 -0.09570067375898361 0.6557179689407349
0.3964214026927948 -0.0994873121380806 0.6576762795448303
0.39861175417900085 -0.10215591639280319 0.6592246890068054
0.40030571818351746 -0.10368229448795319 0.6599928140640259
0.4030626714229584 -0.10650968551635742 0.6615170836448669
0.4063183069229126 -0.10995209217071533 0.6633997559547424
0.40684446692466736 -0.11059502512216568 0.6637732982635498
0.40995103120803833 -0.11097889393568039 0.6632527709007263
0.41142573952674866 -0.10986526310443878 0.6619706749916077
0.41329559683799744 -0.11014670133590698 0.6616975665092468
0.4144943654537201 -0.11059671640396118 0.6617377400398254
0.37524449825286865 -0.0781923457980156 0.64544278383255
0.3764813542366028 -0.07913021743297577 0.645863950252533
0.37827154994010925 -0.08129489421844482 0.6471197009086609
0.37949737906455994 -0.08222316205501556 0.647536039352417
0.3800885081291199 -0.08293856680393219 0.6479513645172119
0.38248053193092346 -0.08528264611959457 0.6491901278495789
0.38600751757621765 -0.08900895714759827 0.6512331366539001
0.3900534510612488 -0.09337326884269714 0.6536486744880676
0.39291995763778687 -0.09631115198135376 0.6552364826202393
0.39409345388412476 -0.09719467163085938 0.6556309461593628
0.39691945910453796 -0.10009249299764633 0.6571975350379944
0.3980160653591156 -0.1014285609126091 0.6579751372337341
0.40079882740974426 -0.10428197681903839 0.6595175862312317
0.40408554673194885 -0.10775627195835114 0.6614229083061218
0.4052196443080902 -0.10860641300678253 0.6618010401725769
0.40845197439193726 -0.11202440410852432 0.663675844669342
0.41125211119651794 -0.1105743944644928 0.661766767501831
0.41645124554634094 -0.11024689674377441 0.6601163148880005
0.3776019215583801 -0.08048711717128754 0.6457905173301697
0.38119539618492126 -0.08427984267473221 0.6478750109672546
0.3835790455341339 -0.08661502599716187 0.6491125226020813
0.38416019082069397 -0.0873195007443428 0.6495226621627808
0.38536596298217773 -0.08823081851005554 0.6499319672584534
0.38709282875061035 -0.09032636135816574 0.6511528491973877
0.3882879316806793 -0.09122862666845322 0.651557445526123
0.3911786675453186 -0.09419386088848114 0.6531654000282288
0.3923034965991974 -0.09556114673614502 0.6539624929428101
0.3951495885848999 -0.09847883880138397 0.655544102191925
0.3963165879249573 -0.09935668855905533 0.6559368968009949
0.3985121548175812 -0.10203169286251068 0.6574976444244385
0.4024367034435272 -0.10574018955230713 0.6594257950782776
0.4029732048511505 -0.10639548301696777 0.6598086357116699
0.40623611211776733 -0.10984580218791962 0.6617065668106079
0.4102156460285187 -0.11254635453224182 0.6628102660179138
0.4147798717021942 -0.112016960978508 0.6611627340316772
0.3750893771648407 -0.07800974696874619 0.6436070203781128
0.3781238794326782 -0.08112005889415741 0.6452977061271667
0.3793524503707886 -0.08205073326826096 0.6457173228263855
0.38234278559684753 -0.08511758595705032 0.6473848223686218
0.3864547908306122 -0.08955267071723938 0.6498535871505737
0.38936614990234375 -0.09253846108913422 0.6514768600463867
0.39055484533309937 -0.0934349074959755 0.6518799066543579
0.39280733466148376 -0.0961730033159256 0.6534809470176697
0.3973661959171295 -0.10063362866640091 0.6558500528335571
0.4001619815826416 -0.10350100696086884 0.6574090123176575
0.40070414543151855 -0.10416228324174881 0.6577960848808289
0.4046027958393097 -0.10784609615802765 0.6597166657447815
0.4067227840423584 -0.11043752729892731 0.6612350344657898
0.40837448835372925 -0.11192268133163452 0.6619879007339478
0.413439005613327 -0.11210550367832184 0.6607751250267029
0.4160345196723938 -0.11195655912160873 0.6599582433700562
0.4166386127471924 -0.1121579185128212 0.6599582433700562
0.3762526214122772 -0.0788593515753746 0.6431120038032532
0.37745240330696106 -0.08031008392572403 0.6439611315727234
0.38046467304229736 -0.08339828252792358 0.6456446647644043
0.38344383239746094 -0.08645330369472504 0.647310197353363
0.38402658700942993 -0.08715955913066864 0.6477242112159729
0.38696610927581787 -0.09017379581928253 0.6493671536445618
0.3881641626358032 -0.09107806533575058 0.6497751474380493
0.39106154441833496 -0.09405027329921722 0.6513960957527161
0.3944857120513916 -0.09766906499862671 0.6533974409103394
0.3950420022010803 -0.09834577888250351 0.6537944674491882
0.39841216802597046 -0.10190682113170624 0.6557634472846985
0.3990238308906555 -0.10211070626974106 0.6557634472846985
0.40234553813934326 -0.1056239977478981 0.6577072143554688
0.40509235858917236 -0.10844162106513977 0.6592437028884888
0.4088591933250427 -0.11251212656497955 0.6615176200866699
0.41073375940322876 -0.11269174516201019 0.6611579656600952
0.4158271551132202 -0.1128070130944252 0.6598796248435974
0.37861132621765137 -0.08115660399198532 0.6434678435325623
0.3809838891029358 -0.0840282291173935 0.645153284072876
0.38220471143722534 -0.08495214581489563 0.6455723643302917
0.3857487440109253 -0.08869675546884537 0.6476485729217529
0.3892448842525482 -0.09239083528518677 0.6496973037719727
0.3921319246292114 -0.09535091370344162 0.6513158082962036
0.39269396662712097 -0.09603432565927505 0.6517175436019897
0.39615878462791443 -0.099159836769104 0.6533138751983643
0.40006551146507263 -0.10337941348552704 0.6556773781776428
0.40283823013305664 -0.1062229797244072 0.6572321653366089
0.40611210465431213 -0.10968539118766785 0.6591531038284302
0.40664127469062805 -0.11033215373754501 0.6595342755317688
0.41491031646728516 -0.11401405930519104 0.6602841019630432
0.376701682806015 -0.07940608263015747 0.6416962742805481
0.37972885370254517 -0.0825105533003807 0.6433987021446228
0.3803218901157379 -0.08322828263044357 0.6438210606575012
0.3833082914352417 -0.08629073202610016 0.6455001831054688
0.38452205061912537 -0.08720860630273819 0.6459172964096069
0.3862622380256653 -0.08932024240493774 0.6471615433692932
0.38683903217315674 -0.0900203287601471 0.6475740671157837
0.38803979754447937 -0.09092693030834198 0.647985577583313
0.3903767168521881 -0.09321673959493637 0.6492127180099487
0.3943761885166168 -0.0975336804986 0.6516366600990295
0.3972119688987732 -0.10044113546609879 0.6532310247421265
0.40110403299331665 -0.10464400798082352 0.6555914282798767
0.4022541046142578 -0.10550720989704132 0.6559812426567078
0.4044732451438904 -0.10767855495214462 0.6571443676948547
0.40500715374946594 -0.10833116620779037 0.6575299501419067
0.40825748443603516 -0.11176932603120804 0.6594430208206177
0.40878230333328247 -0.11241133511066437 0.659822404384613
0.4111948311328888 -0.11316272616386414 0.6597794890403748
0.4123801290988922 -0.11365406215190887 0.6598577499389648
0.41357293725013733 -0.11410123109817505 0.6598981022834778
0.4141647517681122 -0.11434812098741531 0.6599382758140564
0.41601574420928955 -0.11469979584217072 0.6597225666046143
0.41725218296051025 -0.11170472204685211 0.6569547653198242
0.37722691893577576 -0.08004298806190491 0.6412017941474915
0.3784638047218323 -0.08098051697015762 0.6416295170783997
0.3814762234687805 -0.08407112956047058 0.6433295011520386
0.38206595182418823 -0.08478569984436035 0.6437516212463379
0.38561853766441345 -0.08853969722986221 0.6458451747894287
0.38912299275398254 -0.09224282205104828 0.6479102373123169
0.3914516568183899 -0.094523124396801 0.6491357088088989
0.392016738653183 -0.09521007537841797 0.6495420336723328
0.3932005763053894 -0.09610173106193542 0.6499468684196472
0.3948794901371002 -0.09814492613077164 0.6511555910110474
0.3960530459880829 -0.09902786463499069 0.6515560746192932
0.39826157689094543 -0.10171859711408615 0.6531486511230469
0.39942264556884766 -0.10259102284908295 0.6535439491271973
0.40274783968925476 -0.10610748082399368 0.655505895614624
0.4060291349887848 -0.10957768559455872 0.6574419736862183
0.40655946731567383 -0.11022607237100601 0.6578261852264404
0.4170418679714203 -0.11255960166454315 0.6568804979324341
0.3795838952064514 -0.08233771473169327 0.6415632963180542
0.38017839193344116 -0.08305757492780685 0.6419895887374878
0.38317206501960754 -0.08612771332263947 0.6436824798583984
0.386133074760437 -0.08916464447975159 0.6453573107719421
0.3873390257358551 -0.09007559716701508 0.6457732915878296
0.3902572691440582 -0.09307029843330383 0.6474250555038452
0.39426636695861816 -0.09739776700735092 0.6498689651489258
0.39710843563079834 -0.10031204670667648 0.6514756083488464
0.4004656970500946 -0.10386136174201965 0.6534613370895386
0.4010096788406372 -0.10452476888895035 0.6538550853729248
0.4043863117694855 -0.10756637901067734 0.65542072057724
0.40492144227027893 -0.10822049528360367 0.6558093428611755
0.40817901492118835 -0.11166652292013168 0.6577374339103699
0.4108942449092865 -0.11432210355997086 0.6591677665710449
0.41567039489746094 -0.11604273319244385 0.6592727899551392
0.37767675518989563 -0.08059072494506836 0.6397833824157715
0.3783155381679535 -0.08080365508794785 0.6397833824157715
0.38192635774612427 -0.08461866527795792 0.6419228315353394
0.38432183861732483 -0.08696713298559189 0.6431930065155029
0.3884272873401642 -0.09139738231897354 0.6457014679908752
0.39133480191230774 -0.0943797156214714 0.6473507881164551
0.3947707712650299 -0.0980103462934494 0.6493871212005615
0.39816051721572876 -0.10159251093864441 0.6513959169387817
0.39932435750961304 -0.10246698558330536 0.6517946720123291
0.4021160900592804 -0.10533110797405243 0.6533787250518799
0.40866637229919434 -0.11225921660661697 0.6572662591934204
0.41370609402656555 -0.11608638614416122 0.6590253710746765
0.4166233539581299 -0.11426103860139847 0.6567332744598389
0.38244664669036865 -0.08525042980909348 0.6414317488670349
0.38542208075523376 -0.08830272406339645 0.6431246995925903
0.3860035240650177 -0.08900812268257141 0.6435452103614807
0.38893923163414 -0.09201933443546295 0.6452152729034424
0.39013731479644775 -0.0929233580827713 0.6456297636032104
0.3924088180065155 -0.0956849530339241 0.6472765207290649
0.39359423518180847 -0.09657778590917587 0.6476855278015137
0.39644989371299744 -0.09950646013021469 0.6493097543716431
0.39700475335121155 -0.10018245130777359 0.6497132778167725
0.40036967396736145 -0.10374009609222412 0.6517146825790405
0.40315142273902893 -0.1065928041934967 0.6532965302467346
0.4042991101741791 -0.10745362937450409 0.6536895632743835
0.406436026096344 -0.11006607860326767 0.6552507281303406
0.4102795720100403 -0.11369376629590988 0.6571785807609558
0.4108019769191742 -0.1143331527709961 0.6575609445571899
0.3835543394088745 -0.08659394085407257 0.6413664221763611
0.3841874599456787 -0.08680498600006104 0.6413664221763611
0.3877265751361847 -0.09054611623287201 0.6434769630432129
0.38830283284187317 -0.09124627709388733 0.6438954472541809
0.3912174105644226 -0.0942361056804657 0.6455584764480591
0.39410048723220825 -0.09719286859035492 0.647202730178833
0.3980591893196106 -0.10146566480398178 0.649635910987854
0.4008672535419464 -0.10434506833553314 0.6512369513511658
0.4020237326622009 -0.10521306097507477 0.6516346335411072
0.4047921895980835 -0.10805346071720123 0.653214693069458
0.40806081891059875 -0.11151157319545746 0.6551662087440491
0.40858858823776245 -0.11215724796056747 0.6555531024932861
0.4124070703983307 -0.11576085537672043 0.6574735641479492
0.41292503476142883 -0.11639607697725296 0.6578546762466431
0.3852904438972473 -0.0881439596414566 0.6413015127182007
0.3893900513648987 -0.09256668388843536 0.6438267230987549
0.39001694321632385 -0.09277565032243729 0.6438267230987549
0.392293781042099 -0.09554426372051239 0.6454870104789734
0.39348191022872925 -0.0964391902089119 0.6458992958068848
0.3951665461063385 -0.09848883002996445 0.6471289396286011
0.39634421467781067 -0.0993749350309372 0.64753657579422
0.39690035581588745 -0.1000523716211319 0.6479430198669434
0.39917588233947754 -0.10227975249290466 0.6491567492485046
0.40027329325675964 -0.10361814498901367 0.6499605774879456
0.4030614197254181 -0.10647765547037125 0.6515551805496216
0.4042113721370697 -0.10734038800001144 0.6519510746002197
0.4063533842563629 -0.10995889455080032 0.6535248160362244
0.40696045756340027 -0.11016124486923218 0.6535248160362244
0.41020530462265015 -0.11359478533267975 0.6554679274559021
0.4107288420200348 -0.11423586308956146 0.6558535695075989
0.4144382178783417 -0.11824867129325867 0.6581473350524902
0.4160006046295166 -0.11679264903068542 0.6565141081809998
0.3834179937839508 -0.086432084441185 0.6395331621170044
0.38405248522758484 -0.08664359152317047 0.6395331621170044
0.386389821767807 -0.08947819471359253 0.6412366032600403
0.3876000940799713 -0.09039246290922165 0.6416596174240112
0.3910995125770569 -0.09409163892269135 0.6437583565711975
0.39455166459083557 -0.09773952513933182 0.6458274722099304
0.39857468008995056 -0.10154423117637634 0.6478685736656189
0.40077197551727295 -0.10422459989786148 0.6494826674461365
0.40524256229400635 -0.10859782248735428 0.651871383190155
0.40851059556007385 -0.1120549812912941 0.6538332104682922
0.41233745217323303 -0.11566668748855591 0.655768871307373
0.414405882358551 -0.11820357292890549 0.6572995781898499
0.4157944917678833 -0.11763095110654831 0.6564413905143738
0.3857424557209015 -0.08869318664073944 0.6398972272872925
0.38811546564102173 -0.09101828932762146 0.6411721110343933
0.3921785056591034 -0.09540283679962158 0.6436896920204163
0.3950578570365906 -0.09835457801818848 0.6453447341918945
0.3962383270263672 -0.09924262017011642 0.6457557678222656
0.39907652139663696 -0.10215412080287933 0.647388756275177
0.4024282991886139 -0.10569936037063599 0.6494060754776001
0.4029707610607147 -0.10636197030544281 0.6498064398765564
0.4062703847885132 -0.10985126346349716 0.6517918705940247
0.40687862038612366 -0.11005403846502304 0.6517918705940247
0.41013088822364807 -0.11349555850028992 0.6537505984306335
0.4128221571445465 -0.11625685542821884 0.6552994847297668
0.38626015186309814 -0.08932197839021683 0.6394081115722656
0.3874734044075012 -0.09023837000131607 0.6398348212242126
0.38920629024505615 -0.09234359115362167 0.6411075592041016
0.390408992767334 -0.09325084835290909 0.6415296196937561
0.3933126628398895 -0.09623005986213684 0.6432052850723267
0.3972998559474945 -0.10053426772356033 0.6456842422485352
0.40012773871421814 -0.10343457013368607 0.647315502166748
0.40067604184150696 -0.10410357266664505 0.6477205157279968
0.4040794372558594 -0.10716963559389114 0.6493300795555115
0.40843233466148376 -0.1119520291686058 0.6521057486534119
0.41061875224113464 -0.114089235663414 0.6532792448997498
0.4143404960632324 -0.11811470240354538 0.6555995345115662
0.38517704606056213 -0.0862567126750946 0.6362791657447815
0.3885681927204132 -0.09156807512044907 0.6397724151611328
0.3914928734302521 -0.09456831961870193 0.6414647698402405
0.39206254482269287 -0.0952608734369278 0.6418846249580383
0.39438602328300476 -0.0975349023938179 0.6431376338005066
0.3949485719203949 -0.09821968525648117 0.6435529589653015
0.396131694316864 -0.09910980612039566 0.6439670324325562
0.39842313528060913 -0.10135315358638763 0.6452035903930664
0.398976594209671 -0.10202819854021072 0.6456133723258972
0.40233612060546875 -0.10558174550533295 0.6476467847824097
0.40511393547058105 -0.10843133926391602 0.6492542624473572
0.4083930253982544 -0.11190037429332733 0.6512393951416016
0.4089224636554718 -0.11254820227622986 0.6516333222389221
0.4122324287891388 -0.11552459746599197 0.6531984210014343
0.4127533733844757 -0.11616354435682297 0.6535869836807251
0.38507017493247986 -0.08659077435731888 0.6357110142707825
0.38554513454437256 -0.08845542371273041 0.6371405720710754
0.38612985610961914 -0.08916562050580978 0.6375723481178284
0.38908326625823975 -0.09219382703304291 0.6392849683761597
0.3902885615825653 -0.09310320764780045 0.6397101283073425
0.39319923520088196 -0.09608983993530273 0.6413997411727905
0.3971959054470062 -0.100404292345047 0.6438984870910645
0.4000301957130432 -0.1033114567399025 0.6455426216125488
0.40119668841362 -0.1041875034570694 0.645950973033905
0.40283438563346863 -0.10618770867586136 0.6471697092056274
0.4045315384864807 -0.10771620273590088 0.6479761600494385
0.4061451852321625 -0.10968908667564392 0.6491787433624268
0.40728959441185 -0.11054621636867523 0.6495773196220398
0.4100184142589569 -0.11334612220525742 0.6511611938476562
0.4110698699951172 -0.11463386565446854 0.6519463658332825
0.41427502036094666 -0.11802522838115692 0.6538926959037781
0.3872821629047394 -0.09000639617443085 0.6370830535888672
0.388443261384964 -0.09141640365123749 0.6379423141479492
0.39137503504753113 -0.09442394971847534 0.6396483182907104
0.3942749500274658 -0.09739784896373749 0.6413350105285645
0.3948391079902649 -0.09808415174484253 0.6417535543441772
0.3983214795589447 -0.10122498124837875 0.6434171795845032
0.4022437036037445 -0.10546357184648514 0.6458801627159119
0.4050276577472687 -0.10831984132528305 0.6475001573562622
0.40831416845321655 -0.1117967739701271 0.6495011448860168
0.40884479880332947 -0.11244619637727737 0.6498981714248657
0.41216206550598145 -0.11542945355176926 0.6514757871627808
0.4126840829849243 -0.1160697191953659 0.6518675088882446
0.41424205899238586 -0.11798049509525299 0.6530367136001587
0.3854130804538727 -0.08829618245363235 0.6352932453155518
0.3866342604160309 -0.08921902626752853 0.6357276439666748
0.3889595866203308 -0.09204356372356415 0.6374543309211731
0.3901677429676056 -0.09295526891946793 0.6378834247589111
0.39251601696014404 -0.09525607526302338 0.6391626000404358
0.3965321481227875 -0.09959254413843155 0.641688346862793
0.3993798792362213 -0.10251383483409882 0.6433498859405518
0.40274283289909363 -0.1060706302523613 0.6454021334648132
0.40606120228767395 -0.1095801368355751 0.6474271416664124
0.4072081446647644 -0.11043939739465714 0.6478291153907776
0.4104706943035126 -0.11389198154211044 0.6498215794563293
0.3847580850124359 -0.08750218152999878 0.6339288949966431
0.3877367079257965 -0.09055805206298828 0.6356717944145203
0.39125677943229675 -0.09427881240844727 0.6378241181373596
0.39359670877456665 -0.09657034277915955 0.6391012668609619
0.3941636383533478 -0.09726017713546753 0.6395245790481567
0.39535433053970337 -0.09815648198127747 0.6399464011192322
0.39703893661499023 -0.1002083346247673 0.6412055492401123
0.3982195556163788 -0.10109629482030869 0.6416236162185669
0.4004347622394562 -0.1037987694144249 0.6432827115058899
0.4010535180568695 -0.10400501638650894 0.6432827115058899
0.40439996123313904 -0.10754609107971191 0.6453323364257812
0.4049411118030548 -0.1082078143954277 0.6457391381263733
0.4082351624965668 -0.1116928681731224 0.6477559804916382
0.4109603464603424 -0.11448774486780167 0.6493496894836426
0.4120914041996002 -0.11533364653587341 0.6497460603713989
0.4141761362552643 -0.11789056658744812 0.6513190865516663
0.41477856040000916 -0.1180914118885994 0.6513190865516663
0.38528019189834595 -0.08813631534576416 0.6334376335144043
0.38650450110435486 -0.089061439037323 0.6338757872581482
0.3882550895214081 -0.09118768572807312 0.6351827383041382
0.3894684910774231 -0.09210380166769028 0.6356162428855896
0.3924000561237335 -0.09511303156614304 0.6373378038406372
0.396425724029541 -0.09945983439683914 0.639883816242218
0.39928027987480164 -0.10238821804523468 0.6415588855743408
0.40210407972335815 -0.10528533160686493 0.6432159543037415
0.4065897464752197 -0.10967520624399185 0.645668625831604
0.40872782468795776 -0.11229220777750015 0.6472819447517395
0.41310226917266846 -0.11656908690929413 0.6496702432632446
0.38760948181152344 -0.09040364623069763 0.6338226795196533
0.3905625641345978 -0.09343346208333969 0.6355607509613037
0.3911378085613251 -0.09413330256938934 0.635992169380188
0.3934832513332367 -0.09643025696277618 0.6372795701026917
0.39405158162117004 -0.09712176769971848 0.6377060413360596
0.3969338834285736 -0.10007703304290771 0.6394009590148926
0.3981168866157532 -0.10096684843301773 0.6398217678070068
0.40033766627311707 -0.10367598384618759 0.6414946913719177
0.4015082120895386 -0.10455497354269028 0.6419098377227783
0.40315112471580505 -0.1065615862607956 0.6431494355201721
0.40431177616119385 -0.1074320450425148 0.6435604095458984
0.40485408902168274 -0.10809510201215744 0.6439700126647949
0.4070854187011719 -0.11027842015028 0.6451931595802307
0.4103589653968811 -0.11374320834875107 0.6472097635269165
0.4108870327472687 -0.11438965052366257 0.6476094722747803
0.4134002923965454 -0.11131104081869125 0.6442820429801941
0.4141099154949188 -0.11780032515525818 0.6495947241783142
0.41471368074417114 -0.11800158768892288 0.6495947241783142
0.38812899589538574 -0.09103469550609589 0.6333330869674683
0.3922838270664215 -0.09496911615133286 0.635505199432373
0.3957555890083313 -0.09864028543233871 0.6376471519470215
0.39918017387390137 -0.10226191580295563 0.6397599577903748
0.40201058983802795 -0.1051660105586052 0.6414307355880737
0.40650638937950134 -0.10956604033708572 0.643902599811554
0.40811583399772644 -0.11153581738471985 0.6451238393783569
0.4086494445800781 -0.11218904703855515 0.6455289721488953
0.4139261543750763 -0.11175325512886047 0.6436589360237122
0.3868957459926605 -0.0895368680357933 0.6315242052078247
0.38748160004615784 -0.09024841338396072 0.6319654583930969
0.38986334204673767 -0.09258227050304413 0.6332811713218689
0.3904416561126709 -0.09328559041023254 0.6337171196937561
0.39336958527565 -0.09628960490226746 0.6354500651359558
0.3962654769420624 -0.09925983846187592 0.6371626853942871
0.4002400040626526 -0.10355273634195328 0.6396986246109009
0.40306004881858826 -0.10644488781690598 0.6413666009902954
0.40422317385673523 -0.1073174700140953 0.6417807340621948
0.40700313448905945 -0.11017032712697983 0.6434265375137329
0.4102841913700104 -0.11364307999610901 0.6454591155052185
0.4108133614063263 -0.11429141461849213 0.6458622813224792
0.41308000683784485 -0.11254855245351791 0.643727719783783
0.41445192694664 -0.11219559609889984 0.6430352926254272
0.3880021572113037 -0.09088070690631866 0.6314751505851746
0.3915346562862396 -0.0946139469742775 0.6336647272109985
0.39216697216033936 -0.09482471644878387 0.6336647272109985
0.39445164799690247 -0.09760519117116928 0.6353943943977356
0.3956468999385834 -0.09850477427244186 0.6358238458633423
0.39733707904815674 -0.10056360065937042 0.6371051669120789
0.3985218107700348 -0.10145441442728043 0.6375298500061035
0.399079829454422 -0.10213511437177658 0.6379538774490356
0.40136563777923584 -0.10437297821044922 0.6392183303833008
0.4052658677101135 -0.10858934372663498 0.6417165994644165
0.40803590416908264 -0.11143071204423904 0.6433600783348083
0.40857067704200745 -0.1120855063199997 0.6437681317329407
0.389740526676178 -0.09243184328079224 0.6314258575439453
0.3903205096721649 -0.09313701093196869 0.6318657398223877
0.39325517416000366 -0.09614840894937515 0.6336125135421753
0.3961580693721771 -0.09912574291229248 0.6353392004966736
0.40014195442199707 -0.1034289076924324 0.6378953456878662
0.4024198353290558 -0.10565777122974396 0.6391579508781433
0.40296846628189087 -0.10632781684398651 0.6395761370658875
0.40413424372673035 -0.10720255970954895 0.6399940252304077
0.406380832195282 -0.10940133780241013 0.6412397623062134
0.40692049264907837 -0.1100618988275528 0.641652524471283
0.4102088510990143 -0.11354264616966248 0.6437011361122131
0.3914159834384918 -0.09446850419044495 0.6318163871765137
0.392049640417099 -0.09467972815036774 0.6318163871765137
0.39434003829956055 -0.09746711701154709 0.6335598826408386
0.3955380320549011 -0.09836871922016144 0.6339927911758423
0.3972319960594177 -0.10043248534202576 0.6352840662002563
0.398419588804245 -0.10132542997598648 0.6357124447822571
0.40126997232437134 -0.10425088554620743 0.6374140381813049
0.40517938137054443 -0.10847704112529755 0.6399322748184204
0.4107021391391754 -0.1141430139541626 0.6432275772094727
0.4126017391681671 -0.11439631134271622 0.6429004073143005
0.41465458273887634 -0.11387409269809723 0.641860842704773
0.4152682423591614 -0.11407864838838577 0.641860842704773
0.389617383480072 -0.09228068590164185 0.6295627355575562
0.3960501551628113 -0.09899113327264786 0.6335073113441467
0.3994866609573364 -0.10262508690357208 0.6356573700904846
0.40232646465301514 -0.10553872585296631 0.6373565196990967
0.4028765559196472 -0.10621040314435959 0.6377784609794617
0.40629658102989197 -0.10929090529680252 0.6394547820091248
0.40845200419425964 -0.11192913353443146 0.6411133408546448
0.4090660512447357 -0.11213380843400955 0.6411133408546448
0.4101335108280182 -0.1134418472647667 0.6419358849525452
0.4138082265853882 -0.11466402560472488 0.6419333815574646
0.390137642621994 -0.09291238337755203 0.6290729641914368
0.3912968635559082 -0.09432188421487808 0.6299594044685364
0.3971267342567444 -0.10030096024274826 0.6334553956985474
0.3983168601989746 -0.10119596123695374 0.6338868737220764
0.4006187915802002 -0.10345017164945602 0.6351750493049622
0.4011739492416382 -0.10412831604480743 0.6356025338172913
0.40400010347366333 -0.10702890157699585 0.6372987627983093
0.40733614563941956 -0.110559843480587 0.6393944025039673
0.4106277525424957 -0.11404317617416382 0.6414612531661987
0.39244967699050903 -0.09516282379627228 0.6294708847999573
0.3993862569332123 -0.10249850898981094 0.633834719657898
0.40223294496536255 -0.10541893541812897 0.6355474591255188
0.40278419852256775 -0.10609233379364014 0.6359726786613464
0.40504875779151917 -0.10830817371606827 0.6372420191764832
0.4062120318412781 -0.10918015986680984 0.6376625299453735
0.4083724319934845 -0.11182466894388199 0.6393342614173889
0.40898776054382324 -0.1120297759771347 0.6393342614173889
0.41280636191368103 -0.11606277525424957 0.6417316198348999
0.40052103996276855 -0.10332556068897247 0.6333523392677307
0.4010774493217468 -0.10400527715682983 0.6337827444076538
0.40445834398269653 -0.10758321732282639 0.6359176635742188
0.40725380182266235 -0.1104520857334137 0.6376050710678101
0.41001981496810913 -0.11328918486833572 0.6392733454704285
0.41401126980781555 -0.11633201688528061 0.6407649517059326
0.3981620669364929 -0.10100061446428299 0.6311342716217041
0.4021387994289398 -0.10529892891645432 0.633730947971344
0.40496110916137695 -0.10819496959447861 0.6354386806488037
0.406127005815506 -0.10906895995140076 0.6358627676963806
0.4082925617694855 -0.11171859502792358 0.6375463604927063
0.40944617986679077 -0.1125820204615593 0.6379647850990295
0.41104835271835327 -0.114545077085495 0.6392130255699158
0.41219207644462585 -0.11540041118860245 0.6396271586418152
0.3992350697517395 -0.10230793803930283 0.6310866475105286
0.40042272210121155 -0.10320043563842773 0.6315215229988098
0.4032689332962036 -0.10612258315086365 0.6332500576972961
0.4071715176105499 -0.11034257709980011 0.6358068585395813
0.4104781150817871 -0.11384206265211105 0.6379064321517944
0.4126861095428467 -0.11600109189748764 0.6391531825065613
0.4143516719341278 -0.1174989715218544 0.6399787664413452
0.398622065782547 -0.10155799239873886 0.6297284364700317
0.4014890491962433 -0.10450022667646408 0.6314734220504761
0.4020443856716156 -0.10517851263284683 0.6319063901901245
0.4043246805667877 -0.10741053521633148 0.6331993937492371
0.4048735201358795 -0.10808007419109344 0.6336268782615662
0.4082123935222626 -0.11161267757415771 0.6357517838478088
0.4109744131565094 -0.11444569379091263 0.6374315619468689
0.4121206998825073 -0.1153026893734932 0.6378487944602966
0.41484346985816956 -0.11809784919023514 0.6395065188407898
0.39913392066955566 -0.10218032449483871 0.6292446851730347
0.40032410621643066 -0.10307487100362778 0.6296829581260681
0.40317702293395996 -0.10600390285253525 0.6314253211021423
0.4058188498020172 -0.10597102344036102 0.6306206583976746
0.4064457416534424 -0.10617998987436295 0.6306206583976746
0.40932953357696533 -0.11242610216140747 0.6352752447128296
0.4131450355052948 -0.11655454337596893 0.6377909779548645
0.40139278769493103 -0.10437756776809692 0.6296378374099731
0.4042353630065918 -0.10729338973760605 0.6313760876655579
0.4103649854660034 -0.1136905625462532 0.6352212429046631
0.4109001159667969 -0.11434631794691086 0.6356428861618042
0.4142516255378723 -0.1173596903681755 0.6373174786567688
0.3990320861339569 -0.1020520031452179 0.6273947358131409
0.40022513270378113 -0.10294871032238007 0.6278367638587952
0.4024580419063568 -0.10567497462034225 0.629591703414917
0.40978991985321045 -0.11298156529664993 0.6338979601860046
0.4120127856731415 -0.11515612155199051 0.6351673007011414
0.4012962579727173 -0.10425390303134918 0.6277939081192017
0.40359270572662354 -0.10650141537189484 0.6291100382804871
0.4041453003883362 -0.10717712342739105 0.6295463442802429
0.40531957149505615 -0.10806959122419357 0.6299909949302673
0.4102891981601715 -0.1135890781879425 0.6334215402603149
0.4108254015445709 -0.11424620449542999 0.6338461637496948
0.41304051876068115 -0.11641206592321396 0.6351138353347778
0.40236377716064453 -0.10555460304021835 0.6277509331703186
0.40665385127067566 -0.10766104608774185 0.6283532977104187
0.41247376799583435 -0.11571205407381058 0.6337947845458984
0.4035009741783142 -0.10638269037008286 0.6272684335708618
0.40405499935150146 -0.10706023126840591 0.6277086138725281
0.40648624300956726 -0.10836005955934525 0.628145694732666
0.4051145911216736 -0.1083526462316513 0.6276666522026062
0.4063187539577484 -0.10905771702528 0.6279382705688477
0.40006861090660095 -0.09936559945344925 0.6856595277786255
0.39746686816215515 -0.07989230751991272 0.6920369863510132
0.39193329215049744 -0.07968395203351974 0.6900243163108826
0.3858061134815216 -0.07886229455471039 0.688018798828125
0.3997897803783417 -0.09738513827323914 0.6854082942008972
0.40119025111198425 -0.09264913946390152 0.6877359747886658
0.4019286036491394 -0.08861597627401352 0.6895456910133362
0.4057474434375763 -0.0816604346036911 0.693632185459137
0.3816487491130829 -0.07722250372171402 0.6861753463745117
0.37583982944488525 -0.07702029496431351 0.6840486526489258
0.3997538685798645 -0.09967897832393646 0.6836255788803101
0.4000758230686188 -0.09597474336624146 0.6851578950881958
0.40096980333328247 -0.09064265340566635 0.6875274181365967
0.3831675946712494 -0.07583504915237427 0.686387836933136
0.37745362520217896 -0.07556664198637009 0.6843152642250061
0.39940518140792847 -0.09776094555854797 0.6833239197731018
0.4053574800491333 -0.07560396939516068 0.6940580010414124
0.3999952971935272 -0.07534009963274002 0.6921108961105347
0.3732146918773651 -0.0738992914557457 0.6824348568916321
0.4171846807003021 -0.07480186969041824 0.6980324983596802
0.4014147222042084 -0.07399743795394897 0.6922982931137085
0.39199963212013245 -0.070970818400383 0.6880941987037659
0.37527546286582947 -0.06988007575273514 0.682063639163971
0.4213330149650574 -0.0696776732802391 0.6982242465019226
0.4112604856491089 -0.06783434748649597 0.6941732168197632
0.426676481962204 -0.06964554637670517 0.6986351013183594
0.40090975165367126 -0.06593834608793259 0.6900110244750977
0.3699178099632263 -0.06374184042215347 0.6787536144256592
0.4095073640346527 -0.10355117172002792 0.6777600646018982
0.40995264053344727 -0.09963875263929367 0.6794695854187012
0.3796675503253937 -0.06277522444725037 0.6820498108863831
0.42789337038993835 -0.06947995722293854 0.6974960565567017
0.4266107678413391 -0.0676155835390091 0.6977249383926392
0.4256587624549866 -0.06647025048732758 0.6978010535240173
0.4187242090702057 -0.06384354084730148 0.6961057782173157
0.41361573338508606 -0.06350143998861313 0.6942297220230103
0.386715292930603 -0.06186956167221069 0.6842849254608154
0.375536173582077 -0.06103456765413284 0.6802141666412354
0.3698558509349823 -0.060575928539037704 0.6781590580940247
0.40961360931396484 -0.10931270569562912 0.6737067699432373
0.40999871492385864 -0.10539140552282333 0.6754071712493896
0.4255400598049164 -0.0739288181066513 0.6939678192138672
0.4282877445220947 -0.06908619403839111 0.6969649791717529
0.4097946286201477 -0.06187744438648224 0.6925089955329895
0.40337321162223816 -0.06155998632311821 0.6900986433029175
0.37701869010925293 -0.0597456619143486 0.6804083585739136
0.42644742131233215 -0.06568526476621628 0.6967400312423706
0.399453729391098 -0.05990489572286606 0.6883357167243958
0.41345566511154175 -0.0938086286187172 0.6795540452003479
0.4286479949951172 -0.06767831742763519 0.6959801912307739
0.42822033166885376 -0.06705764681100845 0.6960569620132446
0.4241873025894165 -0.061676304787397385 0.6965927481651306
