ply
format ascii 1.0
element vertex 816
property float x
property float y
property float z
end_header
0.6141291856765747 -0.10800644010305405 0.6377438902854919
0.6259148716926575 -0.1031867191195488 0.6313918232917786
0.626957893371582 -0.10413851588964462 0.6318301558494568
0.6310762763023376 -0.10463497787714005 0.631193995475769
0.6340497136116028 -0.10210426896810532 0.6286367774009705
0.5757818222045898 -0.08154387027025223 0.6268622875213623
0.577416718006134 -0.08864991366863251 0.6316402554512024
0.5781270861625671 -0.08888675272464752 0.6316402554512024
0.5809929966926575 -0.09246978908777237 0.6335535645484924
0.5824541449546814 -0.09418262541294098 0.6344467401504517
0.5843305587768555 -0.09394079446792603 0.6338146924972534
0.590149998664856 -0.09556499868631363 0.6335853338241577
0.5914109945297241 -0.09625757485628128 0.6337834596633911
0.5914537310600281 -0.09871920943260193 0.6355656385421753
0.5909477472305298 -0.10070394724607468 0.6371339559555054
0.5934596061706543 -0.10203633457422256 0.6374942064285278
0.5940633416175842 -0.10240233689546585 0.6376144886016846
0.5966400504112244 -0.10362947732210159 0.6378827691078186
0.5979889631271362 -0.10415556281805038 0.6379383206367493
0.5986411571502686 -0.10444903373718262 0.6379936933517456
0.6029912829399109 -0.10203506052494049 0.635179877281189
0.6090706586837769 -0.10446801036596298 0.6354755759239197
0.6124229431152344 -0.10813955962657928 0.6373355984687805
0.6185224056243896 -0.10822104662656784 0.6359144449234009
0.6284985542297363 -0.105790875852108 0.6317227482795715
0.6318241357803345 -0.10392515361309052 0.6295570135116577
0.5751660466194153 -0.08271096646785736 0.626914381980896
0.574857234954834 -0.08602042496204376 0.6294066905975342
0.5782346129417419 -0.09024053812026978 0.6316664814949036
0.5795802474021912 -0.0921674519777298 0.6327463388442993
0.5817387104034424 -0.0941348522901535 0.6336579918861389
0.5825814604759216 -0.09415853768587112 0.6334702372550964
0.5877103805541992 -0.09422232210636139 0.6322676539421082
0.5899507403373718 -0.09603682905435562 0.6330479383468628
0.6096645593643188 -0.10620242357254028 0.6356732845306396
0.6099349856376648 -0.10700256377458572 0.6361915469169617
0.6108778715133667 -0.10806474089622498 0.6367380619049072
0.6150105595588684 -0.1083972379565239 0.6359748840332031
0.616665244102478 -0.10853549093008041 0.6356726884841919
0.6254953742027283 -0.10412310808897018 0.6303000450134277
0.6284769177436829 -0.10602448135614395 0.6309632658958435
0.6305170655250549 -0.10462421178817749 0.6294434070587158
0.5751394629478455 -0.08432581275701523 0.627154529094696
0.5760427117347717 -0.08842885494232178 0.6299397349357605
0.577549159526825 -0.09013321250677109 0.6308208107948303
0.5788730382919312 -0.09210033714771271 0.6319382190704346
0.5845869779586792 -0.0938965454697609 0.6318586468696594
0.5862228274345398 -0.09403406828641891 0.6315600872039795
0.588018536567688 -0.09523002058267593 0.6319981217384338
0.5900427103042603 -0.10112778097391129 0.6358238458633423
0.5919516086578369 -0.10209358483552933 0.6360653638839722
0.5957501530647278 -0.10403519123792648 0.6365602016448975
0.6021103858947754 -0.1024225503206253 0.6338256597518921
0.604261577129364 -0.10306644439697266 0.6337718963623047
0.6065536141395569 -0.1035216823220253 0.6335461139678955
0.6078425645828247 -0.10414840281009674 0.6336904168128967
0.6108868718147278 -0.10824751108884811 0.6359494924545288
0.6124424338340759 -0.10850527882575989 0.635758638381958
0.6235271692276001 -0.10340184718370438 0.6293135285377502
0.6240511536598206 -0.10387815535068512 0.6295346617698669
0.6247634291648865 -0.10411558300256729 0.6295346617698669
0.6276171803474426 -0.10617872327566147 0.6303488612174988
0.629214346408844 -0.10532111674547195 0.6293308734893799
0.6318439841270447 -0.10319992154836655 0.6271347999572754
0.5738806128501892 -0.08653274923563004 0.6281373500823975
0.5753592252731323 -0.08831077069044113 0.6290817260742188
0.5828337073326111 -0.094114750623703 0.6315150260925293
0.585442304611206 -0.09408167749643326 0.6308519244194031
0.5883682370185852 -0.09617230296134949 0.631671667098999
0.5898835062980652 -0.09902902692556381 0.633399248123169
0.5892870426177979 -0.10115619003772736 0.6351079344749451
0.5911968946456909 -0.10212232917547226 0.635350227355957
0.5924065113067627 -0.10285439342260361 0.635591983795166
0.5943253040313721 -0.1037973091006279 0.6358146667480469
0.5949785113334656 -0.10409123450517654 0.635870635509491
0.5962844491004944 -0.10467851161956787 0.635982096195221
0.5990856885910034 -0.10558650642633438 0.635963499546051
0.6079827547073364 -0.1064959466457367 0.634452760219574
0.609225869178772 -0.10832490026950836 0.6354917287826538
0.6161161065101624 -0.1085047721862793 0.6339364051818848
0.6238418221473694 -0.10434605926275253 0.6289893984794617
0.6261194348335266 -0.10600636154413223 0.6296513080596924
0.627204418182373 -0.10577849298715591 0.6292182803153992
0.6299563646316528 -0.10461309552192688 0.6276878118515015
0.5735828876495361 -0.08717779815196991 0.6277425289154053
0.5758653879165649 -0.09041142463684082 0.6295647025108337
0.5762853622436523 -0.0911068320274353 0.6299741864204407
0.5779173970222473 -0.09258832782506943 0.6306648850440979
0.580110490322113 -0.09451088309288025 0.6315425634384155
0.5875768065452576 -0.09623988717794418 0.6309826970100403
0.5889787673950195 -0.0980016440153122 0.6319366097450256
0.6012293100357056 -0.10281001776456833 0.6324707269668579
0.6073549389839172 -0.10635871440172195 0.6335810422897339
0.6133214235305786 -0.10889705270528793 0.6339861750602722
0.6142618060112 -0.1088188961148262 0.6336973905563354
0.6279390454292297 -0.10507307201623917 0.62757807970047
0.5736707448959351 -0.08858907967805862 0.6278209686279297
0.5743824243545532 -0.08882632851600647 0.6278209686279297
0.5772090554237366 -0.09252151846885681 0.6298553943634033
0.5786905884742737 -0.0942242369055748 0.6307486295700073
0.5830532908439636 -0.09412281215190887 0.6295989155769348
0.5843449234962463 -0.09478278458118439 0.6297683715820312
0.5873993635177612 -0.10050392150878906 0.63324373960495
0.5880990028381348 -0.10073717683553696 0.63324373960495
0.5895943641662598 -0.102313332259655 0.6340402960777283
0.5933913588523865 -0.10426464676856995 0.6345471739768982
0.6004267930984497 -0.1029006764292717 0.6318060159683228
0.6026195883750916 -0.10348847508430481 0.6317002773284912
0.604093074798584 -0.10386557877063751 0.6316160559654236
0.604863703250885 -0.10400880128145218 0.6315319538116455
0.6057515740394592 -0.10517779737710953 0.632177472114563
0.607647180557251 -0.10848838835954666 0.6341568231582642
0.609200119972229 -0.10874620079994202 0.6339646577835083
0.610056459903717 -0.10877145826816559 0.6337725520133972
0.6218509674072266 -0.10385486483573914 0.6272339820861816
0.6223759651184082 -0.10433098673820496 0.6274563670158386
0.6241357922554016 -0.10551850497722626 0.6279004812240601
0.6252033710479736 -0.10643652081489563 0.6283157467842102
0.5744896531105042 -0.09019659459590912 0.6278680562973022
0.5757921934127808 -0.09221897274255753 0.629045307636261
0.5779754519462585 -0.09417249262332916 0.6299536228179932
0.5808709859848022 -0.09500059485435486 0.6298518776893616
0.5852215886116028 -0.09623808413743973 0.6296941637992859
0.5865659713745117 -0.09681030362844467 0.6297862529754639
0.5871160626411438 -0.09983162581920624 0.6318899393081665
0.5888391137123108 -0.10234218835830688 0.6333247423171997
0.5900506377220154 -0.10307428240776062 0.6335678100585938
0.5919650793075562 -0.10402696579694748 0.6338009238243103
0.5926192402839661 -0.10432080179452896 0.6338573694229126
0.5946232080459595 -0.10514043271541595 0.6339696049690247
0.5967186093330383 -0.10583006590604782 0.6339632272720337
0.5974152684211731 -0.10606232285499573 0.6339632272720337
0.6060962080955505 -0.10608386993408203 0.6318343281745911
0.6069240570068359 -0.10848164558410645 0.633406937122345
0.6144102811813354 -0.10902231186628342 0.6319582462310791
0.6216424703598022 -0.10432320833206177 0.6266887187957764
0.6244493126869202 -0.10645896196365356 0.6275783181190491
0.5738004446029663 -0.09008901566267014 0.6270177364349365
0.5782341361045837 -0.0952700823545456 0.6297704577445984
0.5837569236755371 -0.09601934254169464 0.628959059715271
0.5874311327934265 -0.0982675850391388 0.6297196745872498
0.5874766111373901 -0.10200372338294983 0.6324859857559204
0.5988420248031616 -0.103053979575634 0.6304507851600647
0.602519154548645 -0.10400376468896866 0.6302454471588135
0.6050427556037903 -0.10651536285877228 0.631487250328064
0.6109316349029541 -0.10916367918252945 0.6319965124130249
0.6125577688217163 -0.10933583229780197 0.6317216753959656
0.6230068206787109 -0.10621518641710281 0.6268129944801331
0.5743707418441772 -0.09208481013774872 0.6274220943450928
0.5787193775177002 -0.09601347893476486 0.6292702555656433
0.5854971408843994 -0.10130780190229416 0.6315327286720276
0.5860251188278198 -0.10179338604211807 0.6317633390426636
0.5866284966468811 -0.10216675698757172 0.6318920254707336
0.5951257348060608 -0.10601194947957993 0.6326469779014587
0.5980391502380371 -0.10314468294382095 0.6297857165336609
0.6001887321472168 -0.10379204899072647 0.6297340393066406
0.6016988754272461 -0.1041184589266777 0.6296020746231079
0.6024691462516785 -0.10426147282123566 0.6295172572135925
0.6056689620018005 -0.1082109659910202 0.631666362285614
0.6059646606445312 -0.10898132622241974 0.6321672797203064
0.606814444065094 -0.10901232063770294 0.63197922706604
0.6083682775497437 -0.10927066206932068 0.6317858695983887
0.5736591219902039 -0.09201760590076447 0.6266088485717773
0.575813889503479 -0.0940341204404831 0.6275798082351685
0.5762931108474731 -0.09462679922580719 0.6279036402702332
0.5800474882125854 -0.09545595198869705 0.6275874972343445
0.5812844634056091 -0.09619653224945068 0.6278331875801086
0.5818687081336975 -0.0966174528002739 0.6280025243759155
0.5851194858551025 -0.09820801764726639 0.6283811926841736
0.5858733057975769 -0.10219352692365646 0.631173312664032
0.5883913636207581 -0.1035269945859909 0.6315425634384155
0.5896037220954895 -0.10425662249326706 0.631786048412323
0.5903010964393616 -0.10448907315731049 0.631786048412323
0.5922636389732361 -0.10537014156579971 0.6319555640220642
0.5943292379379272 -0.10610318183898926 0.631989061832428
0.5979596376419067 -0.10344164818525314 0.6290944218635559
0.6037799715995789 -0.1062404066324234 0.6297363638877869
0.612002432346344 -0.1093064397573471 0.6299796104431152
0.6146338582038879 -0.10932864248752594 0.6293401122093201
0.5770582556724548 -0.09627261012792587 0.6280087828636169
0.5782238245010376 -0.09579067677259445 0.6273558735847473
0.5789294838905334 -0.09602589160203934 0.6273558735847473
0.5822721123695374 -0.09748341888189316 0.6276135444641113
0.583538830280304 -0.09816962480545044 0.6278111934661865
0.584210216999054 -0.09845412522554398 0.6278570294380188
0.5935325622558594 -0.10619398951530457 0.6313304305076599
0.5993065237998962 -0.10418008267879486 0.6283772587776184
0.6039908528327942 -0.10850351303815842 0.6304481029510498
0.6101528406143188 -0.10961946099996567 0.629744827747345
0.5762853622436523 -0.09631192684173584 0.6272960901260376
0.5832960605621338 -0.10128329694271088 0.6292767524719238
0.5843663811683655 -0.10223914682865143 0.6297276020050049
0.5970502495765686 -0.10386671125888824 0.6277722120285034
0.5977990031242371 -0.10403759777545929 0.6277127265930176
0.598534107208252 -0.10422804951667786 0.6276715993881226
0.600007176399231 -0.10460585355758667 0.6275864243507385
0.6025140881538391 -0.1059638038277626 0.6279794573783875
0.6033607125282288 -0.10836796462535858 0.6295751333236694
0.6051262021064758 -0.10951138287782669 0.6299924850463867
0.6068354249000549 -0.10956282913684845 0.6296026706695557
0.6083913445472717 -0.1098218709230423 0.629407525062561
0.5755562782287598 -0.09628204256296158 0.6265193819999695
0.5803672671318054 -0.09811139106750488 0.6266894936561584
0.5829133987426758 -0.10202910751104355 0.6290042996406555
0.5860323905944824 -0.10374725610017776 0.6295161843299866
0.5873374342918396 -0.10434557497501373 0.6296390891075134
0.588593602180481 -0.10501278936862946 0.629826545715332
0.5906000733375549 -0.10583275556564331 0.6299409866333008
0.5912544131278992 -0.10612636804580688 0.6299976110458374
0.5926772356033325 -0.10654999315738678 0.6299592852592468
0.6014613509178162 -0.10639698803424835 0.627635657787323
0.6021634340286255 -0.10663106292486191 0.627635657787323
0.6083991527557373 -0.11000590026378632 0.6286131739616394
0.6102954149246216 -0.10982440412044525 0.6279996037483215
0.6122210025787354 -0.1096135601401329 0.627356767654419
0.5786952972412109 -0.09821701794862747 0.6262531876564026
0.582358717918396 -0.1004660576581955 0.6270306706428528
0.585883617401123 -0.10414206981658936 0.6289223432540894
0.5946366786956787 -0.10396064817905426 0.6265782713890076
0.5953397750854492 -0.1041950136423111 0.6265782713890076
0.6020980477333069 -0.10809627175331116 0.6278250813484192
0.6077470183372498 -0.1099034994840622 0.6277680397033691
0.6084475517272949 -0.11013700813055038 0.6277680397033691
0.5804322361946106 -0.09966219216585159 0.6259722113609314
0.5818212628364563 -0.10015653073787689 0.6259956955909729
0.5814142227172852 -0.10205942392349243 0.6275420784950256
0.5820087194442749 -0.10245022177696228 0.627688467502594
0.5890113711357117 -0.10600652545690536 0.6286154389381409
0.6017496585845947 -0.10875850170850754 0.6274817585945129
0.604290246963501 -0.11003664135932922 0.6278091669082642
0.6060000658035278 -0.110089011490345 0.6274163722991943
0.6104384660720825 -0.11002949625253677 0.6262491941452026
0.5843706130981445 -0.10420050472021103 0.6274881958961487
0.5862840414047241 -0.10516413301229477 0.6277360916137695
0.5882379412651062 -0.10606294870376587 0.6279241442680359
0.5902981162071228 -0.10680623352527618 0.6279674768447876
0.5792238116264343 -0.10184080898761749 0.626063883304596
0.5799238681793213 -0.10207415372133255 0.626063883304596
0.5836135745048523 -0.10422947257757187 0.6267697215080261
0.587464451789856 -0.10611924529075623 0.6272328495979309
0.6010549068450928 -0.11007906496524811 0.6267973780632019
0.602748453617096 -0.11014574021100998 0.6264175176620483
0.5996135473251343 -0.10986277461051941 0.6260661482810974
0.5872274041175842 -0.10681942105293274 0.6259642243385315
0.589993417263031 -0.10778363049030304 0.6259967684745789
0.629828929901123 -0.09200557321310043 0.6784087419509888
0.6335054636001587 -0.0919739231467247 0.6797956824302673
0.6294610500335693 -0.09186725318431854 0.6774747967720032
0.6342988014221191 -0.09184609353542328 0.6795464158058167
0.6302156448364258 -0.08365235477685928 0.6819760203361511
0.6297784447669983 -0.08210473507642746 0.681847333908081
0.6363300085067749 -0.09369566291570663 0.6780642867088318
0.6342658400535583 -0.08956471085548401 0.6792930364608765
0.6319734454154968 -0.089497409760952 0.6779700517654419
0.630086362361908 -0.08170998841524124 0.6814782619476318
0.6297680735588074 -0.0809868797659874 0.6817188858985901
0.6264280676841736 -0.07585804909467697 0.6827825307846069
0.6259061694145203 -0.07569043338298798 0.6825718283653259
0.6252094507217407 -0.07597772777080536 0.6819868683815002
0.6380482912063599 -0.09599386155605316 0.6769209504127502
0.6366389989852905 -0.0932912528514862 0.6776922941207886
0.629757821559906 -0.07987166196107864 0.6815910935401917
0.6260932683944702 -0.07561790943145752 0.6819424033164978
0.620528519153595 -0.07770679891109467 0.6773784756660461
0.61774742603302 -0.08011932671070099 0.6742815375328064
0.6362916827201843 -0.09140511602163315 0.6778144836425781
0.6358611583709717 -0.09097464382648468 0.6778144836425781
0.6320876479148865 -0.08352107554674149 0.6800154447555542
0.6300649642944336 -0.07947871088981628 0.6812233328819275
0.6290063858032227 -0.07761731743812561 0.681703507900238
0.6280602812767029 -0.07547250390052795 0.6824202537536621
0.6241809725761414 -0.07641122490167618 0.6795387864112854
0.6237531304359436 -0.07598347961902618 0.6795387864112854
0.6189799904823303 -0.07743670046329498 0.6758149862289429
0.6358426809310913 -0.08983448892831802 0.6776899695396423
0.632716715335846 -0.08385162800550461 0.6794036626815796
0.6286815404891968 -0.07579626888036728 0.6818150877952576
0.6225234866142273 -0.07649238407611847 0.6777037978172302
0.617759644985199 -0.07783395051956177 0.6740418076515198
0.6165537238121033 -0.07778514176607132 0.6733477115631104
0.6386551260948181 -0.09399591386318207 0.6760813593864441
0.6361504793167114 -0.08943351358175278 0.6773194670677185
0.6354982256889343 -0.0879628136754036 0.6778118014335632
0.6340965628623962 -0.08533903956413269 0.6785469651222229
0.6320610642433167 -0.08128087967634201 0.679763674736023
0.6303607225418091 -0.07797598093748093 0.6807289123535156
0.6259599328041077 -0.07568580657243729 0.679459273815155
0.6212813854217529 -0.0770062506198883 0.6758503913879395
0.6132758259773254 -0.07860346138477325 0.6700735688209534
0.6389633417129517 -0.09359118342399597 0.6757104396820068
0.6347275972366333 -0.08567114174365997 0.6779332160949707
0.6316224932670593 -0.07974031567573547 0.679638147354126
0.6268449425697327 -0.07532474398612976 0.679419755935669
0.6247451305389404 -0.07619131356477737 0.6776299476623535
0.6243167519569397 -0.07576294243335724 0.6776299476623535
0.6221858859062195 -0.07663820683956146 0.6758162379264832
0.6195923686027527 -0.07709098607301712 0.6739784479141235
0.6162258982658386 -0.07785025984048843 0.6714892387390137
0.609623908996582 -0.08016163855791092 0.6661114692687988
0.6381798982620239 -0.09127437323331833 0.6758365035057068
0.6364391446113586 -0.0878971740603447 0.6768266558647156
0.6343872547149658 -0.08381665498018265 0.6780542731285095
0.6323539614677429 -0.07977239787578583 0.6792709231376648
0.6312910914421082 -0.07791005820035934 0.6797546744346619
0.6288419961929321 -0.07510380446910858 0.6799708008766174
0.6237977743148804 -0.07597962021827698 0.6763884425163269
0.6205044388771057 -0.07672104984521866 0.6739472150802612
0.6149274110794067 -0.07838113605976105 0.6695680618286133
0.6144871115684509 -0.07794075459241867 0.6695680618286133
0.6122294068336487 -0.07885551452636719 0.6676484942436218
0.651707112789154 -0.07323480397462845 0.6941919326782227
0.6378299593925476 -0.08939645439386368 0.6759627461433411
0.6346938610076904 -0.08342070132493973 0.6776858568191528
0.6339444518089294 -0.08226824551820755 0.677930474281311
0.6305376887321472 -0.07566500455141068 0.6798704266548157
0.630220890045166 -0.07495241612195969 0.6801104545593262
0.6265260577201843 -0.07546330243349075 0.677558183670044
0.6239863038063049 -0.07590574026107788 0.6757485270500183
0.618510901927948 -0.07753914594650269 0.6714344620704651
0.6104491949081421 -0.07895208895206451 0.6656847596168518
0.6081361174583435 -0.07988470047712326 0.6637149453163147
0.6076874136924744 -0.0794360339641571 0.6637149453163147
0.656299889087677 -0.07761634886264801 0.6935735940933228
0.6559852957725525 -0.07691363245248795 0.693809986114502
0.6405490040779114 -0.09386532008647919 0.6740975975990295
0.6384655833244324 -0.08973195403814316 0.6753451228141785
0.6373799443244934 -0.08783157914876938 0.6758410930633545
0.6364008188247681 -0.08563564717769623 0.6765815615653992
0.6339287757873535 -0.08114955574274063 0.6778073906898499
0.6322216391563416 -0.07784449309110641 0.6787800788879395
0.6302100419998169 -0.07385265827178955 0.6799851655960083
0.629894495010376 -0.07314246892929077 0.6802255511283875
0.6290994882583618 -0.07371877133846283 0.6793909668922424
0.627831757068634 -0.07398832589387894 0.6784551739692688
0.6253226399421692 -0.07594075798988342 0.6757397055625916
0.616789698600769 -0.07762762159109116 0.6695196032524109
0.6141136288642883 -0.07809517532587051 0.6676065325737
0.6063125133514404 -0.07998809963464737 0.661706268787384
0.6588863134384155 -0.08187776803970337 0.691802978515625
0.6559540033340454 -0.07583221793174744 0.6937033534049988
0.6528397798538208 -0.0723363608121872 0.6939362287521362
0.6479167342185974 -0.07292278110980988 0.6905733346939087
0.6370422840118408 -0.08594042807817459 0.6759893894195557
0.6335918307304382 -0.07931368052959442 0.6779281497001648
0.6268522143363953 -0.07389999181032181 0.6771188974380493
0.6150510311126709 -0.07771690934896469 0.6675854325294495
0.6127931475639343 -0.07863165438175201 0.665648877620697
0.6100569367408752 -0.07911188900470734 0.6636855006217957
0.6020737290382385 -0.08104973286390305 0.6576297283172607
0.5997799038887024 -0.08171963691711426 0.6558206081390381
0.6582152247428894 -0.07936780899763107 0.6921757459640503
0.6562363505363464 -0.07545239478349686 0.6933612823486328
0.6552103161811829 -0.07365653663873672 0.6938324570655823
0.6508172750473022 -0.07265832275152206 0.6917542815208435
0.6459835171699524 -0.07278900593519211 0.6887151598930359
0.6331522464752197 -0.07777880877256393 0.6778052449226379
0.6321945190429688 -0.07563329488039017 0.6785324215888977
0.6255255341529846 -0.06560558825731277 0.6805886626243591
0.6086990237236023 -0.07966046035289764 0.6616833806037903
0.6001851558685303 -0.08116115629673004 0.6555525660514832
0.6588154435157776 -0.07969112694263458 0.6915944218635559
0.6525198221206665 -0.07279320061206818 0.6919641494750977
0.6459733843803406 -0.0716705247759819 0.6886341571807861
0.6328180432319641 -0.07595721632242203 0.6779251098632812
0.6283968687057495 -0.0676204189658165 0.6803292632102966
0.623256266117096 -0.06577302515506744 0.678307294845581
0.6199760437011719 -0.06796646863222122 0.6749467253684998
0.6124301552772522 -0.07874290645122528 0.6636972427368164
0.6068771481513977 -0.07975843548774719 0.6596642732620239
0.6060886979103088 -0.08007833361625671 0.6589838862419128
0.6048442125320435 -0.07994162291288376 0.6583038568496704
0.6040493249893188 -0.08025925606489182 0.6576207876205444
0.5987382531166077 -0.0817352682352066 0.6534535884857178
0.597452700138092 -0.08159991353750229 0.6527475714683533
0.6604579091072083 -0.08183564245700836 0.6905325651168823
0.6584631204605103 -0.07789783924818039 0.6917290687561035
0.6577454805374146 -0.07679391652345657 0.691966712474823
0.6560871005058289 -0.07359691709280014 0.6929143071174622
0.648131787776947 -0.0704699382185936 0.6899411082267761
0.6346592903137207 -0.07770570367574692 0.6771896481513977
0.632063090801239 -0.07372047007083893 0.6780452132225037
0.6300612092018127 -0.06976321339607239 0.6792492270469666
0.6291202902793884 -0.0676569789648056 0.6799667477607727
0.6050469279289246 -0.07983184605836868 0.6576464772224426
0.6026408672332764 -0.08081137388944626 0.6555617451667786
0.5968114733695984 -0.08185137063264847 0.6513321399688721
0.6621083617210388 -0.08399028331041336 0.6894658803939819
0.6617041230201721 -0.08358614146709442 0.6894658803939819
0.6577118039131165 -0.07571235299110413 0.6918627023696899
0.6557431817054749 -0.07182972133159637 0.6930447816848755
0.6538415551185608 -0.07126273959875107 0.6922204494476318
0.6533265113830566 -0.07124514132738113 0.691913366317749
0.6327897310256958 -0.07375480234622955 0.6776809692382812
0.6266700625419617 -0.0638744905591011 0.6800034046173096
0.6255224347114563 -0.06381899118423462 0.6793288588523865
0.6218765377998352 -0.06552860885858536 0.6760217547416687
0.6065021753311157 -0.07984186708927155 0.6576878428459167
0.6007657647132874 -0.08089109510183334 0.6534974575042725
0.5982988476753235 -0.0818905457854271 0.6513568162918091
0.5961686372756958 -0.08209925889968872 0.6499122977256775
0.5906173586845398 -0.0836416557431221 0.6455317139625549
0.589270830154419 -0.08353134244680405 0.6447683572769165
0.6613434553146362 -0.08177552372217178 0.6896058917045593
0.660300076007843 -0.0799546167254448 0.6900874376296997
0.6573634743690491 -0.0739363506436348 0.6919960379600525
0.6560243964195251 -0.07145325094461441 0.6927045583724976
0.6418138742446899 -0.0709439218044281 0.68421870470047
0.6320366263389587 -0.07152903825044632 0.6778006553649902
0.6300400495529175 -0.06759113818407059 0.6790029406547546
0.6289950013160706 -0.06577470898628235 0.679480791091919
0.6157142519950867 -0.06758502870798111 0.6701341271400452
0.6118175983428955 -0.0694173127412796 0.6665859222412109
0.6095941066741943 -0.07016920298337936 0.664743185043335
0.6022472381591797 -0.08089921623468399 0.6535472869873047
0.597212553024292 -0.08164040744304657 0.6499699950218201
0.594694197177887 -0.08265534788370132 0.6477816700935364
0.5886009931564331 -0.0837712436914444 0.6433167457580566
0.5863766074180603 -0.0839787945151329 0.6418103575706482
0.5835074782371521 -0.08689945936203003 0.638224720954895
0.5819702744483948 -0.08854091167449951 0.6362559199333191
0.660984456539154 -0.07997336983680725 0.6897450685501099
0.6585912108421326 -0.07565228641033173 0.6909425854682922
0.6317070722579956 -0.06973402202129364 0.6779195666313171
0.628295361995697 -0.06348401308059692 0.6796824932098389
0.6216493844985962 -0.06390146911144257 0.6752951145172119
0.6093040108680725 -0.06972400099039078 0.6640101671218872
0.6003637909889221 -0.08097966760396957 0.6514654159545898
0.59273362159729 -0.08274699747562408 0.6456282734870911
0.5839051604270935 -0.08493875712156296 0.6387829780578613
0.663601815700531 -0.08425765484571457 0.6879503726959229
0.6622291207313538 -0.08171563595533371 0.6886788606643677
0.6602257490158081 -0.07777775824069977 0.6898837685585022
0.658240795135498 -0.07387617975473404 0.6910778284072876
0.656899094581604 -0.07139305770397186 0.691788911819458
0.649280309677124 -0.06562330573797226 0.6906370520591736
0.6320100426673889 -0.06934962421655655 0.677557110786438
0.6256039142608643 -0.06182211637496948 0.6782556772232056
0.6120883226394653 -0.06803768873214722 0.6659640073776245
0.605844259262085 -0.07062111794948578 0.660464882850647
0.6039271354675293 -0.07198429852724075 0.6584213376045227
0.5989245176315308 -0.08152506500482559 0.6493616104125977
0.5967941880226135 -0.08173241466283798 0.6479053497314453
0.5946436524391174 -0.08194182813167572 0.6464352011680603
0.5912244915962219 -0.08331263810396194 0.6434510350227356
0.5890143513679504 -0.08353295177221298 0.6419371366500854
0.6638837456703186 -0.08387032151222229 0.6876072883605957
0.6565544009208679 -0.06963536888360977 0.6919217109680176
0.6520634889602661 -0.06396917998790741 0.6926560401916504
0.6433073282241821 -0.06797636300325394 0.6846818327903748
0.6315771341323853 -0.06784376502037048 0.6774361729621887
0.6306344866752625 -0.06574611365795135 0.6781576871871948
0.6280928254127502 -0.06181933730840683 0.6790230870246887
0.5953210592269897 -0.08228743076324463 0.6457607746124268
0.5948525071144104 -0.08181876689195633 0.6457607746124268
0.5922948122024536 -0.08284397423267365 0.6435223817825317
0.587469220161438 -0.08410878479480743 0.6397172808647156
0.5869911313056946 -0.08363080769777298 0.6397172808647156
0.5843232274055481 -0.0846901386976242 0.6373884677886963
0.5820949673652649 -0.08480802178382874 0.6359227299690247
0.5795464515686035 -0.08551672846078873 0.6338876485824585
0.6641656756401062 -0.08348333090543747 0.6872648000717163
0.6631149649620056 -0.08165550231933594 0.6877516508102417
0.6621494293212891 -0.07952983677387238 0.6884785890579224
0.6601517796516418 -0.07561270892620087 0.6896812319755554
0.6597513556480408 -0.07521248608827591 0.6896812319755554
0.6309366226196289 -0.06536485254764557 0.6777969002723694
0.6241422891616821 -0.061820752918720245 0.6757603287696838
0.6229429244995117 -0.06185107305645943 0.6749899387359619
0.6019890904426575 -0.07112385332584381 0.6560505628585815
0.5996281504631042 -0.07191958278417587 0.6540727019309998
0.5903033018112183 -0.08293741941452026 0.6413262486457825
0.5885580778121948 -0.08363355696201324 0.6397964954376221
0.5806056261062622 -0.08516068756580353 0.6338570713996887
0.5775650143623352 -0.08534782379865646 0.6318345069885254
0.575077474117279 -0.08583831787109375 0.6299686431884766
0.6627518534660339 -0.07985324412584305 0.6878952383995056
0.65939861536026 -0.07343777269124985 0.6898195743560791
0.6583688259124756 -0.07164929807186127 0.6902961730957031
0.6564055681228638 -0.06780209392309189 0.6914801597595215
0.6377479434013367 -0.06898847222328186 0.6790103912353516
0.6340577602386475 -0.06978663802146912 0.6761898994445801
0.6324977874755859 -0.06777813285589218 0.6764715909957886
0.6305069327354431 -0.0638708546757698 0.6776760220527649
0.6268652081489563 -0.05980560556054115 0.677942156791687
0.6136703491210938 -0.06542567908763885 0.666118860244751
0.6076258420944214 -0.06764809042215347 0.6609238386154175
0.5958922505378723 -0.07300861179828644 0.6501819491386414
0.5865252614021301 -0.08373241871595383 0.6375572085380554
0.5847445130348206 -0.08443545550107956 0.6359962821006775
0.5786093473434448 -0.0850355476140976 0.6317641139030457
0.5760738849639893 -0.08563490957021713 0.6297940015792847
0.5737912058830261 -0.08569981902837753 0.6283189058303833
0.6644041538238525 -0.08199881762266159 0.6868245005607605
0.659047544002533 -0.07167134433984756 0.6899571418762207
0.6580204963684082 -0.06989011913537979 0.6904324293136597
0.6557530164718628 -0.06537634134292603 0.6918480396270752
0.6547396183013916 -0.06361868232488632 0.6923171281814575
0.6482589244842529 -0.06426271051168442 0.6878268718719482
0.6478570699691772 -0.0638609379529953 0.6878268718719482
0.6419180631637573 -0.06706089526414871 0.682067334651947
0.6339594125747681 -0.06892791390419006 0.675875186920166
0.632168710231781 -0.0659971833229065 0.6765937209129333
0.6280268430709839 -0.060202356427907944 0.6776351928710938
0.6214536428451538 -0.06185000017285347 0.6724544763565063
0.6157755255699158 -0.0637676939368248 0.6676673293113708
0.6050528287887573 -0.06794510781764984 0.658277153968811
0.5858460664749146 -0.08396000415086746 0.6360796093940735
0.5827227234840393 -0.08443360030651093 0.6338129639625549
0.5801597833633423 -0.08516927808523178 0.6317341923713684
0.6656599640846252 -0.08375033736228943 0.6857483983039856
0.662670910358429 -0.07767732441425323 0.6876975297927856
0.661949634552002 -0.07657372951507568 0.6879391670227051
0.6602756381034851 -0.07337778061628342 0.6889011859893799
0.6563422679901123 -0.06568782776594162 0.6912755370140076
0.6419510245323181 -0.06583277136087418 0.6820880174636841
0.6379224061965942 -0.0678250715136528 0.6782826781272888
0.6348065137863159 -0.06861696392297745 0.6758126020431519
0.6338993310928345 -0.06796533614397049 0.6756510138511658
0.6304847598075867 -0.06172807514667511 0.6774351596832275
0.6263183951377869 -0.06047828495502472 0.6755916476249695
0.62431800365448 -0.06105314940214157 0.6739640831947327
0.6198784112930298 -0.061651211231946945 0.6707802414894104
0.6145826578140259 -0.06400832533836365 0.6659430861473083
0.5781615972518921 -0.08503090590238571 0.6296361684799194
0.6663450598716736 -0.08376746624708176 0.685406506061554
0.6652901768684387 -0.08193891495466232 0.6858969330787659
0.6619102954864502 -0.07549258321523666 0.6878405809402466
0.6588939428329468 -0.0698300153017044 0.6895179748535156
0.6540891528129578 -0.06177712231874466 0.6915767788887024
0.6519624590873718 -0.06194273382425308 0.6901237368583679
0.6509202122688293 -0.061930954456329346 0.6894707679748535
0.6455082297325134 -0.0638512521982193 0.6848228573799133
0.6416831612586975 -0.0654856339097023 0.6813621520996094
0.6358098983764648 -0.06786502152681351 0.6761310696601868
0.6351956725120544 -0.06798944622278214 0.6756629347801208
0.6330873966217041 -0.06593167036771774 0.6756309866905212
0.6321425437927246 -0.06384377181529999 0.6763555407524109
0.6286306381225586 -0.06093326583504677 0.6759741306304932
0.6225782632827759 -0.061311546713113785 0.6718980669975281
0.619449257850647 -0.06158806011080742 0.6697393655776978
0.6174829006195068 -0.061910632997751236 0.66828852891922
0.6137742400169373 -0.06334251165390015 0.6650301218032837
0.5978859663009644 -0.06974105536937714 0.6509029865264893
0.5890405774116516 -0.07377897948026657 0.6427364945411682
0.5768079161643982 -0.0850512757897377 0.6278374791145325
0.6645198464393616 -0.07973326742649078 0.6860448718070984
0.6625099182128906 -0.07581262290477753 0.6872594952583313
0.6615526676177979 -0.07371705025434494 0.6879830360412598
0.6605185270309448 -0.07192778587341309 0.6884631514549255
0.6582319736480713 -0.06739228218793869 0.6898928880691528
0.6578354835510254 -0.06699571758508682 0.6898928880691528
0.6561945676803589 -0.06386911869049072 0.6908373832702637
0.6324434280395508 -0.06346417218446732 0.6759960055351257
0.6302983164787292 -0.06152212992310524 0.6758669018745422
0.6273342370986938 -0.061655040830373764 0.6738981008529663
0.6243269443511963 -0.06178975850343704 0.6719006896018982
0.6212456226348877 -0.061999984085559845 0.6698081493377686
0.618078887462616 -0.06230519339442253 0.6676011681556702
0.6176484227180481 -0.061874642968177795 0.6676011681556702
0.5877042412757874 -0.07391823083162308 0.6409090161323547
0.5775558948516846 -0.08388249576091766 0.6281232833862305
0.6661765575408936 -0.0818788930773735 0.684969425201416
0.6652023196220398 -0.07975201308727264 0.685704231262207
0.6641542911529541 -0.07793916016817093 0.6861918568611145
0.6578019261360168 -0.06593899428844452 0.6897927522659302
0.6503118276596069 -0.06157610937952995 0.6877989172935486
0.649674654006958 -0.06191778555512428 0.6871747970581055
0.6360146403312683 -0.06661859154701233 0.675468921661377
0.6340703368186951 -0.06569095700979233 0.6748207807540894
0.6320125460624695 -0.06197523698210716 0.6758778691291809
0.6285931468009949 -0.06182599812746048 0.6737930178642273
0.627312421798706 -0.06210469454526901 0.6727985143661499
0.6249499917030334 -0.06210217997431755 0.6712940335273743
0.6225614547729492 -0.062099624425172806 0.6697729825973511
0.6219019889831543 -0.06224120408296585 0.6692621111869812
0.6053012013435364 -0.06584109365940094 0.6563831567764282
0.5918673872947693 -0.07146656513214111 0.6442321538925171
0.5858517289161682 -0.0736481249332428 0.6390060186386108
0.6678409576416016 -0.08403465151786804 0.6838889718055725
0.6644339561462402 -0.07755723595619202 0.6858521103858948
0.6624298095703125 -0.0736570656299591 0.6870644092559814
0.6613943576812744 -0.07186778634786606 0.6875463128089905
0.6604441404342651 -0.06979255378246307 0.6882656812667847
0.6580805778503418 -0.06556739658117294 0.6894559860229492
0.6561326384544373 -0.06177379563450813 0.690636157989502
0.6482952237129211 -0.061769116669893265 0.685627818107605
0.6371030807495117 -0.06561726331710815 0.6760111451148987
0.6272906064987183 -0.06255640834569931 0.671694278717041
0.6242693662643433 -0.06269830465316772 0.6696718335151672
0.6212040185928345 -0.0628422275185585 0.6676198840141296
0.6180935502052307 -0.06298806518316269 0.6655376553535461
0.6155487895011902 -0.06315959990024567 0.6638011336326599
0.6123121380805969 -0.0634043961763382 0.6615749001502991
0.6096747517585754 -0.06362875550985336 0.6597452163696289
0.6049031019210815 -0.06560665369033813 0.6554296016693115
0.6035726070404053 -0.06565023958683014 0.6545510292053223
0.593447208404541 -0.06994941830635071 0.6453279852867126
0.5818771123886108 -0.074654221534729 0.6349220275878906
0.6681212186813354 -0.08364759385585785 0.6835476160049438
0.6677933931350708 -0.08293420821428299 0.6837949752807617
0.6660861968994141 -0.07969196885824203 0.6847792863845825
0.6640697717666626 -0.07577285915613174 0.68599933385849
0.663669228553772 -0.07537242025136948 0.68599933385849
0.6607228517532349 -0.06941767781972885 0.687928318977356
0.6577353477478027 -0.063834048807621 0.6895931363105774
0.6548081636428833 -0.059917621314525604 0.6902273297309875
0.6538240909576416 -0.059761304408311844 0.6896965503692627
0.6479533314704895 -0.06168621405959129 0.6846978068351746
0.6442576050758362 -0.06306564062833786 0.6814435124397278
0.6417946219444275 -0.06385451555252075 0.6793580651283264
0.6271792054176331 -0.061737749725580215 0.6713435053825378
0.6224953532218933 -0.06301500648260117 0.667521059513092
0.6200693249702454 -0.06301745772361755 0.6659637689590454
0.6169373989105225 -0.0631655603647232 0.6638604998588562
0.6115771532058716 -0.06397637724876404 0.6599034070968628
0.6082705855369568 -0.0642305538058281 0.6576199531555176
0.6078270077705383 -0.0637870654463768 0.6576199531555176
0.5920710563659668 -0.07022546976804733 0.6433882117271423
0.591606080532074 -0.06976039707660675 0.6433882117271423
0.5777716040611267 -0.07575817406177521 0.6306708455085754
0.6677458882331848 -0.08183688670396805 0.6837010979652405
0.6622701287269592 -0.07180767506361008 0.6866292357444763
0.6602884531021118 -0.06795821338891983 0.6878305673599243
0.6580131649971008 -0.06346429884433746 0.6892572045326233
0.656997561454773 -0.061713941395282745 0.6897298097610474
0.6550900340080261 -0.05953936278820038 0.6899014711380005
0.6518492698669434 -0.05994829535484314 0.6875545382499695
0.6459040641784668 -0.06188157573342323 0.6824879050254822
0.6428518295288086 -0.06285537034273148 0.6798987984657288
0.6403680443763733 -0.06364532560110092 0.677793562412262
0.635443389415741 -0.06482043117284775 0.6738707423210144
0.6346282362937927 -0.06392738223075867 0.673920750617981
0.6342754364013672 -0.06333279609680176 0.6740763783454895
0.6312963366508484 -0.06055109202861786 0.6739493012428284
0.6286885738372803 -0.06128054857254028 0.6718031764030457
0.6260401010513306 -0.06202153488993645 0.669623613357544
0.6186829209327698 -0.06377317756414413 0.6637657284736633
0.6155216097831726 -0.06392770260572433 0.6616331338882446
0.6148331165313721 -0.06407592445611954 0.661095142364502
0.6130021810531616 -0.06395279616117477 0.6599968671798706
0.6122757792472839 -0.06416869163513184 0.6593909859657288
0.6115496754646301 -0.06437838077545166 0.6587892174720764
0.6018730998039246 -0.06567226350307465 0.6517340540885925
0.5977882146835327 -0.06722170859575272 0.6481108069419861
0.5954612493515015 -0.06781532615423203 0.6462324261665344
0.6680252552032471 -0.0814516693353653 0.6833609342575073
0.6669701933860779 -0.07963195443153381 0.6838540434837341
0.6639066338539124 -0.07391542941331863 0.6855649948120117
0.65993732213974 -0.06621474772691727 0.6879715919494629
0.6562049984931946 -0.0597960539162159 0.6897041201591492
0.6527782082557678 -0.05918080359697342 0.6878908276557922
0.6455547213554382 -0.061798177659511566 0.6815440654754639
0.6393435001373291 -0.06384818255901337 0.6762160062789917
0.6382268071174622 -0.06383202224969864 0.6755062341690063
0.6362665295600891 -0.06456640362739563 0.673768162727356
0.6328991055488586 -0.059775933623313904 0.6746859550476074
0.6312212944030762 -0.059646762907505035 0.6736871600151062
0.626392126083374 -0.061526183038949966 0.6693605780601501
0.625643253326416 -0.06191594898700714 0.6686261296272278
0.6248906850814819 -0.06230798736214638 0.6678879261016846
0.6244641542434692 -0.06188153102993965 0.6678879261016846
0.6221789717674255 -0.06306625157594681 0.665649950504303
0.6186403036117554 -0.06424113363027573 0.6626100540161133
0.6179614067077637 -0.0643891990184784 0.6620767116546631
0.6168437004089355 -0.06410199403762817 0.6615411043167114
0.6147813200950623 -0.06454898416996002 0.6599225401878357
0.6115532517433167 -0.06471115350723267 0.6577360033988953
0.6089247465133667 -0.06486687064170837 0.6559403538703918
0.605562686920166 -0.06513072550296783 0.6536017656326294
0.6001105308532715 -0.06547848880290985 0.6498610973358154
0.5992022156715393 -0.06597725301980972 0.6489535570144653
0.5897890329360962 -0.06976980715990067 0.6404367089271545
0.584358811378479 -0.0720614567399025 0.6354565024375916
0.5838834047317505 -0.07158597558736801 0.6354565024375916
0.5759751200675964 -0.07545896619558334 0.6278582215309143
0.6700226068496704 -0.0843195840716362 0.6820282936096191
0.6665990948677063 -0.07783863693475723 0.6840057969093323
0.6641851663589478 -0.07353688031435013 0.6852270364761353
0.6632255911827087 -0.0714530348777771 0.685954213142395
0.6621910333633423 -0.06967230141162872 0.6864368319511414
0.6602151393890381 -0.06584275513887405 0.6876357197761536
0.6599011421203613 -0.06516028940677643 0.6878741383552551
0.6511884927749634 -0.05976337566971779 0.685729444026947
0.6488701105117798 -0.060387976467609406 0.6838260293006897
0.6465182304382324 -0.06102176010608673 0.6818947196006775
0.6441364884376526 -0.06165098398923874 0.6799470782279968
0.6434720754623413 -0.061995718628168106 0.6792945265769958
0.6378955841064453 -0.0636356770992279 0.6746268272399902
0.6372085809707642 -0.06397625803947449 0.6739621758460999
0.6345590949058533 -0.06188270077109337 0.6736025810241699
0.6338269710540771 -0.06077585741877556 0.6738449931144714
0.6301133632659912 -0.05991809815168381 0.6719977855682373
0.6205657720565796 -0.06292923539876938 0.6638745665550232
0.618209958076477 -0.06416240334510803 0.6615533232688904
0.6177745461463928 -0.06372711062431335 0.6615533232688904
0.6161733865737915 -0.06457403302192688 0.6599698066711426
0.6128966212272644 -0.06488644331693649 0.6576482653617859
0.6103433966636658 -0.06489959359169006 0.6559882164001465
0.6069894433021545 -0.06518466025590897 0.6536343097686768
0.6047831773757935 -0.06572277843952179 0.6518593430519104
0.5986188054084778 -0.0660911574959755 0.6476339101791382
0.5973972082138062 -0.06581813097000122 0.6470204591751099
0.5879105925559998 -0.06957788020372391 0.6384524703025818
0.6703019142150879 -0.08393207937479019 0.6816880106925964
0.6698977947235107 -0.08352785557508469 0.6816880106925964
0.666877806186676 -0.0774567723274231 0.6836671829223633
0.6627867817878723 -0.06998734921216965 0.6858587265014648
0.6594701409339905 -0.06371357291936874 0.6877769827842712
0.6585341691970825 -0.0616798959672451 0.6884890198707581
0.6543698310852051 -0.05846533179283142 0.6878728866577148
0.6498180031776428 -0.05961092188954353 0.6841771602630615
0.6491763591766357 -0.05995248258113861 0.6835393309593201
0.6420354247093201 -0.06184861436486244 0.6776772737503052
0.6400038599967957 -0.06289631128311157 0.6756797432899475
0.6338116526603699 -0.05971039459109306 0.6737295389175415
0.6297286748886108 -0.05980991572141647 0.6710165143013
0.6236596703529358 -0.06166859716176987 0.6658740639686584
0.6185874342918396 -0.06362767517566681 0.661312997341156
0.6121370792388916 -0.06551852822303772 0.6559024453163147
0.608855128288269 -0.0656898245215416 0.6536623239517212
0.6062450408935547 -0.06571473926305771 0.6519530415534973
0.6047400832176208 -0.0661376565694809 0.6507025361061096
0.6027984023094177 -0.06604978442192078 0.6494998931884766
0.6012957096099854 -0.06641574203968048 0.6482877731323242
0.6000844240188599 -0.06614428758621216 0.6476781964302063
0.5950171947479248 -0.06679787486791611 0.6439671516418457
0.5850145220756531 -0.06993457674980164 0.6354440450668335
0.5819765329360962 -0.07160705327987671 0.6323882341384888
0.6695185303688049 -0.0817168653011322 0.681846022605896
0.6684597730636597 -0.07989569008350372 0.6823420524597168
0.6664312481880188 -0.07597294449806213 0.6835742592811584
0.6641011238098145 -0.07139282673597336 0.6850379705429077
0.6621126532554626 -0.06754828244447708 0.6862453818321228
0.6591225266456604 -0.061987943947315216 0.6879174113273621
0.6557508707046509 -0.05786733701825142 0.6884045600891113
0.6542333960533142 -0.05777088925242424 0.6874802112579346
0.6523845195770264 -0.0586877278983593 0.6856811046600342
0.6501142382621765 -0.05920365825295448 0.6838685274124146
0.6477885246276855 -0.05979960784316063 0.6819679141044617
0.6416746377944946 -0.06176408380270004 0.6767124533653259
0.6341105699539185 -0.05933387950062752 0.6733728647232056
0.6281852722167969 -0.0596613883972168 0.6693048477172852
0.6267003417015076 -0.06042962521314621 0.6678391695022583
0.624016523361206 -0.06116931885480881 0.6656120419502258
0.6212897896766663 -0.061921004205942154 0.6633489727973938
0.6169387102127075 -0.06349173188209534 0.6594967246055603
0.615341067314148 -0.0643075555562973 0.6579265594482422
0.6149019002914429 -0.06386838108301163 0.6579265594482422
0.610346257686615 -0.06557153165340424 0.65385502576828
0.6095086336135864 -0.06600899994373322 0.6530255079269409
0.608069121837616 -0.06633271276950836 0.6518785357475281
0.6068989038467407 -0.06604055315256119 0.6513071060180664
0.6047163009643555 -0.06651220470666885 0.6495803594589233
0.5992687940597534 -0.06675046682357788 0.6458817720413208
0.5929207801818848 -0.06713983416557312 0.6414985060691833
0.590446412563324 -0.06790512800216675 0.639391303062439
0.589979350566864 -0.06743796914815903 0.639391303062439
0.5789809226989746 -0.07198657840490341 0.6292770504951477
0.6657405495643616 -0.07349798828363419 0.6839707493782043
0.6627067923545837 -0.06786144524812698 0.6856688857078552
0.6619933843612671 -0.0667787566781044 0.6859096884727478
0.6603377461433411 -0.06365349143743515 0.6868685483932495
0.6583831906318665 -0.05987653508782387 0.6880576610565186
0.6569235920906067 -0.057928118854761124 0.6883764863014221
0.6538787484169006 -0.05777515470981598 0.6864897608757019
0.6480741500854492 -0.05943072587251663 0.6816225647926331
0.6461375951766968 -0.060396719723939896 0.6797289252281189
0.6457318663597107 -0.05999092012643814 0.6797289252281189
0.6413122415542603 -0.06167946010828018 0.6757439374923706
0.6395388841629028 -0.06196418032050133 0.6744009852409363
0.6388529539108276 -0.062314994633197784 0.6737245917320251
0.6361644864082336 -0.061925001442432404 0.672225296497345
0.6337811350822449 -0.05758749693632126 0.6735001802444458
0.6327407360076904 -0.05580754578113556 0.6739826202392578
0.6324290633201599 -0.05512681603431702 0.6742233633995056
0.6277945637702942 -0.059552151709795 0.6683126091957092
0.627051830291748 -0.059935715049505234 0.6675776839256287
0.6258800029754639 -0.059896089136600494 0.6668390035629272
0.6228493452072144 -0.06145406514406204 0.6638453006744385
0.6201007962226868 -0.06221122294664383 0.6615581512451172
0.6090739369392395 -0.06587179005146027 0.651975691318512
0.606099545955658 -0.06668899208307266 0.649502158164978
0.6034489870071411 -0.06671291589736938 0.6477571129798889
0.601202130317688 -0.06723963469266891 0.6459477543830872
0.597676157951355 -0.06754966825246811 0.6434448957443237
0.5948847532272339 -0.06765490025281906 0.6415551900863647
0.5920587778091431 -0.06776157021522522 0.6396417617797852
0.5904670357704163 -0.06814540922641754 0.6383529901504517
0.58919757604599 -0.06786968559026718 0.637704610824585
0.5831212401390076 -0.06994470208883286 0.6323865056037903
0.5821027159690857 -0.0705021396279335 0.6313583254814148
0.5774765610694885 -0.07228416204452515 0.6271775364875793
0.5769919753074646 -0.07179945707321167 0.6271775364875793
0.6704050302505493 -0.08165673166513443 0.6809182167053223
0.66941899061203 -0.07953078299760818 0.6816641688346863
0.6683632731437683 -0.07771853357553482 0.6821591854095459
0.6663405895233154 -0.07381641864776611 0.6833889484405518
0.6643363237380981 -0.06994982063770294 0.6846072673797607
0.6619544625282288 -0.06572265177965164 0.6858146786689758
0.6586596965789795 -0.059509795159101486 0.6877239346504211
0.6567394137382507 -0.057395439594984055 0.6878511309623718
0.6535226106643677 -0.05777956545352936 0.6854950189590454
0.6518858671188354 -0.0579945370554924 0.6842833161354065
0.6470561027526855 -0.05975465476512909 0.6799717545509338
0.6440529823303223 -0.06060292199254036 0.6774516105651855
0.6391701102256775 -0.06187913566827774 0.6734217405319214
0.6364672780036926 -0.061535660177469254 0.6718781590461731
0.6343935132026672 -0.057896725833415985 0.6729021072387695
0.6254822611808777 -0.05978641286492348 0.6658352017402649
0.6204645037651062 -0.061705879867076874 0.6612960696220398
0.6192509531974792 -0.06167007237672806 0.6605255603790283
0.6184659004211426 -0.0620693638920784 0.6597505807876587
0.6160856485366821 -0.06327970325946808 0.657401442527771
0.6140364408493042 -0.06365665048360825 0.6558138728141785
0.6047632694244385 -0.06705836951732635 0.6475207805633545
0.6026264429092407 -0.0673711895942688 0.6459178328514099
