ply
format ascii 1.0
element vertex 811
property float x
property float y
property float z
end_header
0.6301124095916748 -0.042321812361478806 0.6632751822471619
0.6341003179550171 -0.040627215057611465 0.6615443825721741
0.6406935453414917 -0.032513637095689774 0.6556439995765686
0.6424378156661987 -0.032776396721601486 0.6554616093635559
0.6443274617195129 -0.03283584490418434 0.6551347374916077
0.6475957036018372 -0.029585933312773705 0.6526520252227783
0.5855269432067871 -0.008379781618714333 0.6513831615447998
0.5863178968429565 -0.008643432520329952 0.6513831615447998
0.5766648054122925 -0.029989171773195267 0.665485680103302
0.5782820582389832 -0.033542219549417496 0.6672156453132629
0.5787662267684937 -0.034273412078619 0.6675428748130798
0.5805602073669434 -0.035830650478601456 0.6680934429168701
0.5948509573936462 -0.040385693311691284 0.6679737567901611
0.5964556336402893 -0.040699105709791183 0.6678465008735657
0.5992523431777954 -0.04201080650091171 0.668064534664154
0.6016092300415039 -0.04833563417196274 0.6712448000907898
0.6020010113716125 -0.0491325780749321 0.6716271638870239
0.6040835380554199 -0.05007413029670715 0.6717694401741028
0.6059916615486145 -0.04988635703921318 0.671296238899231
0.6088061928749084 -0.049696728587150574 0.6706487536430359
0.6155803799629211 -0.04346455633640289 0.6657743453979492
0.618737518787384 -0.042856067419052124 0.6648210883140564
0.6206782460212708 -0.04409903660416603 0.665162980556488
0.6268669366836548 -0.04452970623970032 0.6642256379127502
0.6282452940940857 -0.04387546703219414 0.6635866165161133
0.6320081949234009 -0.042485207319259644 0.6620683073997498
0.6336231231689453 -0.04151158779859543 0.6612001061439514
0.5861597061157227 -0.010820428840816021 0.6516920328140259
0.5777665376663208 -0.0280907042324543 0.6632512807846069
0.577494740486145 -0.030242690816521645 0.6645432710647583
0.5785080194473267 -0.03165233135223389 0.6651605367660522
0.5787551999092102 -0.03282466158270836 0.6657884120941162
0.5801277160644531 -0.03516296297311783 0.6668719053268433
0.582082211971283 -0.03642727807164192 0.6672243475914001
0.5840520858764648 -0.03765290603041649 0.6675524711608887
0.5854642987251282 -0.038290947675704956 0.6676487922668457
0.5861755609512329 -0.03859996423125267 0.6676902770996094
0.588402271270752 -0.03936507925391197 0.6677032113075256
0.5907834768295288 -0.03986629471182823 0.6675345301628113
0.5915298461914062 -0.040115080773830414 0.6675345301628113
0.5923234820365906 -0.040284279733896255 0.6674802303314209
0.598176121711731 -0.04247058182954788 0.6676158905029297
0.5994292497634888 -0.04481702670454979 0.6687267422676086
0.5999314785003662 -0.0468999445438385 0.6698300838470459
0.6006715893745422 -0.04714670777320862 0.6698300838470459
0.6024437546730042 -0.050017211586236954 0.6711428761482239
0.6077153086662292 -0.05017115920782089 0.6702195405960083
0.6087547540664673 -0.04995328187942505 0.6698945164680481
0.6142433881759644 -0.044292669743299484 0.665580153465271
0.6161771416664124 -0.04413684830069542 0.6651191711425781
0.6196892857551575 -0.04299704357981682 0.6637881398200989
0.6202794313430786 -0.0434986874461174 0.6639639735221863
0.6265837550163269 -0.04513657093048096 0.6636971235275269
0.630099356174469 -0.0440867617726326 0.662416934967041
0.6315348744392395 -0.043364252895116806 0.6617255806922913
0.6331465244293213 -0.0423944890499115 0.6608573794364929
0.6347680687904358 -0.0414188876748085 0.659984290599823
0.6365483403205872 -0.04022398591041565 0.6589537262916565
0.6435853838920593 -0.03292514383792877 0.6533990502357483
0.6445517539978027 -0.03292706981301308 0.653214156627655
0.6464493870735168 -0.032987259328365326 0.6528850793838501
0.5846238136291504 -0.010365493595600128 0.6507527828216553
0.586003839969635 -0.012980719096958637 0.6519983410835266
0.5785862803459167 -0.028373319655656815 0.662321925163269
0.5783629417419434 -0.030429139733314514 0.6635528206825256
0.5800608396530151 -0.03382784128189087 0.6651900410652161
0.5805395245552063 -0.03456832095980644 0.6655257940292358
0.5974222421646118 -0.042400751262903214 0.6667996644973755
0.5987332463264465 -0.04466034844517708 0.6678531765937805
0.6002290844917297 -0.04802750423550606 0.6695106625556946
0.6015932559967041 -0.05012388527393341 0.6704593896865845
0.605887770652771 -0.05039867386221886 0.669791042804718
0.606924295425415 -0.050181254744529724 0.6694658398628235
0.6087037324905396 -0.0502101331949234 0.6691397428512573
0.6109666228294373 -0.049502693116664886 0.6682949066162109
0.6225728988647461 -0.04440407454967499 0.6631131172180176
0.6246052384376526 -0.04550806060433388 0.6633590459823608
0.6290314197540283 -0.044475313276052475 0.6619101166725159
0.6311988234519958 -0.04404469206929207 0.6612435579299927
0.6342890858650208 -0.04230346903204918 0.6596419215202332
0.6465636491775513 -0.03303243964910507 0.6519203782081604
0.6483446955680847 -0.03326363489031792 0.6517106890678406
0.5838755965232849 -0.010172349400818348 0.6498116254806519
0.5852590203285217 -0.012791207060217857 0.6510621905326843
0.5858489274978638 -0.015125942416489124 0.6523018479347229
0.5794051289558411 -0.028660083189606667 0.6613937616348267
0.5801638960838318 -0.02891305461525917 0.6613937616348267
0.5802403092384338 -0.03203566372394562 0.6631890535354614
0.582179844379425 -0.03496663272380829 0.6645135879516602
0.5832720994949341 -0.03619319200515747 0.6650142073631287
0.5846362113952637 -0.03692936897277832 0.6651768684387207
0.5865885019302368 -0.03819101303815842 0.6655313372612
0.5880494713783264 -0.038750410079956055 0.6655728816986084
0.5902652740478516 -0.039545632898807526 0.6656057834625244
0.592603325843811 -0.04013402760028839 0.6654952764511108
0.5941415429115295 -0.04056214168667793 0.6654460430145264
0.5962240695953369 -0.04157961905002594 0.6656336188316345
0.5966948866844177 -0.04228605329990387 0.665952205657959
0.5972921252250671 -0.04425501450896263 0.6669782996177673
0.5990496873855591 -0.04865957796573639 0.6691921949386597
0.6007549166679382 -0.0502111092209816 0.6697621941566467
0.6021044850349426 -0.05089862644672394 0.6698998212814331
0.6107395887374878 -0.05003080517053604 0.6677284240722656
0.6151120066642761 -0.0447285957634449 0.6638090014457703
0.6170499920845032 -0.04457313194870949 0.6633444428443909
0.6182391047477722 -0.04416562616825104 0.6628783941268921
0.6206435561180115 -0.043324705213308334 0.6619263887405396
0.6223439574241638 -0.04355302080512047 0.6617297530174255
0.622934103012085 -0.0440557599067688 0.6619073152542114
0.626194953918457 -0.04608872905373573 0.6624563932418823
0.6323021650314331 -0.04400237277150154 0.6600660681724548
0.6338112950325012 -0.04318586364388466 0.6593009829521179
0.6362024545669556 -0.04246770218014717 0.6584227085113525
0.63783860206604 -0.04148930683732033 0.6575391292572021
0.644730806350708 -0.03308386728167534 0.6513341069221497
0.6501628756523132 -0.03229817748069763 0.6498292684555054
0.5837265253067017 -0.012339470908045769 0.6501254439353943
0.585106611251831 -0.014939156360924244 0.6513700485229492
0.5854014754295349 -0.016100304201245308 0.6519879102706909
0.5856943726539612 -0.017258215695619583 0.6526045203208923
0.5864745378494263 -0.017518263310194016 0.6526045203208923
0.5808621644973755 -0.03105507232248783 0.6615668535232544
0.5821171998977661 -0.03363199904561043 0.6628221869468689
0.5825983285903931 -0.03436935320496559 0.6631576418876648
0.5841799378395081 -0.036315467208623886 0.6639832854270935
0.5861555933952332 -0.03754633292555809 0.6643159985542297
0.595970630645752 -0.04216476157307625 0.6650988459587097
0.5978506803512573 -0.04643360525369644 0.6672172546386719
0.598198413848877 -0.047320351004600525 0.6676660180091858
0.5999186038970947 -0.05029481276869774 0.6690624356269836
0.6068207621574402 -0.05069473758339882 0.6679566502571106
0.6086007356643677 -0.05072420462965965 0.6676287055015564
0.6124792098999023 -0.05031748116016388 0.6666403412818909
0.6192749738693237 -0.04417990520596504 0.6617530584335327
0.6212289333343506 -0.044022805988788605 0.6612829566001892
0.6244756579399109 -0.04471173882484436 0.6610540747642517
0.62652987241745 -0.045790478587150574 0.6612829566001892
0.6271585822105408 -0.04623062536120415 0.6614170074462891
0.6319848299026489 -0.04465517774224281 0.6595650911331177
0.6373547315597534 -0.04237649217247963 0.6571986079216003
0.638996958732605 -0.04139655828475952 0.6563106179237366
0.6485328078269958 -0.03341676667332649 0.6498197913169861
0.6521941423416138 -0.03104940988123417 0.6477331519126892
0.5829787850379944 -0.012149212881922722 0.6491867899894714
0.5840653777122498 -0.013583832420408726 0.6498127579689026
0.5852485299110413 -0.018226901069283485 0.6522921919822693
0.5860276222229004 -0.018486598506569862 0.6522921919822693
0.5831081867218018 -0.025481533259153366 0.6569415926933289
0.581804096698761 -0.029494090005755424 0.6595366597175598
0.5819782018661499 -0.032423894852399826 0.6612124443054199
0.5827338099479675 -0.032675810158252716 0.6612124443054199
0.5844687819480896 -0.03595782816410065 0.662790060043335
0.586452066898346 -0.03718338906764984 0.6631193161010742
0.5877185463905334 -0.038091033697128296 0.6634029746055603
0.5884685516357422 -0.038341037929058075 0.6634029746055603
0.5906121730804443 -0.0392729714512825 0.6635299921035767
0.5920872688293457 -0.03981335461139679 0.663557767868042
0.5927984714508057 -0.04012801870703697 0.6636030673980713
0.5940227508544922 -0.04108774662017822 0.6639249920845032
0.5961542129516602 -0.04498738795518875 0.6657859683036804
0.6047809720039368 -0.05125313252210617 0.6677646040916443
0.6116854548454285 -0.05032769963145256 0.665881335735321
0.6124290227890015 -0.050575416535139084 0.665881335735321
0.6179251074790955 -0.045010752975940704 0.6615648865699768
0.6235093474388123 -0.043578848242759705 0.6596433520317078
0.6242514848709106 -0.0438585989177227 0.6596623063087463
0.624841570854187 -0.04436193406581879 0.659841001033783
0.6281747221946716 -0.046300433576107025 0.6603241562843323
0.6330899596214294 -0.044614288955926895 0.6583842039108276
0.6345196962356567 -0.043917421251535416 0.6576995253562927
0.6352846622467041 -0.04417240247130394 0.6576995253562927
0.6385109424591064 -0.04228495433926582 0.6559706330299377
0.6402317881584167 -0.04120148718357086 0.6550034284591675
0.6468605399131775 -0.0332363024353981 0.6490662693977356
0.6542597413063049 -0.029767610132694244 0.6456029415130615
0.6550561785697937 -0.030033143237233162 0.6456029415130615
0.5830464363098145 -0.010419185273349285 0.6471867561340332
0.5839160084724426 -0.015729017555713654 0.65012526512146
0.5845094323158264 -0.018042445182800293 0.651363730430603
0.5857484936714172 -0.02082408405840397 0.6527506113052368
0.5835757851600647 -0.026430029422044754 0.6564563512802124
0.5826259851455688 -0.02978517673909664 0.6586056351661682
0.5826113224029541 -0.03143405169248581 0.6595737934112549
0.5843906402587891 -0.03466618061065674 0.6611188650131226
0.5861338376998901 -0.03633018583059311 0.6617527008056641
0.5941867232322693 -0.04247760400176048 0.6637800335884094
0.5954560041427612 -0.04483013227581978 0.6649097204208374
0.5960690975189209 -0.04676071181893349 0.6659201383590698
0.5985596179962158 -0.04707164317369461 0.6656163334846497
0.5997165441513062 -0.04809416085481644 0.6659888625144958
0.600458025932312 -0.04834131896495819 0.6659888625144958
0.5998547673225403 -0.05073724314570427 0.6675091981887817
0.6001796722412109 -0.05164015293121338 0.6679747700691223
0.6021088361740112 -0.05140925198793411 0.6674631834030151
0.6095413565635681 -0.05102134123444557 0.6657854914665222
0.6144835948944092 -0.05039603263139725 0.6644551753997803
0.6201560497283936 -0.044618356972932816 0.6599656939506531
0.6221141219139099 -0.04446175694465637 0.659492015838623
0.6265587210655212 -0.04476933926343918 0.6588043570518494
0.628463864326477 -0.04607426002621651 0.6591969132423401
0.6300179958343506 -0.046529073268175125 0.6591602563858032
0.6327767968177795 -0.045259807258844376 0.6578781008720398
0.6364001631736755 -0.044129952788352966 0.6565102934837341
0.6414790153503418 -0.04099495708942413 0.6536837816238403
0.6422525644302368 -0.04125282168388367 0.6536837816238403
0.6487183570861816 -0.03357571363449097 0.6479279398918152
0.6506792306900024 -0.03357004001736641 0.6475417017936707
0.6524271368980408 -0.03386395797133446 0.647372841835022
0.5829228758811951 -0.012545180507004261 0.6474800705909729
0.5843546390533447 -0.013339261524379253 0.6476661562919617
0.5834710597991943 -0.016702773049473763 0.6498144865036011
0.5837688446044922 -0.017857976257801056 0.6504343152046204
0.5843603610992432 -0.02015502192080021 0.6516677141189575
0.5853396058082581 -0.023382719606161118 0.6533718705177307
0.5840428471565247 -0.027376869693398476 0.6559716463088989
0.5834494829177856 -0.030076749622821808 0.6576734185218811
0.5842108130455017 -0.030330536887049675 0.6576734185218811
0.584245502948761 -0.03188113495707512 0.6585772633552551
0.5844805240631104 -0.0330660417675972 0.6592270731925964
0.5848157405853271 -0.03406577929854393 0.6597484350204468
0.5860448479652405 -0.035066913813352585 0.6600958108901978
0.5882763862609863 -0.03743885084986687 0.6610521674156189
0.5896416306495667 -0.03818101808428764 0.6612206697463989
0.590255618095398 -0.0386681854724884 0.6613869667053223
0.5921667814254761 -0.040001899003982544 0.6617960929870605
0.593483567237854 -0.042318232357501984 0.6628987193107605
0.5952784419059753 -0.04675997793674469 0.6651561260223389
0.6003894209861755 -0.04718201979994774 0.6644032001495361
0.6057580709457397 -0.05147891491651535 0.6658758521080017
0.6067315340042114 -0.05136271193623543 0.6656168103218079
0.6144333481788635 -0.05065483599901199 0.6636931300163269
0.6199986338615417 -0.04504203423857689 0.6593073606491089
0.6243789196014404 -0.04405082389712334 0.6578677296638489
0.6255764961242676 -0.04366051033139229 0.6574041247367859
0.6263384222984314 -0.04391453042626381 0.6574041247367859
0.6269291043281555 -0.04441945627331734 0.6575847864151001
0.6281649470329285 -0.045345187187194824 0.657886803150177
0.628804087638855 -0.0457751639187336 0.6580138206481934
0.6311067938804626 -0.04650518670678139 0.6579921841621399
0.6375410556793213 -0.044057171791791916 0.6552944779396057
0.6408354640007019 -0.042101360857486725 0.6535009741783142
0.5833254456520081 -0.018825938925147057 0.6501249074935913
0.5839180946350098 -0.021115664392709732 0.6513577103614807
0.5849869251251221 -0.02251180075109005 0.6519701480865479
0.5850173234939575 -0.025768352672457695 0.6538829803466797
0.5845456123352051 -0.028256366029381752 0.655441403388977
0.5851233005523682 -0.03207613155245781 0.6575783491134644
0.5864745378494263 -0.03446638584136963 0.6587217450141907
0.5879620909690857 -0.036583732813596725 0.6596768498420715
0.5885059237480164 -0.03719944506883621 0.6599329113960266
0.5913136005401611 -0.04008670523762703 0.6610826253890991
0.593311071395874 -0.044265903532505035 0.6631529927253723
0.5940563678741455 -0.04451433941721916 0.6631529927253723
0.5978348851203918 -0.04713188111782074 0.6639531254768372
0.5987111330032349 -0.04716410115361214 0.663799524307251
0.6004666686058044 -0.047228388488292694 0.6634927988052368
0.602091372013092 -0.047507818788290024 0.6633383631706238
0.6013622879981995 -0.05152127519249916 0.6658464670181274
0.6021113991737366 -0.05175046622753143 0.6658343076705933
0.6104848980903625 -0.05131983757019043 0.6639362573623657
0.6122773289680481 -0.05135016515851021 0.6636016368865967
0.6166076064109802 -0.050312772393226624 0.6621400117874146
0.6230018138885498 -0.04490179568529129 0.6576960682868958
0.6321989297866821 -0.04648121818900108 0.6568208336830139
0.6343483328819275 -0.046100255101919174 0.6561737656593323
0.6357564926147461 -0.045441608875989914 0.6555094122886658
0.6427773833274841 -0.042266931384801865 0.6522595882415771
0.649881899356842 -0.033736951649188995 0.6458383798599243
0.6508674621582031 -0.033730268478393555 0.6456408500671387
0.6526454091072083 -0.033987607806921005 0.645443320274353
0.6547695398330688 -0.033775731921195984 0.6449014544487
0.5841881036758423 -0.012209783308207989 0.6450769901275635
0.5828831195831299 -0.019790630787611008 0.649815022945404
0.5834766030311584 -0.022073721513152122 0.6510476469993591
0.5849596858024597 -0.026024317368865013 0.6530909538269043
0.5861408710479736 -0.03362287953495979 0.6573497653007507
0.5872774720191956 -0.034794341772794724 0.6578183174133301
0.5897972583770752 -0.03823216259479523 0.6593537926673889
0.5902403593063354 -0.03901374712586403 0.6597281694412231
0.5923425555229187 -0.04305487498641014 0.6617030501365662
0.5938829779624939 -0.046448685228824615 0.6634058952331543
0.5942750573158264 -0.047274500131607056 0.6638162732124329
0.6027434468269348 -0.049505364149808884 0.6634666919708252
0.60382080078125 -0.0520523376762867 0.6647599339485168
0.6067389249801636 -0.051705315709114075 0.663979709148407
0.6084571480751038 -0.05183669179677963 0.6637186408042908
0.6153901815414429 -0.050954077392816544 0.6618314385414124
0.6164495944976807 -0.05073484778404236 0.661492645740509
0.6216399073600769 -0.04573482647538185 0.6575143337249756
0.6272690892219543 -0.04430834576487541 0.6555619835853577
0.6282656192779541 -0.04422235116362572 0.6553152799606323
0.6302133202552795 -0.04548250883817673 0.6556762456893921
0.631513774394989 -0.04631417244672775 0.6559112668037415
0.6332948207855225 -0.046457305550575256 0.6556451916694641
0.6340578198432922 -0.0467115081846714 0.6556451916694641
0.6383174657821655 -0.04470420628786087 0.653619110584259
0.6398568153381348 -0.0438799150288105 0.6528285145759583
0.6406270265579224 -0.04413668066263199 0.6528285145759583
0.6422845125198364 -0.043158158659935 0.651923418045044
0.6527385711669922 -0.034071777015924454 0.644493043422699
0.6547130942344666 -0.03406606614589691 0.6441003680229187
0.6568342447280884 -0.03252343460917473 0.6427706480026245
0.582442045211792 -0.020753396674990654 0.6495067477226257
0.5841041207313538 -0.024418214336037636 0.6513513922691345
0.5848246812820435 -0.02805902436375618 0.6533684134483337
0.5858548879623413 -0.031083308160305023 0.6549578905105591
0.5860715508460999 -0.03230417147278786 0.655639111995697
0.5881203413009644 -0.0366230234503746 0.6577953696250916
0.5903475880622864 -0.04052447900176048 0.6596683263778687
0.5916382670402527 -0.042895540595054626 0.6608198285102844
0.5921738743782043 -0.044999100267887115 0.661961019039154
0.5937104821205139 -0.048370230942964554 0.6636561751365662
0.5988634824752808 -0.04725651815533638 0.6619775295257568
0.6006219983100891 -0.047321006655693054 0.6616684198379517
0.6022483110427856 -0.047602083534002304 0.6615132689476013
0.6040241718292236 -0.04764999449253082 0.6611908078193665
0.6042498350143433 -0.05014214664697647 0.662624180316925
0.6039330959320068 -0.0520511195063591 0.6638187766075134
0.6047945022583008 -0.052108097821474075 0.663682222366333
0.6074844598770142 -0.05212424322962761 0.6631600856781006
0.6084617376327515 -0.052008580416440964 0.6628981232643127
0.6132282614707947 -0.05164996162056923 0.6617432832717896
0.6182109713554382 -0.05102473497390747 0.6603876352310181
0.6238920092582703 -0.04534319415688515 0.6558951139450073
0.6251030564308167 -0.04493315517902374 0.6554126739501953
0.636555016040802 -0.04605071246623993 0.6538114547729492
0.6379930377006531 -0.045361995697021484 0.6531192660331726
0.6417922377586365 -0.044048011302948 0.6515888571739197
0.645203173160553 -0.041981250047683716 0.6496891975402832
0.6520391702651978 -0.03389216586947441 0.6435409784317017
0.6528316736221313 -0.034156329929828644 0.6435409784317017
0.6548131704330444 -0.03414386138319969 0.6431418061256409
0.6589173674583435 -0.03126047924160957 0.6406210064888
0.5806227922439575 -0.019165202975273132 0.6479566693305969
0.5817022919654846 -0.02057199738919735 0.6485794186592102
0.5823004245758057 -0.02285044640302658 0.6498163342475891
0.5833704471588135 -0.024240033701062202 0.6504310965538025
0.5839581489562988 -0.026489200070500374 0.6516526341438293
0.5855105519294739 -0.030235763639211655 0.6535735130310059
0.5876365900039673 -0.03605451062321663 0.656613826751709
0.5882813930511475 -0.03806118667125702 0.6576794981956482
0.5896386504173279 -0.0403624102473259 0.6587794423103333
0.5901845693588257 -0.0424862876534462 0.659934401512146
0.5914719700813293 -0.04484138637781143 0.6610802412033081
0.5946017503738403 -0.04853496327996254 0.6626572012901306
0.5963975191116333 -0.047058138996362686 0.6614229083061218
0.6056447625160217 -0.04812399670481682 0.6602227687835693
0.6050130724906921 -0.05053385719656944 0.6617819666862488
0.6094458103179932 -0.05206464231014252 0.6618133187294006
0.6104276776313782 -0.05194832384586334 0.6615496873855591
0.6121554970741272 -0.052080411463975906 0.661285400390625
0.6163501143455505 -0.051254455000162125 0.6599624156951904
0.6181614995002747 -0.05128491297364235 0.6596214175224304
0.6281474232673645 -0.04478300362825394 0.6537728309631348
0.630201518535614 -0.044531840831041336 0.6532158255577087
0.6322086453437805 -0.045712947845458984 0.6535206437110901
0.6328407526016235 -0.04615708440542221 0.6536597013473511
0.6342364549636841 -0.04685579240322113 0.6537985801696777
0.6391171216964722 -0.0453217588365078 0.6519181728363037
0.6446321606636047 -0.04297708719968796 0.6494295001029968
0.6464679837226868 -0.04177549481391907 0.648350179195404
0.6472461819648743 -0.042034901678562164 0.648350179195404
0.6559016108512878 -0.03422224149107933 0.6419865489006042
0.6568913459777832 -0.03422220051288605 0.6417900919914246
0.5801838040351868 -0.02013043686747551 0.6476507782936096
0.5815629959106445 -0.02267141453921795 0.6488931775093079
0.5838130712509155 -0.028547167778015137 0.6519525051116943
0.5854458212852478 -0.032117705792188644 0.6537584662437439
0.5857191681861877 -0.0332365557551384 0.6543717980384827
0.5859959721565247 -0.03434262424707413 0.6549767255783081
0.5867553353309631 -0.03459560126066208 0.6549767255783081
0.5878985524177551 -0.038881074637174606 0.6573069095611572
0.5889288783073425 -0.040200356394052505 0.6578894853591919
0.589478075504303 -0.042326103895902634 0.6590486168861389
0.5913066864013672 -0.04677480459213257 0.6613395810127258
0.5923159718513489 -0.04806092008948326 0.6619070768356323
0.5956608653068542 -0.048429496586322784 0.6614612340927124
0.5964035391807556 -0.04867704212665558 0.6614612340927124
0.5998961925506592 -0.04738190025091171 0.6599932909011841
0.6007774472236633 -0.04741426184773445 0.6598374247550964
0.6024069786071777 -0.047695498913526535 0.6596812009811401
0.604174792766571 -0.047760795801877975 0.659368634223938
0.6058087348937988 -0.0480429083108902 0.659212052822113
0.6064150929450989 -0.04851461201906204 0.6593725681304932
0.6057925820350647 -0.0523068793118 0.6617599129676819
0.6067497730255127 -0.052220575511455536 0.661517858505249
0.6104328036308289 -0.05212072655558586 0.660725474357605
0.6141823530197144 -0.051951151341199875 0.6598781943321228
0.6202467083930969 -0.051106277853250504 0.6581676602363586
0.6255465745925903 -0.04603934288024902 0.6540893316268921
0.6267621517181396 -0.04563000798225403 0.653603196144104
0.6395605206489563 -0.046235207468271255 0.6514179110527039
0.6424771547317505 -0.04483628645539284 0.6500030159950256
0.6485182046890259 -0.04182885214686394 0.6470065116882324
0.6587815880775452 -0.03456602990627289 0.6406301856040955
0.5797843933105469 -0.019305597990751266 0.6462675929069519
0.5797461271286011 -0.021092817187309265 0.6473455429077148
0.5808249115943909 -0.02249162457883358 0.647967517375946
0.5814244747161865 -0.024757016450166702 0.6492043733596802
0.5824939608573914 -0.02613837458193302 0.6498181819915771
0.5836684703826904 -0.0305912084877491 0.6522499322891235
0.5866237282752991 -0.036562204360961914 0.6552350521087646
0.5893180966377258 -0.044277794659137726 0.6593170166015625
0.5900644659996033 -0.044526465237140656 0.6593170166015625
0.5911429524421692 -0.048694878816604614 0.6615970730781555
0.5928859114646912 -0.050222959369421005 0.6621643304824829
0.5956690907478333 -0.050040632486343384 0.6614996194839478
0.6065372228622437 -0.051326408982276917 0.6601001024246216
0.6104384064674377 -0.052293095737695694 0.6599005460739136
0.6121683120727539 -0.05242565646767616 0.6596348285675049
0.6141437888145447 -0.05219351127743721 0.659101665019989
0.6169990301132202 -0.05202417075634003 0.6584301590919495
0.6191290020942688 -0.051586609333753586 0.6577431559562683
0.6201976537704468 -0.051367104053497314 0.6573985815048218
0.6220213174819946 -0.05139784514904022 0.6570529341697693
0.6266022324562073 -0.046056948602199554 0.652940571308136
0.6290444731712341 -0.04523560404777527 0.6519615054130554
0.6302955150604248 -0.044788658618927 0.6514442563056946
0.6323225498199463 -0.04459035396575928 0.6509209275245667
0.6341755986213684 -0.04599935561418533 0.6513950228691101
0.6349422931671143 -0.04625493288040161 0.6513950228691101
0.6362064480781555 -0.047144707292318344 0.6516751050949097
0.6406882405281067 -0.04619663581252098 0.6502135396003723
0.6421480178833008 -0.045497674494981766 0.6495033502578735
0.6453137993812561 -0.04378015547990799 0.6478435397148132
0.6460896730422974 -0.04403863847255707 0.6478435397148132
0.6477753520011902 -0.0430540032684803 0.6469173431396484
0.6497954726219177 -0.041621532291173935 0.645656168460846
0.6570895314216614 -0.034385956823825836 0.6398683190345764
0.6588840484619141 -0.03464526683092117 0.639665424823761
0.5797321796417236 -0.01954808086156845 0.6454518437385559
0.57930988073349 -0.022052623331546783 0.6470409631729126
0.5812869071960449 -0.02682803012430668 0.6495133638381958
0.5829414129257202 -0.030420035123825073 0.6513397693634033
0.5848631262779236 -0.035058483481407166 0.6537410616874695
0.5851494073867798 -0.03614334762096405 0.6543351411819458
0.5864719152450562 -0.03855295851826668 0.6555178761482239
0.5870330929756165 -0.040691979229450226 0.6566903591156006
0.5880618691444397 -0.04200531169772148 0.657273530960083
0.5899041295051575 -0.04646287113428116 0.6595817804336548
0.592222273349762 -0.050016917288303375 0.6612526178359985
0.5985357761383057 -0.04846596345305443 0.6590566039085388
0.6025655269622803 -0.0477895550429821 0.6578436493873596
0.6043365001678467 -0.04785493016242981 0.6575280427932739
0.6059731245040894 -0.04813754931092262 0.6573702692985535
0.6068613529205322 -0.04817058891057968 0.6572123169898987
0.607303261756897 -0.051719460636377335 0.6592554450035095
0.6080480217933655 -0.05196772515773773 0.6592554450035095
0.6084797382354736 -0.05269711837172508 0.6596070528030396
0.6162006258964539 -0.052035167813301086 0.6576641798019409
0.6180133819580078 -0.05206620320677757 0.6573194861412048
0.6230841279029846 -0.05138580501079559 0.6558953523635864
0.6276615858078003 -0.04607425630092621 0.6517885327339172
0.6332997679710388 -0.04474601894617081 0.6498621106147766
0.6403658390045166 -0.04684847220778465 0.6497095823287964
0.6448158025741577 -0.044672783464193344 0.6475121378898621
0.6489654779434204 -0.042962703853845596 0.6456543803215027
0.6615151762962341 -0.034010082483291626 0.637764036655426
0.5799519419670105 -0.024400964379310608 0.6473585963249207
0.5802534818649292 -0.025528859347105026 0.6479779481887817
0.5816211104393005 -0.02802734263241291 0.6492089033126831
0.5828002691268921 -0.03245255723595619 0.6516385078430176
0.5838532447814941 -0.033801350742578506 0.6522399187088013
0.5857570767402649 -0.03838850185275078 0.6546216607093811
0.5863214731216431 -0.040529899299144745 0.6557986736297607
0.5876938700675964 -0.042794495820999146 0.6568873524665833
0.5897632837295532 -0.04835529252886772 0.6598225235939026
0.5977935194969177 -0.04983510822057724 0.6591010689735413
0.5996077060699463 -0.04835980013012886 0.6578481793403625
0.6010158658027649 -0.0475480854511261 0.657075822353363
0.6087384223937988 -0.048264000564813614 0.6559562087059021
0.6087305545806885 -0.04968944936990738 0.6568166017532349
0.6114346385002136 -0.05252278596162796 0.6579806804656982
0.6121808290481567 -0.05277155712246895 0.6579806804656982
0.6141583323478699 -0.05253958702087402 0.6574437022209167
0.6200999021530151 -0.051889482885599136 0.6558589339256287
0.6287235617637634 -0.046091966331005096 0.6506327986717224
0.6319495439529419 -0.04552194103598595 0.649641752243042
0.6342788338661194 -0.04490240663290024 0.6488006711006165
0.6362870335578918 -0.04609676077961922 0.6491171717643738
0.6381860971450806 -0.047435030341148376 0.6495417952537537
0.6429547071456909 -0.0461190789937973 0.6477911472320557
0.650234043598175 -0.04277060925960541 0.6443114280700684
0.65728360414505 -0.03455634042620659 0.6379456520080566
0.6580811142921448 -0.03482218086719513 0.6379456520080566
0.6636261343955994 -0.032752346247434616 0.6355846524238586
0.6644296646118164 -0.033020198345184326 0.6355846524238586
0.579073429107666 -0.02278398722410202 0.6455929279327393
0.5798196196556091 -0.026476014405488968 0.6476743221282959
0.5824213624000549 -0.028377171605825424 0.648299515247345
0.5834202170372009 -0.03472476452589035 0.6519355773925781
0.5837097764015198 -0.035811807960271835 0.6525340676307678
0.5839980244636536 -0.03689473867416382 0.6531303524971008
0.5842852592468262 -0.037972960621118546 0.6537246108055115
0.5850405693054199 -0.03822476789355278 0.6537246108055115
0.5856084227561951 -0.040367815643548965 0.6549056172370911
0.5880115628242493 -0.042409513145685196 0.6556553244590759
0.5877519249916077 -0.04590194299817085 0.6578186750411987
0.5901772975921631 -0.04931138455867767 0.6593911647796631
0.5914486050605774 -0.05015424266457558 0.6596444249153137
0.5927765965461731 -0.050898972898721695 0.659827470779419
0.5943374633789062 -0.05125947296619415 0.6597306728363037
0.5970548391342163 -0.05119708180427551 0.6591451168060303
0.6006836295127869 -0.0482528880238533 0.6566346883773804
0.6027283668518066 -0.0478782057762146 0.6559958457946777
0.604499101638794 -0.04794928804039955 0.6556822657585144
0.6061384081840515 -0.04823241010308266 0.6555231809616089
0.6104738116264343 -0.048587504774332047 0.6548638939857483
0.6102537512779236 -0.0503319650888443 0.6559628844261169
0.6096523404121399 -0.052649207413196564 0.6574843525886536
0.617914080619812 -0.0525883212685585 0.6557829976081848
0.6189814209938049 -0.052369870245456696 0.6554363965988159
0.6200511455535889 -0.0521509014070034 0.6550883650779724
0.624029278755188 -0.051743071526288986 0.6540403962135315
0.628563404083252 -0.04651987925171852 0.6499687433242798
0.6305555105209351 -0.04636479914188385 0.6494736671447754
0.6343130469322205 -0.045053448528051376 0.64792400598526
0.636030912399292 -0.045315686613321304 0.6477364897727966
0.6411889791488647 -0.04744119942188263 0.6479823589324951
0.6440941691398621 -0.046079494059085846 0.6465736627578735
0.6463454961776733 -0.04563450813293457 0.6458510160446167
0.651517391204834 -0.04256504774093628 0.6429532766342163
0.6523002982139587 -0.042826008051633835 0.6429532766342163
0.66208815574646 -0.03501870483160019 0.6362613439559937
0.6665814518928528 -0.03172921761870384 0.633367657661438
0.5799230933189392 -0.0281055998057127 0.6476791501045227
0.5808159708976746 -0.02813553810119629 0.647516667842865
0.5824794769287109 -0.028422249481081963 0.647354245185852
0.5819376111030579 -0.03430264815688133 0.6510294675827026
0.5838549137115479 -0.03888394311070442 0.6534198522567749
0.5873243808746338 -0.0467882938683033 0.6575123071670532
0.5885736346244812 -0.04768732190132141 0.6578047871589661
0.5981188416481018 -0.051096219569444656 0.6579424142837524
0.6025129556655884 -0.048395272344350815 0.6554161310195923
0.6054695844650269 -0.0480295829474926 0.6545971035957336
0.6097891330718994 -0.04841268062591553 0.6539561152458191
0.6105421781539917 -0.048663705587387085 0.6539561152458191
0.614173173904419 -0.05288660526275635 0.6557830572128296
0.6210740804672241 -0.05219340696930885 0.6539676189422607
0.6229029893875122 -0.05222519859671593 0.6536176800727844
0.6250618100166321 -0.051785003393888474 0.6529140472412109
0.6328606605529785 -0.04597075656056404 0.6478116512298584
0.6382743716239929 -0.046385642141103745 0.6469688415527344
0.6460122466087341 -0.046298231929540634 0.6453520059585571
0.649147629737854 -0.04466690123081207 0.643729031085968
0.6535902619361877 -0.04262035712599754 0.6415898203849792
0.6602600812911987 -0.03501032292842865 0.6356266736984253
0.6621710062026978 -0.03512880578637123 0.6353118419647217
0.5794878602027893 -0.02569974958896637 0.6453419327735901
0.5825585126876831 -0.03656274452805519 0.6513274312019348
0.5841791033744812 -0.04004393890500069 0.6531165242195129
0.5863136053085327 -0.04101543501019478 0.6532750725746155
0.5880515575408936 -0.04111909866333008 0.652985692024231
0.5892484784126282 -0.042150791734457016 0.6533700823783875
0.5884820818901062 -0.04800232872366905 0.657085657119751
0.590118944644928 -0.049734439700841904 0.6578074097633362
0.5908342599868774 -0.05002502351999283 0.6578390002250671
0.5923044681549072 -0.050540752708911896 0.6578545570373535
0.5946509838104248 -0.05108238011598587 0.6577085256576538
0.5961756110191345 -0.05151059105992317 0.6576597690582275
0.6017559766769409 -0.04977269098162651 0.6554706692695618
0.6046640276908875 -0.048040539026260376 0.6538272500038147
0.606303870677948 -0.048327792435884476 0.6536694765090942
0.6124500036239624 -0.048734016716480255 0.6526705622673035
0.6115409731864929 -0.05290823429822922 0.6553939580917358
0.6122886538505554 -0.05315745994448662 0.6553939580917358
0.6189144253730774 -0.05284580960869789 0.6538607478141785
0.6250141263008118 -0.05204777792096138 0.6521385908126831
0.626097559928894 -0.051827214658260345 0.6517848372459412
0.626854419708252 -0.052079491317272186 0.6517848372459412
0.6314643025398254 -0.046812064945697784 0.647645115852356
0.6326988339424133 -0.046400923281908035 0.6471446752548218
0.6372696757316589 -0.04531751945614815 0.6455589532852173
0.6380026936531067 -0.0456305593252182 0.6456006765365601
0.638636589050293 -0.046082478016614914 0.6457473039627075
0.6400436758995056 -0.04678795859217644 0.6458911299705505
0.642013430595398 -0.0480353981256485 0.64625084400177
0.6434377431869507 -0.04739566519856453 0.6455729007720947
0.6442103385925293 -0.0476531982421875 0.6455729007720947
0.6503414511680603 -0.044578179717063904 0.6424581408500671
0.6548856496810913 -0.04241384193301201 0.6402201056480408
0.664982259273529 -0.03561283275485039 0.6340353488922119
0.5792598724365234 -0.027948275208473206 0.645792543888092
0.5800355672836304 -0.028194475919008255 0.6457849144935608
0.582596480846405 -0.02851199358701706 0.645457923412323
0.5807837247848511 -0.03505764529109001 0.649821400642395
0.5810789465904236 -0.03614375367760658 0.6504243612289429
0.582420289516449 -0.03855596110224724 0.6516236066818237
0.5829979777336121 -0.04069904983043671 0.652813732624054
0.5840363502502441 -0.04201405122876167 0.6534052491188049
0.5889715552330017 -0.041245900094509125 0.6519319415092468
0.5901688933372498 -0.04227907210588455 0.6523192524909973
0.587647557258606 -0.04806938394904137 0.6563659906387329
0.599493145942688 -0.05211387947201729 0.6564247012138367
0.6010034084320068 -0.051142413169145584 0.6555242538452148
0.6116117835044861 -0.048793286085128784 0.6519328355789185
0.6125190258026123 -0.04881156235933304 0.6517592668533325
0.6125726699829102 -0.05152531713247299 0.653404712677002
0.6151812672615051 -0.053118523210287094 0.6538461446762085
0.6161763072013855 -0.05300251394510269 0.6535727977752686
0.6238849759101868 -0.05253047123551369 0.6517168879508972
0.6249660849571228 -0.052310675382614136 0.6513628959655762
0.6337755918502808 -0.04641889035701752 0.64597487449646
0.6350177526473999 -0.04600578173995018 0.6454700827598572
0.6431384086608887 -0.04801362007856369 0.645043671131134
0.6468265056610107 -0.04692276567220688 0.6436274647712708
0.6483129262924194 -0.04621964693069458 0.6428960561752319
0.6523218154907227 -0.044750045984983444 0.6411837339401245
0.6614078283309937 -0.03525277227163315 0.6335394978523254
0.6623377799987793 -0.035349346697330475 0.6334092020988464
0.6640638113021851 -0.035721633583307266 0.6332852244377136
0.6663995981216431 -0.03529683127999306 0.6325511336326599
0.5817016363143921 -0.03839126601815224 0.650722861289978
0.5823370218276978 -0.04044000059366226 0.6518475413322449
0.5837806463241577 -0.04261518269777298 0.6528847217559814
0.5860122442245483 -0.04185213893651962 0.6519622802734375
0.5904933214187622 -0.041890621185302734 0.6510716080665588
0.5910914540290833 -0.04240727797150612 0.6512653231620789
0.5891068577766418 -0.048773329704999924 0.6555680632591248
0.5905418395996094 -0.04935651645064354 0.6556317806243896
0.5920026302337646 -0.04989579692482948 0.6556642055511475
0.5927199125289917 -0.05018729716539383 0.6556963920593262
0.5941816568374634 -0.0507236085832119 0.6557259559631348
0.5964940786361694 -0.05133363604545593 0.6556278467178345
0.5980642437934875 -0.051696114242076874 0.6555292010307312
0.5995939373970032 -0.05212529003620148 0.6554800868034363
0.6004795432090759 -0.052148304879665375 0.6553131341934204
0.6020802855491638 -0.05104103684425354 0.6543084383010864
0.6039215922355652 -0.04956420138478279 0.6530285477638245
0.605739414691925 -0.04813674837350845 0.6517840027809143
0.6064927577972412 -0.04838772863149643 0.6517840027809143
0.6082566380500793 -0.048489734530448914 0.6514859199523926
0.6140415072441101 -0.049481287598609924 0.6509129405021667
0.6199360489845276 -0.053078386932611465 0.6519118547439575
0.6209400296211243 -0.05296188220381737 0.6516358256340027
0.6278471946716309 -0.052385445684194565 0.6498733162879944
0.6289375424385071 -0.05216466262936592 0.6495161056518555
0.6368792653083801 -0.046272654086351395 0.6442875862121582
0.6381727457046509 -0.045799415558576584 0.6437341570854187
0.6407583951950073 -0.04620533064007759 0.6434552073478699
0.6420477032661438 -0.04707959666848183 0.6437275409698486
0.6440894603729248 -0.04823454096913338 0.6440175771713257
0.6450403332710266 -0.04824955388903618 0.6438327431678772
0.6494690179824829 -0.046179965138435364 0.6416620016098022
0.6502479314804077 -0.04643959924578667 0.6416620016098022
0.6518111228942871 -0.04564816877245903 0.64085853099823
0.6535255908966064 -0.04466164857149124 0.6399044990539551
0.6553258895874023 -0.043569255620241165 0.6388683915138245
0.6659966111183167 -0.03604879602789879 0.6320865750312805
0.668427050113678 -0.03419112041592598 0.6304534673690796
0.5810444951057434 -0.02831428498029709 0.643720805644989
0.5827136039733887 -0.028602009639143944 0.6435558199882507
0.5804115533828735 -0.03602825105190277 0.648588240146637
0.581667423248291 -0.03860447555780411 0.6499128937721252
0.5847444534301758 -0.04265177249908447 0.6517690420150757
0.5877358317375183 -0.04213952273130417 0.6508418321609497
0.5899899005889893 -0.041371993720531464 0.6499091982841492
0.5908188223838806 -0.04150084778666496 0.6498187184333801
0.5921738743782043 -0.04227085039019585 0.6500138640403748
0.6031610369682312 -0.0509391650557518 0.6530882716178894
0.612686276435852 -0.048923324793577194 0.6499006152153015
0.6145075559616089 -0.048959311097860336 0.6495499014854431
0.6155804991722107 -0.05012880638241768 0.6500479578971863
0.6148790121078491 -0.05256756767630577 0.6516896486282349
0.6161932945251465 -0.05335109308362007 0.6519017219543457
0.624870240688324 -0.052837174385786057 0.6498101949691772
0.6300588250160217 -0.05210072174668312 0.6482956409454346
0.6367107033729553 -0.046712733805179596 0.6436243057250977
0.6403859257698059 -0.04559270665049553 0.6421846151351929
0.6444627046585083 -0.047933321446180344 0.642787516117096
0.6461746096611023 -0.048227839171886444 0.6426178216934204
0.6476432681083679 -0.0475475937128067 0.641899049282074
0.6547343730926514 -0.04457284137606621 0.6386207938194275
0.6566272974014282 -0.04336436465382576 0.63749098777771
0.6642367839813232 -0.03593822196125984 0.6313720941543579
0.6651681661605835 -0.03603746369481087 0.6312426924705505
0.6660804152488708 -0.036162734031677246 0.6311329007148743
0.6713561415672302 -0.03325089439749718 0.6282646059989929
0.5803812146186829 -0.03623330593109131 0.6477675437927246
0.5833407044410706 -0.04213210195302963 0.6507941484451294
0.5887097120285034 -0.04217583313584328 0.6497182846069336
0.5925028920173645 -0.04188131168484688 0.6487579941749573
0.5931018590927124 -0.04239959269762039 0.6489542126655579
0.5909671187400818 -0.04897625371813774 0.6534444093704224
0.5924322009086609 -0.049517106264829636 0.6534769535064697
0.5938699841499329 -0.050101567059755325 0.6535418033599854
0.5945886373519897 -0.050393640995025635 0.6535739898681641
0.5960522890090942 -0.05093420296907425 0.6536061763763428
0.5983881950378418 -0.05151914805173874 0.6534873843193054
0.6007088422775269 -0.052131254225969315 0.6533877849578857
0.602461040019989 -0.052217692136764526 0.653080940246582
0.6042454838752747 -0.05083728954195976 0.6518643498420715
0.6084483861923218 -0.048552006483078 0.6495930552482605
0.6102203726768494 -0.04865257814526558 0.6492913365364075
0.6162641644477844 -0.04928624629974365 0.648440420627594
0.6163650751113892 -0.050524961203336716 0.649182915687561
0.6209614276885986 -0.053312093019485474 0.6499561667442322
0.6227234601974487 -0.05344730243086815 0.6496778130531311
0.628843367099762 -0.05269284546375275 0.6479558348655701
0.6345481872558594 -0.0472746379673481 0.6434460878372192
0.6390776038169861 -0.046282824128866196 0.641904890537262
0.6403791904449463 -0.045808106660842896 0.6413453221321106
0.6411551833152771 -0.04606681317090988 0.6413453221321106
0.642159104347229 -0.046010177582502365 0.6411036849021912
0.6440610289573669 -0.04737289249897003 0.6415531039237976
0.6454719305038452 -0.048080891370773315 0.6416995525360107
0.6461064219474792 -0.048530180007219315 0.6418461203575134
0.6510700583457947 -0.04706780984997749 0.6399253606796265
0.6525743007659912 -0.04636120796203613 0.6391811370849609
0.6559473872184753 -0.044483572244644165 0.6373318433761597
0.6567336320877075 -0.04474564269185066 0.6373318433761597
0.6587238907814026 -0.04342172294855118 0.6361075639724731
0.6688230633735657 -0.036762092262506485 0.6299307942390442
0.5829501152038574 -0.028477491810917854 0.6414903998374939
0.5846315026283264 -0.028753595426678658 0.6413147449493408
0.582370400428772 -0.040843162685632706 0.6492526531219482
0.5855602025985718 -0.04310665652155876 0.6499942541122437
0.586679995059967 -0.04272572696208954 0.6495279669761658
0.5919527411460876 -0.04144269973039627 0.6476487517356873
0.5927112698554993 -0.04169553518295288 0.6476487517356873
0.5934332013130188 -0.042009685188531876 0.6476942896842957
0.5940319299697876 -0.04252873733639717 0.6478918194770813
0.594630241394043 -0.04304689168930054 0.6480886936187744
0.5940873622894287 -0.049912456423044205 0.6524435877799988
0.6000852584838867 -0.05186116322875023 0.6524123549461365
0.6034846305847168 -0.05220809951424599 0.6519269347190857
0.6042324304580688 -0.052457358688116074 0.6519269347190857
0.6060851216316223 -0.050985150039196014 0.650635302066803
0.6079549193382263 -0.049498237669467926 0.6493309140205383
0.6137651801109314 -0.04905403405427933 0.6478592157363892
0.6146675944328308 -0.04908781126141548 0.6476942896842957
0.6163362860679626 -0.04936481639742851 0.6475216746330261
0.6164380311965942 -0.0533611960709095 0.6499709486961365
0.618963360786438 -0.05371978506445885 0.6496723890304565
0.6258591413497925 -0.05314471572637558 0.6478961110115051
0.6266170144081116 -0.05339721590280533 0.6478961110115051
0.6309858560562134 -0.05251549929380417 0.6464507579803467
0.6376351118087769 -0.04716407135128975 0.6417733430862427
0.6484615802764893 -0.048173535615205765 0.6401671767234802
0.6537436842918396 -0.0463215634226799 0.6379344463348389
0.6600382328033447 -0.043215397745370865 0.6347182393074036
0.6662467122077942 -0.036393534392118454 0.629222571849823
0.5863696336746216 -0.02908816747367382 0.6401898264884949
0.5825083255767822 -0.03757132962346077 0.646247148513794
0.5826821327209473 -0.038861021399497986 0.6470110416412354
0.5828712582588196 -0.040116000920534134 0.6477498412132263
0.5840283036231995 -0.04124172031879425 0.648208498954773
0.5895344614982605 -0.04263215512037277 0.6479326486587524
0.5906655788421631 -0.042248744517564774 0.6474610567092896
0.5963212847709656 -0.04342946410179138 0.6470247507095337
0.5935846567153931 -0.04942969232797623 0.6513103246688843
0.5943054556846619 -0.049722686409950256 0.6513428092002869
0.5950260162353516 -0.05001574382185936 0.6513758301734924
0.5964938402175903 -0.05055772885680199 0.6514083743095398
0.5987133383750916 -0.0513414703309536 0.651435911655426
0.6002500057220459 -0.05177253484725952 0.6513855457305908
0.601829469203949 -0.05213701352477074 0.65128493309021
0.6071790456771851 -0.050882622599601746 0.6494017839431763
0.6104143261909485 -0.04871701821684837 0.6473903656005859
0.6182712912559509 -0.049435921013355255 0.6462121605873108
0.617931604385376 -0.05132606253027916 0.6474545001983643
0.6186888217926025 -0.05157848075032234 0.6474545001983643
0.6227466464042664 -0.053798675537109375 0.6479923725128174
0.6309394836425781 -0.05278049781918526 0.6456680297851562
0.6328009963035583 -0.05281319469213486 0.6453032493591309
0.6420670747756958 -0.046552106738090515 0.6395065188407898
0.6441608667373657 -0.04632943123579025 0.638935923576355
0.6462263464927673 -0.04747549816966057 0.6392197012901306
0.6474982500076294 -0.04837701842188835 0.6395153999328613
0.6481490135192871 -0.04880595952272415 0.6396470069885254
0.6503955721855164 -0.048397310078144073 0.6389296054840088
0.6549168825149536 -0.046282168477773666 0.6366837024688721
0.6574311852455139 -0.04556044563651085 0.6357165575027466
0.6591755151748657 -0.044567059725522995 0.6347405314445496
0.6613174676895142 -0.04306178539991379 0.6333644986152649
0.6698473691940308 -0.037200622260570526 0.6279674172401428
0.5848199129104614 -0.028723755851387978 0.6393088698387146
0.5864315032958984 -0.02913392335176468 0.6392296552658081
0.583398699760437 -0.03774967044591904 0.6452171802520752
0.5835705399513245 -0.0390404537320137 0.6459845304489136
0.584534227848053 -0.04051477834582329 0.6467016339302063
0.5853326916694641 -0.04226057976484299 0.6476215720176697
0.5935451984405518 -0.04215330630540848 0.6458522081375122
0.5946880578994751 -0.04176740720868111 0.6453754901885986
0.5952999591827393 -0.04226797819137573 0.6455601453781128
0.5966590642929077 -0.043041035532951355 0.6457591652870178
0.606407880783081 -0.052258651703596115 0.6494709849357605
0.6082764863967896 -0.05078006163239479 0.6481636166572571
0.6139446496963501 -0.04915166273713112 0.6459758877754211
0.6148486137390137 -0.04918555170297623 0.6458096504211426
0.6165136098861694 -0.04947282373905182 0.6456432342529297
0.6183450222015381 -0.04951482266187668 0.6452892422676086
0.6200404167175293 -0.04976487532258034 0.6450934410095215
0.6190971732139587 -0.053902674466371536 0.6478627920150757
0.6209936738014221 -0.053838618099689484 0.6474296450614929
0.6217492818832397 -0.054090481251478195 0.6474296450614929
0.6276105046272278 -0.05370651185512543 0.6459760069847107
0.62870192527771 -0.05348673090338707 0.6456125974655151
0.6385738253593445 -0.047601066529750824 0.6399056911468506
0.6405957937240601 -0.047461435198783875 0.639399528503418
0.6444942951202393 -0.04608127102255821 0.6377330422401428
0.6466056108474731 -0.04717105254530907 0.6379735469818115
0.6515565514564514 -0.048361897468566895 0.6376875638961792
0.6569113731384277 -0.04646272957324982 0.6353959441184998
0.6604791879653931 -0.04437781870365143 0.6333597898483276
0.6626001596450806 -0.0429094173014164 0.6320066452026367
0.5883051156997681 -0.02924167737364769 0.6379306316375732
0.5842911005020142 -0.03792853280901909 0.644184947013855
0.5844608545303345 -0.03922014683485031 0.6449557542800903
0.5854431390762329 -0.040661487728357315 0.6456508040428162
0.5862396359443665 -0.042408887296915054 0.6465749740600586
