ply
format ascii 1.0
element vertex 812
property float x
property float y
property float z
end_header
0.6020898818969727 -0.01763572357594967 0.6717950701713562
0.5997995734214783 -0.013720404356718063 0.6728830933570862
0.6007488965988159 -0.007613231427967548 0.6776072978973389
0.5843144655227661 0.0060354783199727535 0.6757422089576721
0.5841070413589478 0.006731447763741016 0.6760692596435547
0.5831834673881531 0.010340339504182339 0.6778672933578491
0.5800410509109497 0.016531584784388542 0.6799082159996033
0.5736386775970459 0.01828616112470627 0.6767966747283936
0.5678439140319824 0.016387799754738808 0.671646237373352
0.563349187374115 0.016322607174515724 0.6685934662818909
0.6156229376792908 -0.03938045725226402 0.6654838919639587
0.6122050881385803 -0.02977162040770054 0.6696406006813049
0.6119515299797058 -0.029033176600933075 0.6699662208557129
0.6105325818061829 -0.025684945285320282 0.6712615489959717
0.6096224784851074 -0.02381720580160618 0.6719045042991638
0.6074502468109131 -0.021992206573486328 0.6716713309288025
0.6017370223999023 -0.01616780087351799 0.6717459559440613
0.6014493703842163 -0.015536663122475147 0.671976625919342
0.6005682945251465 -0.01368698850274086 0.6726270318031311
0.5998926758766174 -0.011494994163513184 0.6736450791358948
0.6003053784370422 -0.009663600474596024 0.6751517653465271
0.6001263856887817 -0.005577539559453726 0.6777752041816711
0.5998061895370483 -0.0050368658266961575 0.6779232621192932
0.5837452411651611 0.00808253139257431 0.6759481430053711
0.582443356513977 0.014044133946299553 0.679076611995697
0.5777164697647095 0.018004002049565315 0.678561806678772
0.5758829116821289 0.01836639642715454 0.677574098110199
0.5624538064002991 0.016078650951385498 0.6670213937759399
0.6131647229194641 -0.043626122176647186 0.6601546406745911
0.6152282357215881 -0.03787846490740776 0.6654139757156372
0.614031195640564 -0.03390110656619072 0.6672860980033875
0.6138052940368652 -0.03308771550655365 0.6676817536354065
0.6119914054870605 -0.02796122431755066 0.6699122786521912
0.6046048998832703 -0.020447473973035812 0.6699978709220886
0.6043246984481812 -0.019789215177297592 0.6702525615692139
0.6020829081535339 -0.01574483886361122 0.6714661717414856
0.5998148918151855 -0.008477010764181614 0.6748327016830444
0.5994786620140076 -0.0035990828182548285 0.6778908967971802
0.5845545530319214 0.008155970834195614 0.675757110118866
0.5828695893287659 0.01261131837964058 0.6776224970817566
0.5806880593299866 0.01818496733903885 0.67990642786026
0.5793849229812622 0.018292700871825218 0.6791015863418579
0.5769820213317871 0.0188131183385849 0.6778339147567749
0.5664365887641907 0.018205201253294945 0.6703240275382996
0.6131253838539124 -0.04266469180583954 0.6599467992782593
0.6150781512260437 -0.035864729434251785 0.6658573150634766
0.6122838854789734 -0.02762620337307453 0.6695335507392883
0.6104548573493958 -0.02387971431016922 0.6708282828330994
0.6097082495689392 -0.021706461906433105 0.6717917919158936
0.6077004075050354 -0.019585510715842247 0.671868085861206
0.604658305644989 -0.019384467974305153 0.6699496507644653
0.6015666723251343 -0.013436726294457912 0.6718782782554626
0.6005808711051941 -0.01178482361137867 0.6723281145095825
0.5997226238250732 -0.009923258796334267 0.6730055809020996
0.5997301340103149 -0.00769692612811923 0.6745139956474304
0.6000915765762329 -0.005982358939945698 0.6759158968925476
0.600271999835968 -0.0035044108517467976 0.6777109503746033
0.5827860236167908 0.014328434132039547 0.6779451966285706
0.5821329951286316 0.016292404383420944 0.6788305640220642
0.5747102499008179 0.018527846783399582 0.6753276586532593
0.5704193711280823 0.014774860814213753 0.6698958277702332
0.5686668753623962 0.01816924847662449 0.6710047721862793
0.5669061541557312 0.017798563465476036 0.6695653200149536
0.566493570804596 0.01821121759712696 0.6695653200149536
0.565597414970398 0.01801581121981144 0.6688283085823059
0.5620613694190979 0.01640486903488636 0.6653527617454529
0.561642587184906 0.016823722049593925 0.6653527617454529
0.6130967140197754 -0.04168207570910454 0.6597623825073242
0.6129346489906311 -0.0406954288482666 0.6603206992149353
0.6140949726104736 -0.03175042197108269 0.6671639680862427
0.6138697862625122 -0.030942365527153015 0.6675586700439453
0.6132307052612305 -0.02972215600311756 0.6679523587226868
0.6116592288017273 -0.025415245443582535 0.6698047518730164
0.6074162721633911 -0.017981093376874924 0.6719658374786377
0.6043002009391785 -0.017912989482283592 0.6699015498161316
0.6040210723876953 -0.01725897565484047 0.6701555848121643
0.6021983027458191 -0.013644012622535229 0.6713691353797913
0.6012163162231445 -0.01198270358145237 0.6718291640281677
0.600055992603302 -0.009527076035737991 0.6727063655853271
0.5996257662773132 -0.001536322059109807 0.6778264045715332
0.5847848057746887 0.01025024987757206 0.6757580041885376
0.5839707851409912 0.011044193990528584 0.6757442355155945
0.5785612463951111 0.018888864666223526 0.6773935556411743
0.5764764547348022 0.018913859501481056 0.6759986281394958
0.5647515654563904 0.01782434806227684 0.6673205494880676
0.6129579544067383 -0.039608828723430634 0.6602452397346497
0.6147119402885437 -0.03330584615468979 0.6657171249389648
0.6121840476989746 -0.025850528851151466 0.6690635085105896
0.6105383038520813 -0.021767526865005493 0.670718789100647
0.6096326112747192 -0.01991746574640274 0.6713600158691406
0.6075408458709717 -0.016790566965937614 0.6720629334449768
0.5994201898574829 -0.007477761246263981 0.6728726625442505
0.5999725461006165 -0.004350112751126289 0.6753718852996826
0.5995698571205139 -0.003947381861507893 0.6753718852996826
0.5993813276290894 2.4656057576066814e-05 0.6779414415359497
0.5840907692909241 0.01209087111055851 0.6757517457008362
0.5836885571479797 0.012493092566728592 0.6757517457008362
0.5824747681617737 0.016577938571572304 0.6777016520500183
0.5822224020957947 0.018131747841835022 0.6785853505134583
0.5748388767242432 0.01854036934673786 0.6738485097885132
0.5703340172767639 0.017354536801576614 0.6699838638305664
0.5699234008789062 0.017765216529369354 0.6699838638305664
0.5688000917434692 0.018200378865003586 0.6695163249969482
0.5657092928886414 0.018026649951934814 0.6672993898391724
0.6131332516670227 -0.03952531889081001 0.6595925092697144
0.613296627998352 -0.0275955218821764 0.6678288578987122
0.6117393374443054 -0.02329435385763645 0.6696977615356445
0.6103312969207764 -0.019996829330921173 0.67098468542099
0.6091820001602173 -0.01744161732494831 0.6719422936439514
0.6070155501365662 -0.015648702159523964 0.6716877818107605
0.6059558391571045 -0.015284411609172821 0.67121422290802
0.6023129224777222 -0.011555369012057781 0.671272873878479
0.6013336181640625 -0.009902480989694595 0.67173171043396
0.6000697016716003 -0.00764409638941288 0.6724088788032532
0.5994769930839539 -0.0053611327894032 0.6735601425170898
0.6000143885612488 -0.0001454319281037897 0.6774784922599792
0.5803642272949219 0.01927555352449417 0.677322268486023
0.5786962509155273 0.018901277333498 0.6759313941001892
0.5670779943466187 0.017814435064792633 0.6672783493995667
0.5666640996932983 0.018228402361273766 0.6672783493995667
0.564862072467804 0.017834816128015518 0.6657829284667969
0.6125734448432922 -0.03703569993376732 0.660080075263977
0.614763617515564 -0.031177008524537086 0.6655778288841248
0.6141753792762756 -0.029843874275684357 0.6660864949226379
0.6122522950172424 -0.023746725171804428 0.6689376831054688
0.6113691329956055 -0.02182876132428646 0.669644296169281
0.608818769454956 -0.0159961748868227 0.671886146068573
0.6007011532783508 -0.007841427810490131 0.6719114780426025
0.6000512838363647 0.000817568798083812 0.6773820519447327
0.5991302132606506 0.0024635109584778547 0.6778771877288818
0.5843191742897034 0.014158708043396473 0.675748884677887
0.5839173793792725 0.014558334834873676 0.6757473349571228
0.5825632214546204 0.01841816119849682 0.6774590015411377
0.5766737461090088 0.018932797014713287 0.6737877726554871
0.5710923075675964 0.018189527094364166 0.6694678068161011
0.5689183473587036 0.018211988732218742 0.6679983139038086
0.5658219456672668 0.018037982285022736 0.6657644510269165
0.6128955483436584 -0.037955861538648605 0.6588418483734131
0.6125934720039368 -0.03596596047282219 0.6599978804588318
0.6143739819526672 -0.02970186248421669 0.6655081510543823
0.6140304803848267 -0.027876729145646095 0.6665230393409729
0.6131722927093506 -0.025863146409392357 0.6673147082328796
0.6100071668624878 -0.017500026151537895 0.6708753108978271
0.606859564781189 -0.012881272472441196 0.6718828678131104
0.6055324077606201 -0.013007646426558495 0.6708872318267822
0.6038282513618469 -0.01265176571905613 0.6699636578559875
0.60230553150177 -0.009692488238215446 0.6709477305412292
0.600193977355957 -0.005580265540629625 0.6723182201385498
0.5992084741592407 -0.003976810723543167 0.6727413535118103
0.5993183851242065 -0.0016321692382916808 0.6744227409362793
0.5997284054756165 0.00012023439194308594 0.675903856754303
0.5988878011703491 0.004008328076452017 0.6779913306236267
0.5898184776306152 0.016158035025000572 0.6801013946533203
0.5832294821739197 0.016384916380047798 0.6757434010505676
0.5805026888847351 0.01928880624473095 0.6758646965026855
0.5750319361686707 0.018557734787464142 0.6716166138648987
0.5720283389091492 0.018388960510492325 0.6694437265396118
0.5671936869621277 0.01782561093568802 0.6657460927963257
0.5667788982391357 0.01824050396680832 0.6657460927963257
0.5640637278556824 0.017647413536906242 0.6634802222251892
0.614088773727417 -0.03969666734337807 0.6576336026191711
0.6136630773544312 -0.0392698310315609 0.6576345562934875
0.6142281889915466 -0.02773439697921276 0.6659467220306396
0.6114497184753418 -0.019727487117052078 0.6695384979248047
0.6089059114456177 -0.013928525149822235 0.6717744469642639
0.6069844961166382 -0.011708417907357216 0.6719797253608704
0.6056661605834961 -0.011819826439023018 0.6709975600242615
0.603882372379303 -0.011610428802669048 0.6699161529541016
0.6008193492889404 -0.005784064996987581 0.6718142628669739
0.5845444798469543 0.01621098816394806 0.6757436990737915
0.5788997411727905 0.01891990564763546 0.6737270355224609
0.571215033531189 0.018201077356934547 0.6679542660713196
0.568146824836731 0.018027927726507187 0.6657275557518005
0.6132935881614685 -0.037688132375478745 0.6576344966888428
0.6122116446495056 -0.033413030207157135 0.6598343849182129
0.6140835285186768 -0.025779392570257187 0.6663824915885925
0.6132380366325378 -0.023756636306643486 0.6671935319900513
0.6123846173286438 -0.021770378574728966 0.6679739952087402
0.6121645569801331 -0.020986169576644897 0.6683627367019653
0.6108333468437195 -0.01755860075354576 0.6698067784309387
0.6100910902023315 -0.015423944219946861 0.6707662343978882
0.602419376373291 -0.007626159116625786 0.6708529591560364
0.6001911759376526 -0.003743000328540802 0.6719930768013
0.5993371605873108 -0.0019291852368041873 0.6726543307304382
0.598749577999115 0.0003093132982030511 0.6737916469573975
0.5991619229316711 0.0020494339987635612 0.6752745509147644
0.5986396670341492 0.006422681733965874 0.6779272556304932
0.5918805003166199 0.016049396246671677 0.679902970790863
0.5901349186897278 0.018331177532672882 0.680272102355957
0.5838578343391418 0.01802898943424225 0.6757398247718811
0.5768717527389526 0.018950896337628365 0.6715622544288635
0.5721529126167297 0.018400859087705612 0.6679323315620422
0.565991997718811 0.018055405467748642 0.6634501218795776
0.6146214604377747 -0.037814751267433167 0.6576297283172607
0.6120638847351074 -0.03141436353325844 0.6602846384048462
0.6142808794975281 -0.025636643171310425 0.665807843208313
0.6138681769371033 -0.02522396855056286 0.665807843208313
0.612198531627655 -0.01994558610022068 0.6683011651039124
0.6089927554130554 -0.011872631497681141 0.6716636419296265
0.6061839461326599 -0.009005364030599594 0.6717039346694946
0.6055272817611694 -0.009053791873157024 0.6712169051170349
0.5847694277763367 0.018251370638608932 0.6757400631904602
0.5807101726531982 0.019307665526866913 0.6736655831336975
0.575226902961731 0.018575958907604218 0.6693717837333679
0.5700438022613525 0.0184304341673851 0.6656906008720398
0.5673677325248718 0.0178418830037117 0.6634349822998047
0.5669513940811157 0.018258100375533104 0.6634349822998047
0.5591582655906677 0.01611695997416973 0.6565716862678528
0.6138293743133545 -0.03581275790929794 0.6576336622238159
0.6122502088546753 -0.031299956142902374 0.659666121006012
0.6116644144058228 -0.02993958629667759 0.6602029204368591
0.6124520301818848 -0.019687192514538765 0.6678518056869507
0.6109150648117065 -0.01548112090677023 0.6697009205818176
0.6100154519081116 -0.013659792952239513 0.6703397631645203
0.6083890795707703 -0.009747275151312351 0.6719235777854919
0.6063096523284912 -0.007845055311918259 0.6718007922172546
0.6056604981422424 -0.007881250232458115 0.6713259220123291
0.6024090051651001 -0.005785573273897171 0.6705251932144165
0.6003103256225586 -0.0017084203427657485 0.6718960404396057
0.6000292301177979 -0.0011005975538864732 0.6721222996711731
0.5987875461578369 0.008427854627370834 0.677863597869873
0.5920616984367371 0.01803177036345005 0.6798577308654785
0.5916698575019836 0.018423449248075485 0.6798577308654785
0.5791043043136597 0.018938209861516953 0.6715083122253418
0.5761508941650391 0.01877356320619583 0.6693480014801025
0.5740198493003845 0.018798446282744408 0.667888879776001
0.5683234333992004 0.018044594675302505 0.663419783115387
0.5661056637763977 0.018066495656967163 0.6618984937667847
0.6183754205703735 -0.03968575969338417 0.6572672128677368
0.6167626976966858 -0.037812430411577225 0.657448410987854
0.6147130131721497 -0.03555208817124367 0.6575947403907776
0.6130384802818298 -0.03382047638297081 0.6576344966888428
0.6118490695953369 -0.029827337712049484 0.6595826148986816
0.613921582698822 -0.023138970136642456 0.6656695604324341
0.6122663021087646 -0.017873341217637062 0.6681782007217407
0.6103032231330872 -0.013334999792277813 0.669967532157898
0.6034170985221863 -0.006434652954339981 0.6699774861335754
0.5988388061523438 0.0021087462082505226 0.6727323532104492
0.5985140800476074 0.004736876115202904 0.6743329763412476
0.5989251136779785 0.006441699340939522 0.6758028864860535
0.5981540679931641 0.010341675952076912 0.6779770255088806
0.5896131992340088 0.02013811469078064 0.6788492798805237
0.5829102993011475 0.019293447956442833 0.67360520362854
0.5800136923789978 0.019133569672703743 0.6714814901351929
0.5723734498023987 0.01846148632466793 0.6657059192657471
0.5674840807914734 0.017852548509836197 0.6618856191635132
0.616001307964325 -0.035747647285461426 0.6575225591659546
0.6143613457679749 -0.03395034745335579 0.6576319932937622
0.6120155453681946 -0.029751960188150406 0.6589228510856628
0.6117069125175476 -0.027840444818139076 0.6600396633148193
0.6125190854072571 -0.017615752294659615 0.6677303314208984
0.6100989580154419 -0.011604271829128265 0.6702327728271484
0.6084769368171692 -0.007714421954005957 0.6718127727508545
0.6065597534179688 -0.00553834019228816 0.6719933748245239
0.6055141687393188 -0.005162219982594252 0.6715268492698669
0.603471577167511 -0.0054107788018882275 0.6699302792549133
0.6025205254554749 -0.0037434587720781565 0.6704294085502625
0.6004288792610168 0.00031453551491722465 0.6717994809150696
0.5982150435447693 0.004102118778973818 0.672896146774292
0.5890544056892395 0.020191291347146034 0.6777238845825195
0.5862514972686768 0.02003944292664528 0.6756650805473328
0.5781047344207764 0.019320597872138023 0.669487476348877
0.570249080657959 0.018478289246559143 0.6634269952774048
0.5684416890144348 0.01805567368865013 0.661872923374176
0.5602607727050781 0.017293643206357956 0.6556416749954224
0.618384838104248 -0.03757508844137192 0.6570773124694824
0.6135726571083069 -0.03196652978658676 0.6576337814331055
0.6118884086608887 -0.027732424437999725 0.6594156622886658
0.6139746308326721 -0.02106548845767975 0.6655320525169373
0.6106319427490234 -0.011982661671936512 0.6695432662963867
0.6031238436698914 -0.003981840796768665 0.6698874831199646
0.5998066663742065 0.0023254393599927425 0.6719769239425659
0.5983490943908691 0.006258321925997734 0.6737068295478821
0.5983637571334839 0.00834981445223093 0.675178587436676
0.5983025431632996 0.012325014919042587 0.67791348695755
0.5979099869728088 0.0127175934612751 0.67791348695755
0.5911027193069458 0.020159343257546425 0.6783567667007446
0.5903186798095703 0.019986726343631744 0.677688479423523
0.5846983790397644 0.019678760319948196 0.673545777797699
0.576808512210846 0.019403545185923576 0.6678400635719299
0.566277027130127 0.01808333769440651 0.6595584750175476
0.6164929866790771 -0.03395839035511017 0.6574515700340271
0.6144534349441528 -0.03171096369624138 0.6575971841812134
0.6127864122390747 -0.029989495873451233 0.6576352715492249
0.6120544672012329 -0.02765590511262417 0.658757746219635
0.611748993396759 -0.025752346962690353 0.6598775386810303
0.613591194152832 -0.01962326280772686 0.6654636859893799
0.6123976707458496 -0.01591968908905983 0.6672226190567017
0.6119611859321594 -0.014380467124283314 0.6679954528808594
0.6100236773490906 -0.009854823350906372 0.6698091626167297
0.6084046363830566 -0.005981527268886566 0.6713887453079224
0.6057667136192322 -0.002871254226192832 0.6717198491096497
0.6026310920715332 -0.0017133711371570826 0.6703340411186218
0.600425660610199 0.0021250233985483646 0.6714781522750854
0.5978682637214661 0.007416426204144955 0.6733942627906799
0.5924362540245056 0.02006819285452366 0.6784535646438599
0.5911867022514343 0.02017463557422161 0.6776524782180786
0.5884084701538086 0.02002333290874958 0.6755995154380798
0.583126962184906 0.01931430771946907 0.6714015007019043
0.5804943442344666 0.01952279917895794 0.6697028279304504
0.5760713815689087 0.020240524783730507 0.6671062707901001
0.5751853585243225 0.020018646493554115 0.6663299202919006
0.5742669701576233 0.019759386777877808 0.6655047535896301
0.5721938610076904 0.018950164318084717 0.6634846329689026
0.5676596760749817 0.017868762835860252 0.6595494747161865
0.5654231905937195 0.017889972776174545 0.6579971313476562
0.5622345209121704 0.017709555104374886 0.6556363105773926
0.6185441017150879 -0.03783689811825752 0.6553340554237366
0.6134496927261353 -0.017712412402033806 0.6658967733383179
0.611995279788971 -0.013358003459870815 0.667934775352478
0.6079666018486023 -0.003601031843572855 0.6719605326652527
0.6058923602104187 -0.0017324164509773254 0.6718159914016724
0.6020085215568542 0.00031584897078573704 0.6705260276794434
0.5999260544776917 0.004326161928474903 0.6718807816505432
0.5977861285209656 0.008175048045814037 0.673081636428833
0.5983698964118958 0.014171351678669453 0.6777060031890869
0.5977481007575989 0.015203582122921944 0.6779944896697998
0.592052161693573 0.020362069830298424 0.6776168346405029
0.586873471736908 0.019663985818624496 0.6734868288040161
0.5864758491516113 0.020061662420630455 0.6734868288040161
0.5840407609939575 0.01953021250665188 0.6714019775390625
0.5797767043113708 0.02036638930439949 0.6689931750297546
0.5750546455383301 0.020714497193694115 0.6659191846847534
0.5724331140518188 0.02013324573636055 0.6636682748794556
0.5686737895011902 0.018141308799386024 0.6596264839172363
0.5663922429084778 0.01809491403400898 0.6579903960227966
0.5604161024093628 0.017308125272393227 0.6532377600669861
0.6180515289306641 -0.03518068790435791 0.6560202240943909
0.6165945529937744 -0.0316898413002491 0.6574535369873047
0.6149646639823914 -0.029905332252383232 0.6575624942779541
0.6128987073898315 -0.027737479656934738 0.6576342582702637
0.6120931506156921 -0.025571024045348167 0.6585933566093445
0.6113740801811218 -0.023258863016963005 0.6597163081169128
0.6112091541290283 -0.022347545251250267 0.6602421998977661
0.6124645471572876 -0.013867626897990704 0.6671032309532166
0.6116241216659546 -0.011933261528611183 0.667874276638031
0.6101067662239075 -0.007819573394954205 0.6697041392326355
0.608491837978363 -0.003968619275838137 0.6712799668312073
0.60261070728302 8.362640073755756e-05 0.6699910759925842
0.6005429625511169 0.004126715008169413 0.6713832020759583
0.5980768799781799 0.008494692854583263 0.6727235317230225
0.5981183052062988 0.01061124075204134 0.6742445230484009
0.5985280275344849 0.012271750718355179 0.6757036447525024
0.5978224873542786 0.016182946041226387 0.6779627203941345
0.5905531048774719 0.020008375868201256 0.6755357384681702
0.5831282138824463 0.020086374133825302 0.6703577041625977
0.5818864107131958 0.020289933308959007 0.6696259379386902
0.5768311619758606 0.022028135135769844 0.6672881841659546
0.5739240646362305 0.02199014462530613 0.6652126312255859
0.5701429843902588 0.019002286717295647 0.6604421734809875
0.5677775144577026 0.01787986047565937 0.6579838991165161
0.5646184682846069 0.01770017296075821 0.6556309461593628
0.6187039613723755 -0.0381002314388752 0.6535810232162476
0.618130624294281 -0.03530808538198471 0.6551492810249329
0.6142122149467468 -0.027873994782567024 0.6576341390609741
0.6122591495513916 -0.025493379682302475 0.6579362154006958
0.6118403077125549 -0.02507464401423931 0.6579362154006958
0.6112310886383057 -0.021316828206181526 0.6601616144180298
0.6130962371826172 -0.015261499211192131 0.6657596826553345
0.609904408454895 -0.006115047261118889 0.6699681282043457
0.6095030307769775 -0.005713655613362789 0.6699681282043457
0.6078956723213196 -0.0018844699952751398 0.6715385317802429
0.605743408203125 0.0009303356637246907 0.6720068454742432
0.6050799489021301 0.0008732494316063821 0.6714973449707031
0.6021218299865723 0.0023265003692358732 0.670433759689331
0.5999235510826111 0.006119035184383392 0.6715608239173889
0.5978571772575378 0.010060708038508892 0.6728860139846802
0.5980364084243774 0.011363539844751358 0.6739335060119629
0.5984698534011841 0.016059640794992447 0.677558958530426
0.5951664447784424 0.01988929882645607 0.6779309511184692
0.5946707129478455 0.020123109221458435 0.6777457594871521
0.5886387228965759 0.020045729354023933 0.673427939414978
0.5828530192375183 0.020570680499076843 0.6697097420692444
0.5797688364982605 0.022079940885305405 0.6685965657234192
0.5755331516265869 0.02306753396987915 0.6663009524345398
0.574184775352478 0.023190995678305626 0.6654351353645325
0.5728438496589661 0.02240038849413395 0.6639288067817688
0.5623961091041565 0.01772557571530342 0.6532403826713562
0.5605204701423645 0.017318077385425568 0.651626706123352
0.6180619597434998 -0.033089760690927505 0.6558340787887573
0.6176407933235168 -0.032668787986040115 0.6558340787887573
0.6170979142189026 -0.029889114201068878 0.6574195027351379
0.6114170551300049 -0.02119411714375019 0.6595559120178223
0.6108375787734985 -0.01987406052649021 0.6600807309150696
0.6121261119842529 -0.011421945877373219 0.6669847369194031
0.6116927862167358 -0.009903542697429657 0.6677538752555847
0.6101893186569214 -0.005795814096927643 0.6695998311042786
0.6081796884536743 -0.001568177598528564 0.6711717844009399
0.605868399143219 0.002055055694654584 0.6721016764640808
0.6052119731903076 0.0020098150707781315 0.6716042757034302
0.6027205586433411 0.002092949813231826 0.6698974370956421
0.6002609133720398 0.0065158698707818985 0.6712890267372131
0.5994282364845276 0.008296896703541279 0.6719613075256348
0.5975593328475952 0.012510759755969048 0.6736232042312622
0.5979716777801514 0.014159620739519596 0.6750839948654175
0.5978906154632568 0.018010666593909264 0.6777563691139221
0.5922918319702148 0.02038579247891903 0.6754713654518127
0.5871314406394958 0.01972915790975094 0.6713483333587646
0.5867326259613037 0.020127974450588226 0.6713483333587646
0.585408627986908 0.02019060216844082 0.6704543828964233
0.5841984748840332 0.020423125475645065 0.6697614789009094
0.5814341902732849 0.0223469827324152 0.669165849685669
0.5784706473350525 0.024031521752476692 0.6682592630386353
0.5778341293334961 0.024128718301653862 0.6678769588470459
0.5753828287124634 0.02466500550508499 0.6665195822715759
0.5744442939758301 0.024386072531342506 0.6656566858291626
0.5735226273536682 0.024134330451488495 0.6648249626159668
0.5665655136108398 0.018112028017640114 0.6556254029273987
0.6182889938354492 -0.03556390479207039 0.6534003615379333
0.6176466941833496 -0.031627871096134186 0.6557415723800659
0.6163278222084045 -0.027896272018551826 0.6574567556381226
0.6143045425415039 -0.02566990628838539 0.6576011180877686
0.612649142742157 -0.023967238143086433 0.6576346158981323
0.6118796467781067 -0.02300095371901989 0.6577744483947754
0.6110231876373291 -0.01975082792341709 0.6594759225845337
0.6131510734558105 -0.01323019526898861 0.6656233072280884
0.6095871329307556 -0.003701119916513562 0.669863224029541
0.6079838275909424 0.00010600093082757667 0.6714297533035278
0.6021051406860352 0.0041109006851911545 0.6700979471206665
0.6000420451164246 0.008099102415144444 0.6714662313461304
0.5981598496437073 0.018297024071216583 0.6773771047592163
0.5961830019950867 0.0202015433460474 0.6773257255554199
0.5907891392707825 0.020030321553349495 0.6733700037002563
0.5887933969497681 0.020060967653989792 0.6719731688499451
0.5880071520805359 0.019905878230929375 0.6713041067123413
0.5828864574432373 0.022337917238473892 0.669393002986908
0.5800048112869263 0.02411140687763691 0.6686052083969116
0.5780138969421387 0.025220008566975594 0.6679781079292297
0.5713127851486206 0.02404721826314926 0.6623813509941101
0.5647870898246765 0.017716199159622192 0.6532427072525024
0.5625040531158447 0.017736224457621574 0.651634156703949
0.6118990778923035 -0.021968234330415726 0.6576938629150391
0.6108816862106323 -0.017827507108449936 0.6599202156066895
0.6127725839614868 -0.011812898330390453 0.6655554175376892
0.6121934056282043 -0.009393899701535702 0.6668668389320374
0.6113583445549011 -0.007482429500669241 0.6676341891288757
0.608267068862915 0.00042081731953658164 0.6710641384124756
0.6073920726776123 0.0021689697168767452 0.6716867089271545
0.6057204008102417 0.004687539767473936 0.6722903251647949
0.6050776243209839 0.004666286054998636 0.6718169450759888
0.5994269251823425 0.010072332806885242 0.6716426014900208
0.598203718662262 0.012233040295541286 0.6723108887672424
0.5973966121673584 0.014011410064995289 0.673003077507019
0.5974162817001343 0.016043847426772118 0.6744658946990967
0.5944111943244934 0.020368166267871857 0.675406277179718
0.586050271987915 0.020894356071949005 0.669821560382843
0.5842893123626709 0.022270694375038147 0.669547438621521
0.5821766257286072 0.024120181798934937 0.6693598031997681
0.5777906179428101 0.02670922316610813 0.6680788993835449
0.560678243637085 0.017333650961518288 0.6491976380348206
0.6182238459587097 -0.036308545619249344 0.6511333584785461
0.6182987689971924 -0.03346342593431473 0.6532205939292908
0.6178759336471558 -0.03304075449705124 0.6532205939292908
0.6176579594612122 -0.02955406717956066 0.6555570960044861
0.6164290904998779 -0.025665370747447014 0.6574585437774658
0.6148121953010559 -0.023897502571344376 0.6575664281845093
0.6127614974975586 -0.021751340478658676 0.6576347351074219
0.6126351952552795 -0.009945428930222988 0.6659837365150452
0.6111786365509033 -0.005729560274630785 0.6679564118385315
0.610351026058197 -0.003838153788819909 0.6687167882919312
0.6096709370613098 -0.0016999796498566866 0.6697590351104736
0.6041151285171509 0.0060764760710299015 0.6713465452194214
0.6022160649299622 0.00609825411811471 0.6700044274330139
0.5977461934089661 0.018403511494398117 0.6756055355072021
0.5925319194793701 0.020408308133482933 0.6733114123344421
0.5909473299980164 0.020045099779963493 0.6719189286231995
0.5808655619621277 0.026027854532003403 0.6689888834953308
0.6182153820991516 -0.035280633717775345 0.6510151028633118
0.6178810000419617 -0.031996048986911774 0.6531301140785217
0.6140502691268921 -0.021925441920757294 0.6576032638549805
0.6119861006736755 -0.019817017018795013 0.6576350927352905
0.6105126142501831 -0.015379190444946289 0.659760057926178
0.6120736002922058 -0.007726218085736036 0.666365385055542
0.6081959009170532 0.002122321631759405 0.6706456542015076
0.6074812412261963 0.004137412179261446 0.6715781092643738
0.6022711396217346 0.007087568752467632 0.6699579954147339
0.6018729209899902 0.007485813926905394 0.6699579954147339
0.6003750562667847 0.010267755948007107 0.6708784699440002
0.5995461940765381 0.01203102059662342 0.6715484261512756
0.5983260273933411 0.01418087538331747 0.6722148060798645
0.5971108078956604 0.016318703070282936 0.6728760600090027
0.5961280465126038 0.020742403343319893 0.6753429174423218
0.5945756435394287 0.02038399502635002 0.6739730834960938
0.5887166857719421 0.02060888335108757 0.6699343323707581
0.5864907503128052 0.022273607552051544 0.6695317029953003
0.5845192670822144 0.024299226701259613 0.6695706844329834
0.5824031233787537 0.02612987533211708 0.6693659424781799
0.5626673102378845 0.017752330750226974 0.6492120027542114
0.6177822351455688 -0.03383079171180725 0.6508970856666565
0.6178140640258789 -0.02979237586259842 0.6538233757019043
0.6172510385513306 -0.027072666212916374 0.6553738117218018
0.61692875623703 -0.023897685110569 0.6574246287345886
0.6132883429527283 -0.019965073093771935 0.6576346158981323
0.6103734970092773 -0.0134805366396904 0.6602010726928711
0.6126908659934998 -0.007943117059767246 0.6658477783203125
0.6108474731445312 -0.0033332305029034615 0.667836606502533
0.6104224920272827 -0.0018530795350670815 0.6685951948165894
0.6095972061157227 1.031404099194333e-05 0.669341504573822
0.6068940162658691 0.006179302465170622 0.6718332767486572
0.6043808460235596 0.008311311714351177 0.67155921459198
0.603683590888977 0.008207447826862335 0.6709831953048706
0.6019284725189209 0.00847172923386097 0.6699115037918091
0.5986608862876892 0.014568555168807507 0.6719455718994141
0.5971740484237671 0.01827458292245865 0.6735408306121826
0.5926932692527771 0.020423809066414833 0.6718646883964539
0.5810960531234741 0.0280307624489069 0.6689960956573486
0.5743909478187561 0.030421018600463867 0.6658939123153687
0.618153989315033 -0.03466833010315895 0.6497123837471008
0.6178197264671326 -0.0313841849565506 0.6518391370773315
0.616165280342102 -0.021931050345301628 0.6574615836143494
0.6141582727432251 -0.0197253730148077 0.6576047539710999
0.6121000051498413 -0.017625052481889725 0.6576352119445801
0.6116858720779419 -0.01721004769206047 0.6576358079910278
0.6105573773384094 -0.013355509378015995 0.659601092338562
0.6099850535392761 -0.012062090449035168 0.6601210832595825
0.6121407747268677 -0.0057169790379703045 0.6662497520446777
0.6091578006744385 0.002352209063246846 0.669916570186615
0.6082828044891357 0.00409207446500659 0.6705402731895447
0.6020199060440063 0.00951339676976204 0.6699334383010864
0.6004916429519653 0.012224985286593437 0.6707865595817566
0.598447859287262 0.016117548570036888 0.6721194982528687
0.5962948799133301 0.020758096128702164 0.673912763595581
0.5913200378417969 0.020261799916625023 0.6699685454368591
0.5885577201843262 0.02210654318332672 0.6693068742752075
0.5866675972938538 0.02423333004117012 0.6694774031639099
0.5847724676132202 0.026348086073994637 0.6696358919143677
0.5826758146286011 0.028190085664391518 0.6694523096084595
0.6177203059196472 -0.03321732580661774 0.6495958566665649
0.6174056529998779 -0.027303731068968773 0.6536439061164856
0.6172633767127991 -0.025021186098456383 0.6551913619041443
0.6171930432319641 -0.023888777941465378 0.6559590697288513
0.6113294959068298 -0.015706226229667664 0.6576356887817383
0.6101685762405396 -0.01193635817617178 0.6595219969749451
0.610008180141449 -0.011057708412408829 0.6600412726402283
0.6123439073562622 -0.005549248773604631 0.6657126545906067
0.6109175682067871 -0.001349695841781795 0.667717695236206
0.6100951433181763 0.0005195052945055068 0.6684744954109192
0.6069840788841248 0.00812611635774374 0.6717248558998108
0.604644775390625 0.01052850391715765 0.6717703938484192
0.6035560369491577 0.010824255645275116 0.6711970567703247
0.5987816452980042 0.01650291308760643 0.6718509197235107
0.5948232412338257 0.02040783315896988 0.6718122363090515
0.5921589136123657 0.020397841930389404 0.6698786020278931
0.5860257148742676 0.02609080635011196 0.669560432434082
0.5840398669242859 0.028073707595467567 0.6695582270622253
0.6178038120269775 -0.0293573010712862 0.6516029834747314
0.6162662506103516 -0.019736893475055695 0.6574634909629822
0.6146624088287354 -0.017985153943300247 0.6575706601142883
0.6126264929771423 -0.01586040109395981 0.657634973526001
0.6122077107429504 -0.0037187854759395123 0.6661348342895508
0.6105534434318542 3.693335747811943e-05 0.6676583886146545
0.6090854406356812 0.00404655234888196 0.6695011258125305
0.6083694100379944 0.006050699856132269 0.6704352498054504
0.6064009070396423 0.010147123597562313 0.6719780564308167
0.6061669588088989 0.01080407202243805 0.6722846627235413
0.6043828725814819 0.012023616582155228 0.6718753576278687
0.6006073355674744 0.014171060174703598 0.670694887638092
0.5981760025024414 0.018436111509799957 0.6720245480537415
0.5901006460189819 0.02216995321214199 0.6688767075538635
0.588706374168396 0.02403166890144348 0.6692156195640564
0.5829126834869385 0.03019110858440399 0.6694806814193726
0.6177043318748474 -0.031174160540103912 0.6493635177612305
0.6173746585845947 -0.027926327660679817 0.6514852643013
0.6174175143241882 -0.025246184319257736 0.653465211391449
0.616790235042572 -0.021440932527184486 0.6557760238647461
0.6118572354316711 -0.013950762338936329 0.6576353311538696
0.6102138757705688 -0.009929715655744076 0.6593641042709351
0.6124000549316406 -0.003569618798792362 0.6655780673027039
0.6119987964630127 -0.0031683992128819227 0.6655780673027039
0.6101669669151306 0.002481709001585841 0.6683544516563416
0.6038225889205933 0.013027540408074856 0.6714092493057251
0.6014878153800964 0.013384739868342876 0.6699714660644531
0.5987817049026489 0.01824258640408516 0.6715360879898071
0.5965468883514404 0.020782699808478355 0.6717578768730164
0.5862030982971191 0.028029633685946465 0.6695061326026917
0.5842965841293335 0.030104082077741623 0.6696283221244812
0.6172729134559631 -0.02973257377743721 0.649247944355011
0.6170055270195007 -0.0238037146627903 0.6533762216567993
0.6162471175193787 -0.01779596135020256 0.6572037935256958
0.6147512793540955 -0.015843650326132774 0.6575366854667664
0.6127375960350037 -0.013694953173398972 0.6576350927352905
0.6106792092323303 -0.011634602211415768 0.6576364636421204
0.6096678972244263 -0.007651638239622116 0.6598032712936401
0.6106241941452026 0.002003157278522849 0.6675407290458679
0.6091698408126831 0.006006428971886635 0.6693991422653198
0.6080614328384399 0.008392316289246082 0.6703307032585144
0.6064920425415039 0.012072788551449776 0.6718699336051941
0.6062585711479187 0.01272579561918974 0.672175943851471
0.6039551496505737 0.01412272173911333 0.6715149879455566
0.6015433073043823 0.014354429207742214 0.6699253916740417
0.6003289222717285 0.016499539837241173 0.67060387134552
0.5982974171638489 0.020349794998764992 0.6719299554824829
0.5950709581375122 0.02042953111231327 0.669635534286499
0.5902013778686523 0.02403065748512745 0.6687105894088745
0.5884793400764465 0.02637060545384884 0.669161319732666
0.5739583373069763 0.03677438572049141 0.6661590933799744
0.6173596382141113 -0.025915104895830154 0.6512506604194641
0.616803765296936 -0.019419532269239426 0.655593752861023
0.6140140891075134 -0.013874849304556847 0.6576085090637207
0.6102589964866638 -0.007933498360216618 0.6592072248458862
0.6095325946807861 -0.0057951598428189754 0.6602396368980408
0.6118938326835632 -0.00036842934787273407 0.6659343242645264
0.6100518107414246 0.004105438943952322 0.6678589582443237
0.6085790991783142 0.008039942011237144 0.6696590781211853
0.6001126766204834 0.018039509654045105 0.6707801818847656
0.592317521572113 0.02213738113641739 0.6680765748023987
0.5860360264778137 0.03042006492614746 0.6695399880409241
0.5845123529434204 0.032069168984889984 0.6696316003799438
0.6172582507133484 -0.027704868465662003 0.6490176320075989
0.6170186996459961 -0.021763039752840996 0.6531990766525269
0.6163969039916992 -0.01799922250211239 0.6555030941963196
0.6162618398666382 -0.015796836465597153 0.6570192575454712
0.6132588982582092 -0.011953541077673435 0.6576353311538696
0.6112064719200134 -0.009900500997900963 0.6576358079910278
0.609714150428772 -0.005667537450790405 0.6596456170082092
0.6119222640991211 0.000608697475399822 0.6658672094345093
0.6081481575965881 0.010328132659196854 0.6702269315719604
0.6061919927597046 0.0143783800303936 0.6717624068260193
0.6038278341293335 0.016690857708454132 0.6717246770858765
0.596800684928894 0.020807741209864616 0.6695904731750488
0.5943297743797302 0.021065302193164825 0.6679675579071045
0.5938405990600586 0.02132469043135643 0.6677989959716797
0.5930399894714355 0.022105524316430092 0.6677845120429993
0.5900343060493469 0.026455890387296677 0.6687705516815186
0.5886482000350952 0.028301304206252098 0.6691073179244995
0.6172981858253479 -0.02529914304614067 0.6499638557434082
0.6169256567955017 -0.023494113236665726 0.6510173678398132
0.6169554591178894 -0.019628193229436874 0.6538820266723633
0.6141048073768616 -0.011756226420402527 0.6575747132301331
0.6120836734771729 -0.009652280248701572 0.6576355695724487
0.6105956435203552 -0.007732472848147154 0.6579530239105225
0.6095793843269348 -0.003821996506303549 0.6600814461708069
0.6101234555244446 0.006049714051187038 0.667741060256958
0.6084276437759399 0.010635818354785442 0.6698663830757141
0.6060051321983337 0.015978090465068817 0.6720135807991028
0.6028799414634705 0.01807994581758976 0.6712611317634583
0.5921078324317932 0.024520251899957657 0.6680755019187927
0.588009238243103 0.030137773603200912 0.6691926121711731
0.5862122178077698 0.032333992421627045 0.6694862246513367
0.6168707013130188 -0.02387646771967411 0.6498481631278992
0.6169668436050415 -0.02112751640379429 0.6519466042518616
0.6164113283157349 -0.01599423587322235 0.6553223729133606
0.6100683808326721 -0.00542953098192811 0.6584360003471375
0.609760582447052 -0.0036937855184078217 0.6594890356063843
0.6115812659263611 0.0029530886095017195 0.6657333970069885
0.6062829494476318 0.01628170907497406 0.6716556549072266
0.6056617498397827 0.01731560193002224 0.6719599366188049
0.604090690612793 0.01884973980486393 0.6719326376914978
0.6011066436767578 0.019186966121196747 0.6699806451797485
0.600441038608551 0.020152784883975983 0.6702021360397339
0.5989109873771667 0.020788822323083878 0.6695427894592285
0.5962767004966736 0.020772669464349747 0.6675882339477539
0.5940597653388977 0.02239842340350151 0.6671521663665771
0.5927703380584717 0.024404041469097137 0.6676802635192871
0.5901358127593994 0.02829626202583313 0.6686078906059265
0.616543173789978 -0.019721481949090958 0.651829719543457
0.6165542006492615 -0.01719709299504757 0.6537047028541565
0.6159400343894958 -0.013492531143128872 0.6559900641441345
0.6142111420631409 -0.009619049727916718 0.6575762629508972
0.6126043796539307 -0.007931978441774845 0.6576354503631592
0.6105616688728333 -0.005888325162231922 0.657636284828186
0.6092203855514526 -0.0014537571696564555 0.6599238514900208
0.6098001003265381 0.008378008380532265 0.6676236987113953
0.6083571314811707 0.01229789201170206 0.6694554090499878
0.6044872999191284 0.02034277841448784 0.6725431680679321
0.6038329005241394 0.020311318337917328 0.6720358729362488
0.6031465530395508 0.02023373916745186 0.6714709997177124
0.6007717251777649 0.02053336799144745 0.6699362993240356
0.5921536087989807 0.026295598596334457 0.6678242087364197
0.5881785750389099 0.032048001885414124 0.6691388487815857
0.582527756690979 0.038235459476709366 0.6695353984832764
0.5717865824699402 0.04269940033555031 0.6648932099342346
0.61685711145401 -0.02187950164079666 0.64961838722229
0.6160140633583069 -0.013588112778961658 0.6551424264907837
0.6101112365722656 -0.0034589411225169897 0.6582768559455872
0.6116368770599365 0.004884728230535984 0.6655963659286499
0.6104393601417542 0.008231675252318382 0.6671905517578125
0.6096282005310059 0.010052667930722237 0.6679393649101257
0.6042607426643372 0.02084890380501747 0.6719655990600586
0.5940942764282227 0.024171698838472366 0.666890025138855
0.5919329524040222 0.027785852551460266 0.6679674983024597
0.590300977230072 0.030215667560696602 0.6685592532157898
0.5745985507965088 0.04422459378838539 0.6673033237457275
0.5737854242324829 0.04413001611828804 0.666630208492279
0.5699732899665833 0.04314863309264183 0.6630750894546509
0.6165305376052856 -0.017750563099980354 0.6515967845916748
0.6165684461593628 -0.015191507525742054 0.6535282731056213
0.6159554719924927 -0.011511705815792084 0.6558094024658203
0.6147080659866333 -0.00793368648737669 0.6575427651405334
0.612714409828186 -0.005815001670271158 0.6576355695724487
0.6106782555580139 -0.0037778522819280624 0.6576363444328308
0.6098640561103821 -0.0029622840229421854 0.6576374769210815
0.60926753282547 0.0004980055964551866 0.6597673296928406
0.6112031936645508 0.00612850533798337 0.6653944849967957
0.6084426045417786 0.014213625341653824 0.6693544983863831
0.6078166961669922 0.015253514982759953 0.669662594795227
0.6064937114715576 0.01822357065975666 0.6708875894546509
0.5991718769073486 0.020813757553696632 0.6673684120178223
0.5968525409698486 0.021277213469147682 0.6659880876541138
0.5959919095039368 0.02196613699197769 0.6658602952957153
0.5956517457962036 0.022444194182753563 0.6659630537033081
0.5922989249229431 0.0282036904245615 0.6677529811859131
0.5774644017219543 0.044137123972177505 0.6685701012611389
0.5762218832969666 0.04437904432415962 0.6678261160850525
0.5734063982963562 0.044505003839731216 0.6658257842063904
0.5715406537055969 0.04405750706791878 0.6641051769256592
0.5700335502624512 0.04404106363654137 0.6629720330238342
0.6164255142211914 -0.019473707303404808 0.6493896245956421
0.6161627769470215 -0.013779926113784313 0.6534403562545776
0.6160293817520142 -0.011604457162320614 0.654963493347168
0.6099230647087097 -0.0019136106129735708 0.6576370596885681
0.6087318658828735 0.002712633227929473 0.6601990461349487
0.6111387014389038 0.008012468926608562 0.6659470200538635
0.6101160645484924 0.010547664016485214 0.6670751571655273
0.6093079447746277 0.012357555329799652 0.6678222417831421
0.6078600883483887 0.016204833984375 0.6696118712425232
0.6027052402496338 0.021143721416592598 0.6694507002830505
0.600028395652771 0.02100096084177494 0.6673479080200195
0.5962799191474915 0.02227719873189926 0.6655038595199585
0.5942186117172241 0.026066355407238007 0.666792631149292
0.5916863679885864 0.03007807768881321 0.667896032333374
0.590465247631073 0.032123811542987823 0.668511152267456
0.5887595415115356 0.03441856428980827 0.6689505577087402
0.5827067494392395 0.040045786648988724 0.668632984161377
0.5807304382324219 0.04110444709658623 0.6679486632347107
0.5789791941642761 0.04418385773897171 0.6689391136169434
0.6134089231491089 -0.025823622941970825 0.6415343880653381
0.6165178418159485 -0.01578899845480919 0.6513652205467224
0.6155620813369751 -0.009131871163845062 0.6556295156478882
0.6147957444190979 -0.005852304399013519 0.6575091481208801
0.6128240823745728 -0.0037111490964889526 0.6576360464096069
0.6107938885688782 -0.001680557383224368 0.6576364636421204
0.6090668439865112 0.0020038378424942493 0.659100353717804
0.6081327795982361 0.01650076173245907 0.669244647026062
0.6065836548805237 0.020107382908463478 0.6707835793495178
0.5993465781211853 0.02083069272339344 0.6659116744995117
0.5957250595092773 0.02427847310900688 0.6657817363739014
0.5924436450004578 0.030100751668214798 0.6676821708679199
0.5802492499351501 0.04220728948712349 0.6676163673400879
0.5800953507423401 0.04462019354104996 0.6693060398101807
0.5742405652999878 0.04539739713072777 0.6655082702636719
0.5723347663879395 0.04489961266517639 0.6637104153633118
0.5696414709091187 0.044381819665431976 0.6613086462020874
0.6144961714744568 -0.026481149718165398 0.6409851908683777
0.6164130568504333 -0.01749657280743122 0.6491619348526001
0.6161777377128601 -0.01179049164056778 0.6532652378082275
0.614068865776062 -0.003928926307708025 0.6575801968574524
0.6120677590370178 -0.0018532960675656796 0.6576360464096069
0.6100409626960754 0.00017441068484913558 0.657636821269989
0.6097912192344666 0.0008565443567931652 0.6579613089561462
0.6087803244590759 0.004642635118216276 0.6600427627563477
0.610805869102478 0.010319359600543976 0.6658200025558472
0.6101869344711304 0.012458656914532185 0.6669603586196899
0.6093807816505432 0.014258533716201782 0.667705774307251
0.607946515083313 0.01809985190629959 0.669511079788208
0.6050674915313721 0.021578125655651093 0.6699605584144592
0.6002047657966614 0.021018074825406075 0.6658930778503418
0.5963106751441956 0.024051547050476074 0.6652477383613586
0.5951286554336548 0.026205234229564667 0.6659765243530273
0.5915384888648987 0.03249083459377289 0.6679980754852295
0.5902381539344788 0.034411005675792694 0.6684631109237671
0.5850093960762024 0.040177881717681885 0.668866753578186
0.5825269818305969 0.0414629690349102 0.6679686903953552
0.5701559782028198 0.044934336096048355 0.6612932682037354
0.5685827732086182 0.04400293156504631 0.6594146490097046
0.6140817999839783 -0.024994486942887306 0.640919029712677
0.6134744882583618 -0.023640520870685577 0.6414805054664612
0.6159900426864624 -0.016094746068120003 0.6490485072135925
0.6160914301872253 -0.013422803021967411 0.6511344909667969
0.6157742142677307 -0.010388650000095367 0.6531780958175659
0.6157086491584778 -0.009310834109783173 0.6539394855499268
0.6155783534049988 -0.007171901874244213 0.6554505228996277
0.6094085574150085 0.0022318228147923946 0.6578828692436218
0.6089591383934021 0.004773329943418503 0.6594566106796265
0.608402669429779 0.006005382630974054 0.6599646806716919
0.6082082986831665 0.018378229811787605 0.6691251397132874
0.6073681712150574 0.020071132108569145 0.6697667241096497
0.6037306785583496 0.021346181631088257 0.6679895520210266
0.5946658849716187 0.028310535475611687 0.6664096117019653
0.5921965837478638 0.032378021627664566 0.6676117777824402
0.5823713541030884 0.04208897799253464 0.6675258874893188
0.5802794098854065 0.04474358633160591 0.6679490804672241
0.5790686011314392 0.045868076384067535 0.6678840517997742
0.5764961838722229 0.046244338154792786 0.666232168674469
0.5756053328514099 0.04605473205447197 0.6654195189476013
0.6140960454940796 -0.023939084261655807 0.6408530473709106
0.6127667427062988 -0.021477794274687767 0.6417067646980286
0.6160352230072021 -0.013776861131191254 0.6499811410903931
0.6151791214942932 -0.00578821636736393 0.6553612947463989
0.6141578555107117 -0.001869500381872058 0.6575467586517334
0.6121785640716553 0.0002281974593643099 0.6576361656188965
0.6101582050323486 0.0022495517041534185 0.6576369404792786
0.6108649373054504 0.012216292321681976 0.6656879782676697
0.6100731492042542 0.014048518612980843 0.6664726734161377
0.6094532608985901 0.01614929921925068 0.6675897240638733
0.6045736074447632 0.021531272679567337 0.6679686903953552
0.5997348427772522 0.021045900881290436 0.663952648639679
0.5980572700500488 0.022484011948108673 0.6637720465660095
0.5960342884063721 0.02633853815495968 0.6651535034179688
0.5952489376068115 0.02808767557144165 0.6658806800842285
0.5940693616867065 0.030210576951503754 0.6665921807289124
0.5915875434875488 0.03423306345939636 0.6677543520927429
0.5904017090797424 0.03629552945494652 0.6684154868125916
0.584699273109436 0.04142607003450394 0.6679841876029968
0.5794433951377869 0.046269770711660385 0.6676733493804932
0.5769285559654236 0.045855216681957245 0.6654636263847351
0.5765352845191956 0.04624853655695915 0.6654636263847351
0.5747460722923279 0.04586749151349068 0.6638267040252686
0.6160797476768494 -0.011480421759188175 0.6509049534797668
0.6156669855117798 -0.011067667044699192 0.6509049534797668
0.6157186031341553 -0.009756483137607574 0.6519358158111572
0.6157245635986328 -0.007345410995185375 0.6537642478942871
