ply
format ascii 1.0
element vertex 811
property float x
property float y
property float z
end_header
0.326996386051178 -0.08227585256099701 0.6823619604110718
0.3322944939136505 -0.08401042222976685 0.682338535785675
0.34144940972328186 -0.07542621344327927 0.6736894249916077
0.3444620668888092 -0.07460413128137589 0.6723319888114929
0.3456767201423645 -0.07439414411783218 0.6718748211860657
0.34628626704216003 -0.0743585005402565 0.6716971397399902
0.34812140464782715 -0.0745810866355896 0.6714081168174744
0.35735374689102173 -0.07570666819810867 0.6699571013450623
0.3604550063610077 -0.0760040208697319 0.669409990310669
0.3623189330101013 -0.07625600695610046 0.6691351532936096
0.3641936779022217 -0.07632577419281006 0.66872239112854
0.3660661280155182 -0.07657909393310547 0.668446958065033
0.3826405704021454 -0.07659170776605606 0.6643495559692383
0.3863084316253662 -0.07217138260602951 0.660155177116394
0.38843005895614624 -0.07075115293264389 0.6585738062858582
0.39033153653144836 -0.07160002738237381 0.658733606338501
0.3257398009300232 -0.08245120942592621 0.6820241808891296
0.3304504156112671 -0.08408164978027344 0.6820692420005798
0.33337780833244324 -0.08475247770547867 0.6818417906761169
0.33391621708869934 -0.08380052447319031 0.6809983253479004
0.3344375789165497 -0.08236014097929001 0.6797949075698853
0.34015703201293945 -0.07622461020946503 0.6737996935844421
0.3529278039932251 -0.07603179663419724 0.6704826951026917
0.3541586697101593 -0.07613299787044525 0.6702520847320557
0.3560068607330322 -0.07641519606113434 0.6700032949447632
0.35662445425987244 -0.07645417004823685 0.6698787212371826
0.3584810197353363 -0.0765707939863205 0.6695041656494141
0.36719581484794617 -0.077452152967453 0.6679959297180176
0.3722144365310669 -0.07801446318626404 0.6671677827835083
0.37411564588546753 -0.0780499279499054 0.6667218208312988
0.3760204017162323 -0.0781172439455986 0.6662986874580383
0.37730738520622253 -0.0779731348156929 0.6658714413642883
0.37793126702308655 -0.07818109542131424 0.6658714413642883
0.3785826861858368 -0.078031025826931 0.6655977964401245
0.38320428133010864 -0.0766754150390625 0.6634388566017151
0.38405004143714905 -0.07449731975793839 0.6616048216819763
0.3868969976902008 -0.07212573289871216 0.6591293215751648
0.3894752860069275 -0.07275193929672241 0.6589553952217102
0.3901289999485016 -0.07282794266939163 0.6588496565818787
0.3256630599498749 -0.08304780721664429 0.6817085146903992
0.32625091075897217 -0.08324378728866577 0.6817085146903992
0.3280199468135834 -0.08391851931810379 0.6817721128463745
0.32860779762268066 -0.08411519974470139 0.681772768497467
0.330371230840683 -0.08470440655946732 0.6817737817764282
0.33545711636543274 -0.08129233121871948 0.677955150604248
0.33600008487701416 -0.08008633553981781 0.676918089389801
0.3371320068836212 -0.07861168682575226 0.675533652305603
0.3383059799671173 -0.07809025794267654 0.6748510599136353
0.33947592973709106 -0.07722081989049911 0.6739094853401184
0.34245821833610535 -0.07610943913459778 0.672335147857666
0.3479238748550415 -0.07603859156370163 0.6709200739860535
0.3485349714756012 -0.0760907456278801 0.6708070039749146
0.3503705859184265 -0.07639932632446289 0.6705800890922546
0.35466811060905457 -0.07691825926303864 0.6698969602584839
0.3651925325393677 -0.07820308953523636 0.6682349443435669
0.36644357442855835 -0.07825127243995667 0.6679591536521912
0.36831554770469666 -0.07850592583417892 0.6676827669143677
0.37020111083984375 -0.07858122885227203 0.667269229888916
0.38039377331733704 -0.0784684345126152 0.6646447777748108
0.38233235478401184 -0.07837196439504623 0.6640892028808594
0.38393470644950867 -0.07492969185113907 0.6611162424087524
0.38927197456359863 -0.07400618493556976 0.659095823764801
0.32676172256469727 -0.08404194563627243 0.6813985705375671
0.3326413333415985 -0.0861116275191307 0.681480884552002
0.3337119221687317 -0.08417146652936935 0.6797584295272827
0.3387964367866516 -0.0781555026769638 0.6739766597747803
0.3429645299911499 -0.07651642709970474 0.6717056035995483
0.3441760540008545 -0.07655473053455353 0.6714316010475159
0.3521067202091217 -0.07728376984596252 0.6699960827827454
0.35702282190322876 -0.07800963521003723 0.6693114638328552
0.3582576811313629 -0.0780886635184288 0.669062077999115
0.3601100444793701 -0.07837266474962234 0.6688122153282166
0.3625865578651428 -0.0786970853805542 0.6684362888336182
0.3656941056251526 -0.07904819399118423 0.667923092842102
0.3757406175136566 -0.0798027515411377 0.6659776568412781
0.38218754529953003 -0.0791618824005127 0.6638856530189514
0.3830416798591614 -0.07679016143083572 0.6618938446044922
0.38586029410362244 -0.07450614124536514 0.659476637840271
0.3255099058151245 -0.0842377245426178 0.6810786128044128
0.33080005645751953 -0.08614328503608704 0.6811854839324951
0.33412373065948486 -0.08276931941509247 0.6778150796890259
0.33580878376960754 -0.08083321154117584 0.6759366989135742
0.33637329936027527 -0.080120749771595 0.6752594709396362
0.34048160910606384 -0.07803401350975037 0.6726603507995605
0.3507794737815857 -0.07790371775627136 0.6699808239936829
0.3520035445690155 -0.07800958305597305 0.6697537302970886
0.3544556796550751 -0.07837249338626862 0.6694119572639465
0.3637121021747589 -0.07953459769487381 0.6679655909538269
0.36806124448776245 -0.08014704287052155 0.6673358678817749
0.3705691993236542 -0.08024756610393524 0.666782557964325
0.37244555354118347 -0.0805058404803276 0.6665064096450806
0.3743304908275604 -0.08068951219320297 0.6661722660064697
0.37496697902679443 -0.08064494282007217 0.6659790873527527
0.37624391913414 -0.08053598552942276 0.665577232837677
0.3781530559062958 -0.08054176717996597 0.6651028990745544
0.38009971380233765 -0.0801658183336258 0.6643321514129639
0.3842904269695282 -0.07651420682668686 0.6605353951454163
0.38643643260002136 -0.07456253468990326 0.6585298180580139
0.38826075196266174 -0.07602173835039139 0.6591699719429016
0.3289620876312256 -0.0861741378903389 0.6808901429176331
0.3409832715988159 -0.07837472856044769 0.6719857454299927
0.34641337394714355 -0.07810686528682709 0.6704184412956238
0.3482383191585541 -0.07826534658670425 0.6700792908668518
0.3488474488258362 -0.07831820845603943 0.6699659824371338
0.35006752610206604 -0.07857438921928406 0.6698524951934814
0.36173391342163086 -0.08016886562108994 0.6681221723556519
0.3623533546924591 -0.08020945638418198 0.667996883392334
0.3642151653766632 -0.08033096045255661 0.6676205992698669
0.36607468128204346 -0.08061753958463669 0.6673691868782043
0.3735778331756592 -0.0812736451625824 0.6659775376319885
0.38123446702957153 -0.08100061863660812 0.6638469696044922
0.38483235239982605 -0.07688318192958832 0.6598368287086487
0.3868616819381714 -0.07616566866636276 0.6587858200073242
0.32711830735206604 -0.08606031537055969 0.6804882884025574
0.3328865170478821 -0.08608328551054001 0.6790512800216675
0.3333955407142639 -0.08451749384403229 0.6777386665344238
0.3339229226112366 -0.08324545621871948 0.676643431186676
0.3350580334663391 -0.0823264867067337 0.6756622195243835
0.33675122261047363 -0.08024591207504272 0.6736615300178528
0.33969032764434814 -0.07892105728387833 0.6719183325767517
0.3420836627483368 -0.07856937497854233 0.6710489988327026
0.34449777007102966 -0.07859820127487183 0.6704620122909546
0.34753167629241943 -0.07893375307321548 0.6699508428573608
0.35546812415122986 -0.08007746934890747 0.6688147783279419
0.3560819923877716 -0.08013124018907547 0.6687009334564209
0.35853850841522217 -0.08049675822257996 0.6683579683303833
0.36100539565086365 -0.08071312308311462 0.6678996682167053
0.37092873454093933 -0.08202975243330002 0.6663936972618103
0.3721815347671509 -0.08211281895637512 0.6661404371261597
0.37281307578086853 -0.08208668231964111 0.6659616827964783
0.3740655183792114 -0.08222996443510056 0.6657542586326599
0.3772372007369995 -0.08215223997831345 0.6648958325386047
0.37982237339019775 -0.08166800439357758 0.6638776063919067
0.38193386793136597 -0.07944213598966599 0.6616615653038025
0.38267236948013306 -0.07838086783885956 0.6606727838516235
0.38725972175598145 -0.0780060663819313 0.659232497215271
0.3893343508243561 -0.07694630324840546 0.6579079031944275
0.3252810537815094 -0.0860152542591095 0.680137574672699
0.33114704489707947 -0.0881800577044487 0.6802964806556702
0.3384226858615875 -0.08012992143630981 0.6723500490188599
0.34561342000961304 -0.07934211939573288 0.6699342727661133
0.34986650943756104 -0.08001628518104553 0.6693702936172485
0.35047560930252075 -0.08006990700960159 0.6692567467689514
0.3523047864437103 -0.08038024604320526 0.6690297722816467
0.3596588671207428 -0.08132730424404144 0.6678885221481323
0.3645918369293213 -0.08204204589128494 0.667183518409729
0.36645448207855225 -0.08216611295938492 0.6668066382408142
0.36831387877464294 -0.08245372027158737 0.6665544509887695
0.37839075922966003 -0.08266211301088333 0.6641647219657898
0.37903690338134766 -0.08253950625658035 0.6639081239700317
0.3803054392337799 -0.08262348175048828 0.6636508703231812
0.38321369886398315 -0.07872280478477478 0.6599568724632263
0.384577214717865 -0.07801242172718048 0.6590731739997864
0.3884696662425995 -0.07825715839862823 0.6582745313644409
0.3240342140197754 -0.0862041711807251 0.6798163652420044
0.32637542486190796 -0.08700154721736908 0.6798291802406311
0.3281407654285431 -0.08775776624679565 0.67995685338974
0.3293144404888153 -0.08822087198495865 0.6800115704536438
0.33105096220970154 -0.0884765237569809 0.6797657608985901
0.332675576210022 -0.08631477504968643 0.67770916223526
0.33372199535369873 -0.08372178673744202 0.6754710674285889
0.3359926640987396 -0.08169801533222198 0.6733555793762207
0.3383294641971588 -0.08062227815389633 0.6719445586204529
0.34010952711105347 -0.08024634420871735 0.6712071895599365
0.3461245894432068 -0.08019620180130005 0.6696436405181885
0.3570929765701294 -0.08168113231658936 0.6679918766021729
0.3595471680164337 -0.08204817771911621 0.6676486730575562
0.3601626455783844 -0.08210272341966629 0.6675340533256531
0.362007200717926 -0.08241584151983261 0.6673044562339783
0.37005987763404846 -0.08333083987236023 0.6659587621688843
0.3816946744918823 -0.08043967932462692 0.6608083844184875
0.3239593207836151 -0.08679422736167908 0.6795043349266052
0.32747307419776917 -0.0880681723356247 0.6795825958251953
0.32806190848350525 -0.08833618462085724 0.6796373128890991
0.3330911099910736 -0.08514589071273804 0.6759241819381714
0.3342178165912628 -0.08420143276453018 0.6749169826507568
0.3353348970413208 -0.0827990248799324 0.67356276512146
0.33765479922294617 -0.08151580393314362 0.6719938516616821
0.34240293502807617 -0.08029412478208542 0.6698542237281799
0.3442126512527466 -0.0804852694272995 0.6695396900177002
0.35453924536705017 -0.08202455192804337 0.6680880188941956
0.3557598888874054 -0.08228632062673569 0.6679770350456238
0.3563719093799591 -0.08234521001577377 0.6678662300109863
0.36868879199028015 -0.08399693667888641 0.665993869304657
0.36931121349334717 -0.08403913676738739 0.6658680438995361
0.3705483376979828 -0.08428606390953064 0.6657419204711914
0.37242740392684937 -0.0843091756105423 0.665281355381012
0.3743076026439667 -0.08440817892551422 0.6648788452148438
0.3762178122997284 -0.08416219800710678 0.6642054319381714
0.377475768327713 -0.08427131175994873 0.6639688014984131
0.3781189024448395 -0.08415036648511887 0.663712739944458
0.380028635263443 -0.08411423861980438 0.6631994247436523
0.3822426497936249 -0.0806719958782196 0.660010039806366
0.38549068570137024 -0.08052263408899307 0.6590701937675476
0.38613903522491455 -0.08053071796894073 0.658911406993866
0.38817325234413147 -0.07973401248455048 0.6577862501144409
0.38909345865249634 -0.0771898627281189 0.655610978603363
0.33196109533309937 -0.08809831738471985 0.6776798963546753
0.33638352155685425 -0.08220643550157547 0.6720435619354248
0.33756223320961 -0.08200611174106598 0.6715896725654602
0.341111958026886 -0.08100441098213196 0.6699178218841553
0.3495666980743408 -0.08205416053533554 0.6685643792152405
0.3501736521720886 -0.08212904632091522 0.6684669852256775
0.352605402469635 -0.08253581076860428 0.6681579947471619
0.35382410883903503 -0.08265344053506851 0.667937159538269
0.3636273145675659 -0.08401939272880554 0.6664819121360779
0.36423879861831665 -0.08422322571277618 0.6664819121360779
0.366092711687088 -0.08438961952924728 0.6661362051963806
0.36794424057006836 -0.08470267802476883 0.6659038066864014
0.38073769211769104 -0.08233942836523056 0.6608322858810425
0.382097452878952 -0.08146239072084427 0.6598143577575684
0.3243938088417053 -0.08817136287689209 0.678885817527771
0.3296627402305603 -0.09021871536970139 0.6791092753410339
0.33023801445961 -0.0902707651257515 0.6790021061897278
0.3323623538017273 -0.08674681186676025 0.6757543683052063
0.3334353268146515 -0.0847683697938919 0.6739616394042969
0.33402949571609497 -0.08496642857789993 0.6739616394042969
0.3380504250526428 -0.08209605515003204 0.6707302927970886
0.34583574533462524 -0.08211442083120346 0.6687530875205994
0.3464399576187134 -0.08218964189291 0.6686562895774841
0.35128769278526306 -0.08291932195425034 0.6679760217666626
0.3579893410205841 -0.08404090255498886 0.6671226024627686
0.3586016595363617 -0.0841001644730568 0.6670113801956177
0.3604412078857422 -0.08427876234054565 0.666677713394165
0.3659738600254059 -0.08510469645261765 0.665896475315094
0.37531623244285583 -0.08572285622358322 0.6639810800552368
0.379240483045578 -0.08407001197338104 0.6617088317871094
0.3812991678714752 -0.08237684518098831 0.6598827838897705
0.3819863200187683 -0.08186252415180206 0.65931236743927
0.38516250252723694 -0.08240749686956406 0.658918023109436
0.38646697998046875 -0.0823080837726593 0.65850830078125
0.38717085123062134 -0.08175863325595856 0.6579064130783081
0.32315173745155334 -0.08835794776678085 0.6785666346549988
0.32782596349716187 -0.09006564319133759 0.6786816716194153
0.33562493324279785 -0.08358070999383926 0.6716904044151306
0.3391384780406952 -0.08228397369384766 0.6697909235954285
0.3403324484825134 -0.08230496942996979 0.6695007681846619
0.3421236574649811 -0.08213663846254349 0.6689116358757019
0.34936773777008057 -0.08333096653223038 0.6679725646972656
0.3542248010635376 -0.08406250923871994 0.6672895550727844
0.3633968234062195 -0.08540749549865723 0.6659716963768005
0.36708468198776245 -0.0860557109117508 0.665524423122406
0.36832135915756226 -0.08617658913135529 0.6653002500534058
0.37017208337783813 -0.08650169521570206 0.6650757789611816
0.3720458149909973 -0.08649473637342453 0.664589524269104
0.3745502233505249 -0.0865447148680687 0.6639854907989502
0.37643641233444214 -0.08656848222017288 0.6635199785232544
0.3783555030822754 -0.08625034242868423 0.6627828478813171
0.383184552192688 -0.08203601092100143 0.6583007574081421
0.38703688979148865 -0.08237046003341675 0.6575698852539062
0.38794463872909546 -0.07985426485538483 0.6554006338119507
0.33004632592201233 -0.0908602774143219 0.67794269323349
0.3316441476345062 -0.08844908326864243 0.6756705045700073
0.33269256353378296 -0.08615321666002274 0.6736287474632263
0.3349599242210388 -0.08444265276193619 0.671725332736969
0.3468504846096039 -0.08353865146636963 0.6679684519767761
0.3498736619949341 -0.08404316008090973 0.6675798892974854
0.3504793643951416 -0.08411921560764313 0.6674829125404358
0.35229814052581787 -0.08447320759296417 0.667288064956665
0.3626677691936493 -0.08603247255086899 0.6658236980438232
0.3645070195198059 -0.08635622262954712 0.6656004786491394
0.37378740310668945 -0.0873633474111557 0.6639903783798218
0.3803631365299225 -0.08406046032905579 0.6597492694854736
0.38485395908355713 -0.08409896492958069 0.6586238145828247
0.32300400733947754 -0.08952952921390533 0.6779470443725586
0.3241691291332245 -0.08992896229028702 0.6779555678367615
0.324751615524292 -0.09012866765260696 0.6779600381851196
0.3264986574649811 -0.09072194248437881 0.6779682636260986
0.3299504220485687 -0.09115438163280487 0.6774123907089233
0.3360171914100647 -0.08415157347917557 0.6704267859458923
0.3371930420398712 -0.0839618667960167 0.6699766516685486
0.34434303641319275 -0.08374541997909546 0.6679642200469971
0.3455485701560974 -0.08402220904827118 0.6678674221038818
0.3461509943008423 -0.08409803360700607 0.6677708029747009
0.3576650023460388 -0.08604664355516434 0.6663082838058472
0.3582748472690582 -0.08612281829118729 0.666209876537323
0.3601076006889343 -0.08633211255073547 0.6658989787101746
0.3730350732803345 -0.08805800974369049 0.6638994216918945
0.37617209553718567 -0.08802684396505356 0.6630660891532898
0.3781769573688507 -0.08653932064771652 0.6613970398902893
0.3834688663482666 -0.08434780687093735 0.6583355665206909
0.38540777564048767 -0.08428426086902618 0.6577861905097961
0.38603296875953674 -0.08449269086122513 0.6577861905097961
0.3868839740753174 -0.08245126903057098 0.6559863090515137
0.3877919018268585 -0.07993127405643463 0.6538016200065613
0.32176655530929565 -0.08972024917602539 0.6776336431503296
0.32293030619621277 -0.09011369943618774 0.6776381134986877
0.3287584185600281 -0.09224656224250793 0.6777855753898621
0.33034950494766235 -0.09002445638179779 0.6756489276885986
0.33195871114730835 -0.08762651681900024 0.6733711957931519
0.33305424451828003 -0.08617433160543442 0.6719605326652527
0.33592432737350464 -0.08459875732660294 0.6699945330619812
0.33652234077453613 -0.08479809015989304 0.6699945330619812
0.33827582001686096 -0.08413192629814148 0.6690238118171692
0.34184587001800537 -0.08396981656551361 0.6679741740226746
0.34244808554649353 -0.08417058736085892 0.6679741740226746
0.35451921820640564 -0.08617483079433441 0.6664067506790161
0.3581671118736267 -0.08675927668809891 0.6659163236618042
0.36672940850257874 -0.08810774981975555 0.6647474765777588
0.36857903003692627 -0.08829112350940704 0.6644113659858704
0.37043294310569763 -0.08847320824861526 0.6640732288360596
0.3710547983646393 -0.08848311007022858 0.6639198064804077
0.3741692006587982 -0.08861037343740463 0.6632128357887268
0.37880638241767883 -0.08561386168003082 0.6596867442131042
0.38146963715553284 -0.0843111202120781 0.6579865217208862
0.38209691643714905 -0.08447611331939697 0.6579521298408508
0.32169386744499207 -0.09030403941869736 0.6773252487182617
0.3269275724887848 -0.09209315478801727 0.677359938621521
0.33133676648139954 -0.08900517225265503 0.673811674118042
0.3341127634048462 -0.08615098893642426 0.6708695292472839
0.3405604362487793 -0.084584541618824 0.6679768562316895
0.3501792252063751 -0.08602257072925568 0.6666004061698914
0.3525982201099396 -0.08645347505807877 0.6663080453872681
0.3556292653083801 -0.0869622528553009 0.6659173965454102
0.3562369644641876 -0.08703915774822235 0.6658197641372681
0.3623282015323639 -0.08805752545595169 0.6650318503379822
0.3641606271266937 -0.08840291202068329 0.6648252606391907
0.3690798580646515 -0.08895471692085266 0.6639781594276428
0.37720635533332825 -0.08892721682786942 0.6618479490280151
0.37798887491226196 -0.0869479700922966 0.6601040363311768
0.3786819577217102 -0.08620067685842514 0.6593426465988159
0.38314753770828247 -0.08623100817203522 0.6582071781158447
0.38444918394088745 -0.08603549748659134 0.6577172875404358
0.38763850927352905 -0.080010324716568 0.6521990895271301
0.32510724663734436 -0.09207049012184143 0.6770340800285339
0.32964837551116943 -0.09178218990564346 0.6756274104118347
0.3386804461479187 -0.08500561118125916 0.667986273765564
0.3464646637439728 -0.08607194572687149 0.6667929887771606
0.34827080368995667 -0.08642537891864777 0.6665987968444824
0.35310134291648865 -0.08716265857219696 0.6659174561500549
0.3579523265361786 -0.08802808076143265 0.6653305292129517
0.3585609495639801 -0.08810518682003021 0.6652323603630066
0.3603854477405548 -0.08846092969179153 0.6650353074073792
0.3778788149356842 -0.08736094832420349 0.6596240997314453
0.3805316388607025 -0.08601591736078262 0.6578835844993591
0.382409930229187 -0.08647845685482025 0.6577557325363159
0.3851330876350403 -0.08485082536935806 0.6557763814926147
0.386653870344162 -0.08257197588682175 0.6536015868186951
0.387550413608551 -0.08016331493854523 0.6514878273010254
0.3232905864715576 -0.09205993264913559 0.6767182946205139
0.3300337791442871 -0.09042921662330627 0.6736814975738525
0.33167144656181335 -0.08860205113887787 0.6718236207962036
0.3345000147819519 -0.08666780591011047 0.6695708632469177
0.3362455666065216 -0.08618984371423721 0.66874098777771
0.3379998803138733 -0.08565759658813477 0.667866587638855
0.3421703577041626 -0.08600303530693054 0.6670485734939575
0.3445664942264557 -0.08634775131940842 0.6666930913925171
0.35058316588401794 -0.0873623639345169 0.665917158126831
0.35420793294906616 -0.0880722925066948 0.6655269861221313
0.3657704293727875 -0.08991513401269913 0.6639523506164551
0.3663777709007263 -0.09011758118867874 0.6639523506164551
0.3682211935520172 -0.09030026942491531 0.6636142134666443
0.3700732886791229 -0.0904095470905304 0.6632164716720581
0.37254807353019714 -0.09059613198041916 0.6627165079116821
0.37443041801452637 -0.09043402969837189 0.6620984077453613
0.3750588297843933 -0.09039082378149033 0.6619006991386414
0.37630024552345276 -0.09055159986019135 0.6617024540901184
0.3214767277240753 -0.09204912185668945 0.6764026284217834
0.3272799253463745 -0.09406916797161102 0.6764698028564453
0.3284303545951843 -0.09431018680334091 0.6763579249382019
0.32895034551620483 -0.09348829835653305 0.6755766272544861
0.3299412131309509 -0.09079330414533615 0.6732010245323181
0.3321242928504944 -0.08827511221170425 0.670652449131012
0.33383819460868835 -0.08747618645429611 0.6695764064788818
0.33732137084007263 -0.086307592689991 0.6677471399307251
0.33849838376045227 -0.08610111474990845 0.6672770977020264
0.34028536081314087 -0.08631222695112228 0.6669750809669495
0.3486769199371338 -0.08775750547647476 0.6659135818481445
0.35108599066734314 -0.08819334954023361 0.6656253337860107
0.3522927761077881 -0.08834730088710785 0.6654302477836609
0.362604558467865 -0.09003540128469467 0.6640568971633911
0.3638211786746979 -0.0903148502111435 0.6639577746391296
0.36443230509757996 -0.09039266407489777 0.6638590097427368
0.37368112802505493 -0.09109719842672348 0.661991536617279
0.3769456744194031 -0.08926275372505188 0.6596967577934265
0.3782898783683777 -0.08821547776460648 0.6585224866867065
0.3796113133430481 -0.0875731036067009 0.657672107219696
0.3814552426338196 -0.08835957199335098 0.6578072309494019
0.38207441568374634 -0.08856596797704697 0.6578072309494019
0.3254615068435669 -0.09400860965251923 0.6761175394058228
0.3283372223377228 -0.09463688731193542 0.6758575439453125
0.32934993505477905 -0.09248117357492447 0.6738941669464111
0.33095040917396545 -0.09020697325468063 0.671683132648468
0.33258673548698425 -0.08810077607631683 0.6695953607559204
0.3354681730270386 -0.08700057119131088 0.6679723858833313
0.34557658433914185 -0.08778511732816696 0.6659370064735413
0.3461761474609375 -0.08787176012992859 0.6658479571342468
0.34737637639045715 -0.08804543316364288 0.6656695604324341
0.34857869148254395 -0.08833277225494385 0.6655804514884949
0.35884562134742737 -0.09007586538791656 0.6642580032348633
0.3600578010082245 -0.09035521000623703 0.6641598343849182
0.3612746298313141 -0.0905110314488411 0.6639631390571594
0.37948697805404663 -0.08815152943134308 0.6573247313499451
0.3840227425098419 -0.08743360638618469 0.6555687785148621
0.3849002718925476 -0.0849762037396431 0.6534032821655273
0.38641050457954407 -0.08281691372394562 0.6513069272041321
0.3207528293132782 -0.09300399571657181 0.6757816076278687
0.3224906027317047 -0.09359942376613617 0.6757944226264954
0.3242282569408417 -0.09419478476047516 0.6758071780204773
0.32654446363449097 -0.09498326480388641 0.675819993019104
0.33194470405578613 -0.08917280286550522 0.6698101758956909
0.3424888253211975 -0.08781266212463379 0.6659603714942932
0.3442820906639099 -0.08807232975959778 0.665693461894989
0.3545026481151581 -0.09000670909881592 0.6645305752754211
0.3563164174556732 -0.09026964753866196 0.664260983467102
0.358737975358963 -0.09070443361997604 0.6639668345451355
0.3660328686237335 -0.0920121818780899 0.6630792617797852
0.3684879541397095 -0.09219192713499069 0.6625750660896301
0.3703337609767914 -0.09234694391489029 0.6622116565704346
0.3715786039829254 -0.09225588291883469 0.6618118286132812
0.3721868395805359 -0.09245866537094116 0.6618118286132812
0.37406405806541443 -0.09229204803705215 0.6611863374710083
0.3767307698726654 -0.09003235399723053 0.6586998701095581
0.38394492864608765 -0.0874769315123558 0.6547828912734985
0.38770827651023865 -0.08219945430755615 0.6496246457099915
0.322414368391037 -0.09413408488035202 0.6754558086395264
0.3296768069267273 -0.0921172946691513 0.6719414591789246
0.33026254177093506 -0.09231257438659668 0.6719414591789246
0.3341355323791504 -0.08849058300256729 0.6678921580314636
0.3364650011062622 -0.0880013108253479 0.6668897867202759
0.34000954031944275 -0.0879565104842186 0.6659187078475952
0.34060433506965637 -0.0880126953125 0.6658061146736145
0.34239575266838074 -0.08838541805744171 0.6656283736228943
0.351387619972229 -0.09002969413995743 0.6645568609237671
0.35259193181991577 -0.09020458161830902 0.6643775105476379
0.3562120795249939 -0.09084392338991165 0.6639280915260315
0.36287519335746765 -0.09212593734264374 0.6631845235824585
0.36409327387809753 -0.09228301793336868 0.6629874110221863
0.3759137988090515 -0.09152497351169586 0.6592665910720825
0.377269446849823 -0.09020937234163284 0.6578669548034668
0.3779502213001251 -0.08957076817750931 0.6571812033653259
0.38041284680366516 -0.09045203030109406 0.6572291254997253
0.3823241591453552 -0.09039276838302612 0.6566779017448425
0.3838669955730438 -0.08752031624317169 0.65399569272995
0.38474446535110474 -0.0850607231259346 0.6518161296844482
0.3211776614189148 -0.09422556310892105 0.6750734448432922
0.3263899087905884 -0.09610093384981155 0.6751830577850342
0.32858380675315857 -0.09492085874080658 0.673664927482605
0.331243097782135 -0.09118514508008957 0.6699939370155334
0.338137149810791 -0.08832092583179474 0.6658942103385925
0.3482850193977356 -0.09005268663167953 0.6645829677581787
0.3530930280685425 -0.09086521714925766 0.6639556288719177
0.354297399520874 -0.09115360677242279 0.6638657450675964
0.3597336709499359 -0.09217160940170288 0.6632351875305176
0.3603399693965912 -0.09226007014513016 0.6631448268890381
0.36825504899024963 -0.09343156963586807 0.6619798541069031
0.3784504532814026 -0.0902709886431694 0.656770646572113
0.38292378187179565 -0.08998995274305344 0.655363142490387
0.3860439360141754 -0.08430258184671402 0.6500203013420105
0.3199350833892822 -0.09423063695430756 0.6746248602867126
0.3251526653766632 -0.09619679301977158 0.6748054623603821
0.3279745876789093 -0.09610262513160706 0.6739813685417175
0.3322596848011017 -0.09057435393333435 0.668440580368042
0.33340784907341003 -0.09023986756801605 0.6678694486618042
0.3339671194553375 -0.08969742804765701 0.6672889590263367
0.33687156438827515 -0.08897996693849564 0.6659462451934814
0.34519505500793457 -0.09007824957370758 0.6646113395690918
0.3463907241821289 -0.09025260806083679 0.6644327640533447
0.3499864935874939 -0.09088961035013199 0.6639854311943054
0.35058677196502686 -0.09108970314264297 0.6639854311943054
0.3566058278083801 -0.09219356626272202 0.6632665395736694
0.3669123947620392 -0.09399227797985077 0.6619629263877869
0.367525190114975 -0.0940239280462265 0.66182541847229
0.36813926696777344 -0.09404418617486954 0.6616785526275635
0.37059858441352844 -0.0941772535443306 0.6611316204071045
0.3724514842033386 -0.09424284845590591 0.6606919765472412
0.37435418367385864 -0.09366212785243988 0.6597244143486023
0.3828454911708832 -0.0900350883603096 0.6545812487602234
0.3859111964702606 -0.08490730077028275 0.6496832370758057
0.38659006357192993 -0.0846308022737503 0.6492826342582703
0.3233385682106018 -0.096087247133255 0.6744183897972107
0.3284349739551544 -0.09619849175214767 0.6731503009796143
0.3294905424118042 -0.09477993100881577 0.6717361211776733
0.3300733268260956 -0.09497422724962234 0.6717361211776733
0.33111926913261414 -0.09309761971235275 0.6699588298797607
0.3344631791114807 -0.09020426869392395 0.6667574644088745
0.3415237069129944 -0.09007177501916885 0.6647718548774719
0.34211844205856323 -0.0901421532034874 0.6646698713302612
0.3528901934623718 -0.09201906621456146 0.6633009910583496
0.3540925085544586 -0.09230736643075943 0.6632112264633179
0.36376020312309265 -0.0940602645277977 0.6620373725891113
0.36436790227890015 -0.09414932876825333 0.661946713924408
0.3735785484313965 -0.09475429356098175 0.6599776744842529
0.3756008446216583 -0.09257195144891739 0.6576961874961853
0.3762584626674652 -0.09215851873159409 0.6571909189224243
0.37940502166748047 -0.09220700711011887 0.6563916802406311
0.380009263753891 -0.09254063665866852 0.6564974188804626
0.38194331526756287 -0.09215113520622253 0.6556713581085205
0.3827671408653259 -0.09008011221885681 0.6537978649139404
0.383632093667984 -0.0876530334353447 0.6516291499137878
0.38506782054901123 -0.08614259213209152 0.6500404477119446
0.38841360807418823 -0.0852501392364502 0.6484367847442627
0.3197779655456543 -0.09519682079553604 0.673872709274292
0.32035914063453674 -0.0954357460141182 0.673909068107605
0.32209810614585876 -0.09610565751791 0.6739814281463623
0.3321424126625061 -0.0927114263176918 0.6685807108879089
0.3332817554473877 -0.09230349957942963 0.667949914932251
0.33612725138664246 -0.09062357246875763 0.6658445000648499
0.33847320079803467 -0.0904703438282013 0.6650952100753784
0.3450058400630951 -0.09126285463571548 0.6639858484268188
0.3461989760398865 -0.09140735119581223 0.6637831330299377
0.34978893399238586 -0.09204505383968353 0.6633354425430298
0.3503882586956024 -0.09224482625722885 0.6633354425430298
0.3606230914592743 -0.09408219158649445 0.6620743870735168
0.3612285554409027 -0.09417108446359634 0.6619839072227478
0.3624367117881775 -0.09446073323488235 0.6618935465812683
0.37745562195777893 -0.09193650633096695 0.6558613181114197
0.3780704736709595 -0.09214149415493011 0.6558613181114197
0.38431113958358765 -0.08650553971529007 0.6496809124946594
0.38629844784736633 -0.08609327673912048 0.6488199234008789
0.32086116075515747 -0.09615645557641983 0.6735698580741882
0.3243354558944702 -0.09749472141265869 0.6737145185470581
0.3260704278945923 -0.09815045446157455 0.6737769246101379
0.32937926054000854 -0.09674366563558578 0.6717608571052551
0.33050599694252014 -0.09650669246912003 0.6712687015533447
0.33214783668518066 -0.09503946453332901 0.6696506142616272
0.33433449268341064 -0.09231942892074585 0.666880190372467
0.34312477707862854 -0.09156028926372528 0.6639167070388794
0.34610408544540405 -0.09204307943582535 0.663506805896759
0.3568958044052124 -0.0940154567360878 0.6622015237808228
0.3581019937992096 -0.0941927507519722 0.6620209813117981
0.35870569944381714 -0.09428144246339798 0.6619307994842529
0.3714703321456909 -0.09615378826856613 0.6600168943405151
0.37209227681159973 -0.09608694165945053 0.6597965955734253
0.3740859627723694 -0.09407530725002289 0.6576469540596008
0.376686692237854 -0.09273935109376907 0.6558772921562195
0.38748645782470703 -0.0865088552236557 0.647980809211731
0.3881165683269501 -0.08671893179416656 0.647980809211731
0.31962135434150696 -0.09616078436374664 0.6731225848197937
0.3248341977596283 -0.09821230173110962 0.6733754277229309
0.32821276783943176 -0.09810309112071991 0.6723802089691162
0.3321284055709839 -0.09685149788856506 0.6703205108642578
0.33327221870422363 -0.09679333120584488 0.6699665784835815
0.3343992233276367 -0.09628711640834808 0.669256329536438
0.33495303988456726 -0.09575550258159637 0.6686792373657227
0.3360132873058319 -0.09330236166715622 0.6664183735847473
0.3365725576877594 -0.09266385436058044 0.6657540202140808
0.338320791721344 -0.09240759909152985 0.6650781035423279
0.34007686376571655 -0.09213090687990189 0.6643837690353394
0.34244412183761597 -0.09234964102506638 0.6639242172241211
0.34422528743743896 -0.09256201237440109 0.6636170148849487
0.3537864089012146 -0.09403738379478455 0.6622380614280701
0.3543871343135834 -0.09412578493356705 0.6621481776237488
0.3555896282196045 -0.09430267661809921 0.6619677543640137
0.3561895191669464 -0.09450264275074005 0.6619677543640137
0.3652448356151581 -0.09617269784212112 0.660881519317627
0.366463840007782 -0.09625955671072006 0.660624086856842
0.36828818917274475 -0.0965454950928688 0.6603644490242004
0.37013307213783264 -0.09652937203645706 0.6598563194274902
0.3739843964576721 -0.09439195692539215 0.657100260257721
0.37899044156074524 -0.0944729670882225 0.6558212637901306
0.3802834749221802 -0.09408701956272125 0.6551632881164551
0.38167840242385864 -0.0926145687699318 0.6536024808883667
0.3825311064720154 -0.09021756052970886 0.65144282579422
0.3833554685115814 -0.08822652697563171 0.6496174335479736
0.32301878929138184 -0.09802500158548355 0.6729293465614319
0.3286985754966736 -0.09863054007291794 0.6718891263008118
0.3304000794887543 -0.09862072020769119 0.6714229583740234
0.3320954740047455 -0.09837856888771057 0.6707710027694702
0.33438682556152344 -0.09846849739551544 0.670226514339447
0.33495259284973145 -0.098291777074337 0.6699315309524536
0.3360993564128876 -0.09823571890592575 0.669577419757843
0.3366653621196747 -0.09798480570316315 0.6692220568656921
0.3383786380290985 -0.09742575883865356 0.668309211730957
0.35009145736694336 -0.09407244622707367 0.6624463796615601
0.35368451476097107 -0.09463158249855042 0.661930501461029
0.36211010813713074 -0.09619028121232986 0.6609208583831787
0.36878934502601624 -0.09709328413009644 0.6598517894744873
0.3731642961502075 -0.09616413712501526 0.6579231023788452
0.37578731775283813 -0.09428926557302475 0.6557021141052246
0.37768661975860596 -0.09407903999090195 0.6550207734107971
0.38454553484916687 -0.08851452171802521 0.6486788392066956
0.3865278363227844 -0.08811794221401215 0.647824764251709
0.32178014516830444 -0.098028764128685 0.6724827885627747
0.33549031615257263 -0.10001800954341888 0.6703919768333435
0.33606117963790894 -0.09997878968715668 0.6702060699462891
0.3383556008338928 -0.09992461651563644 0.6695425510406494
0.34006762504577637 -0.09931997209787369 0.6685904860496521
0.3406298756599426 -0.09870374202728271 0.6679393649101257
0.34169748425483704 -0.09469585865736008 0.6644042730331421
0.3422830402851105 -0.09456817060709 0.6641429662704468
0.3428695797920227 -0.09444034099578857 0.6638810038566589
0.3440513014793396 -0.09451016783714294 0.6636182069778442
0.3464183807373047 -0.09434375911951065 0.6628443002700806
0.34820374846458435 -0.09455835074186325 0.6625359654426575
0.35118821263313293 -0.09485156834125519 0.6619675755500793
0.3583885431289673 -0.09600789099931717 0.6609600186347961
0.3601939380168915 -0.09638621658086777 0.6607789397239685
0.36624014377593994 -0.09739735722541809 0.6599655151367188
0.38237321376800537 -0.09030803292989731 0.6498658657073975
0.38573041558265686 -0.08888251334428787 0.6478043794631958
0.3188072443008423 -0.09736496955156326 0.6719641089439392
0.3257479667663574 -0.10012421756982803 0.6723260879516602
0.3263111412525177 -0.100141242146492 0.6721873879432678
0.3274407982826233 -0.10020013898611069 0.6719292998313904
0.328006774187088 -0.10023416578769684 0.6718037724494934
0.33028939366340637 -0.10061690211296082 0.6714966893196106
0.33257389068603516 -0.10093610733747482 0.671137273311615
0.33601030707359314 -0.10138368606567383 0.6705701947212219
0.3383015990257263 -0.10146229714155197 0.6700135469436646
0.33887404203414917 -0.10142430663108826 0.6698276996612549
0.3400230407714844 -0.10141398012638092 0.6695083379745483
0.34231922030448914 -0.10094979405403137 0.6685094237327576
0.343463271856308 -0.10017534345388412 0.6675702929496765
0.3440481424331665 -0.10037030279636383 0.6675702929496765
0.3546791076660156 -0.09604696929454803 0.6611790657043457
0.3564780354499817 -0.09639154374599457 0.6609719395637512
0.3643118143081665 -0.09767942875623703 0.659896731376648
0.3679511845111847 -0.09819694608449936 0.6593316793441772
0.36856400966644287 -0.09819157421588898 0.659161388874054
0.3704066872596741 -0.09817425161600113 0.6586482524871826
0.37224501371383667 -0.0983312651515007 0.6582779884338379
0.37364694476127625 -0.095831960439682 0.655867874622345
0.37425604462623596 -0.09603499621152878 0.655867874622345
0.3780035972595215 -0.09607769548892975 0.6548876762390137
0.37998655438423157 -0.0949169248342514 0.653407633304596
0.3806007504463196 -0.09512165933847427 0.653407633304596
0.38144129514694214 -0.09275499731302261 0.6512575149536133
0.3882019519805908 -0.08939653635025024 0.6466983556747437
0.31757453083992004 -0.09741513431072235 0.6715543866157532
0.31930914521217346 -0.09808257222175598 0.6716272234916687
0.3204675316810608 -0.09855799376964569 0.6716998219490051
0.3222004771232605 -0.09922488778829575 0.6717725396156311
0.32451069355010986 -0.10012863576412201 0.6718814969062805
0.33308687806129456 -0.1020481139421463 0.671116292476654
0.33422619104385376 -0.10213369876146317 0.6708766222000122
0.33651649951934814 -0.10245497524738312 0.6705164909362793
0.3382411599159241 -0.10278552770614624 0.6703174114227295
0.3399575352668762 -0.1027492806315422 0.6698217391967773
0.3405303359031677 -0.10271193087100983 0.6696355938911438
0.3422607183456421 -0.10292744636535645 0.6693413853645325
0.34456342458724976 -0.10257421433925629 0.6684282422065735
0.34571897983551025 -0.1022743433713913 0.6678701043128967
0.34629327058792114 -0.10164517909288406 0.667201578617096
0.34742435812950134 -0.0968354195356369 0.6629758477210999
0.34801578521728516 -0.09670962393283844 0.6627127528190613
0.35039207339286804 -0.09652732312679291 0.6619189977645874
0.35218188166618347 -0.09655444324016571 0.6614550352096558
0.36118483543395996 -0.09773707389831543 0.659973680973053
0.36238810420036316 -0.09801046550273895 0.6598694920539856
0.3642019033432007 -0.09824501723051071 0.6595680117607117
0.3721522390842438 -0.09852200001478195 0.6576346755027771
0.37353700399398804 -0.09627678245306015 0.6554294228553772
0.37729591131210327 -0.09612241387367249 0.6542830467224121
0.38351988792419434 -0.09019532799720764 0.6477639675140381
0.38414448499679565 -0.09040356427431107 0.6477639675140381
0.3861152231693268 -0.0900634303689003 0.6469513773918152
0.38806262612342834 -0.09004511684179306 0.6464078426361084
0.3232775628566742 -0.10017755627632141 0.6714724898338318
0.3290209472179413 -0.10205069184303284 0.6714388728141785
0.3301646411418915 -0.10233470797538757 0.6713593006134033
0.34046420454978943 -0.10406482219696045 0.6699680089950562
0.3421878516674042 -0.10422570258378983 0.6696299910545349
0.3444918692111969 -0.10439351201057434 0.6691395044326782
0.3462198078632355 -0.10403839498758316 0.6683787703514099
0.34795916080474854 -0.1039968952536583 0.6678712964057922
0.3485391438007355 -0.1037224605679512 0.6674891114234924
0.35029298067092896 -0.09790699183940887 0.6622603535652161
0.35866695642471313 -0.0980968177318573 0.6601347923278809
0.3598705232143402 -0.09822331368923187 0.6599103808403015
0.36047273874282837 -0.09829673916101456 0.659806489944458
0.37018102407455444 -0.09923473000526428 0.6579287648200989
0.37534263730049133 -0.09607551991939545 0.6539419889450073
0.37903454899787903 -0.0969642698764801 0.6536628007888794
0.37982693314552307 -0.09501272439956665 0.6518524885177612
0.3804420232772827 -0.0952177569270134 0.6518524885177612
0.3812826871871948 -0.0928485244512558 0.6496879458427429
0.3174208402633667 -0.09837369620800018 0.6708089113235474
0.3272288739681244 -0.1021682620048523 0.67123943567276
0.3346632122993469 -0.10403383523225784 0.6707373857498169
0.33638107776641846 -0.10442384332418442 0.6705877780914307
0.33810222148895264 -0.10486052185297012 0.670475423336029
0.34845080971717834 -0.10571159422397614 0.668346643447876
0.3501909077167511 -0.10561396181583405 0.6677912473678589
0.35252711176872253 -0.10477390140295029 0.666465163230896
0.353164941072464 -0.09898010641336441 0.6615439653396606
0.3543608784675598 -0.09872958064079285 0.6610122323036194
0.3561563491821289 -0.09873898327350616 0.6605295538902283
0.3688405454158783 -0.09980331361293793 0.6579373478889465
0.37641575932502747 -0.09742213785648346 0.653917670249939
0.38192757964134216 -0.09193067997694016 0.6479131579399109
0.38778477907180786 -0.0913386344909668 0.6458287239074707
0.3208065927028656 -0.10018391907215118 0.6705825924873352
0.32599616050720215 -0.1022125780582428 0.6708282232284546
0.3311706781387329 -0.10413067787885666 0.6709869503974915
0.3323156237602234 -0.10447600483894348 0.6709572076797485
0.3403147757053375 -0.10609638690948486 0.6700975894927979
0.3414616882801056 -0.10633260756731033 0.6699777841567993
0.3420338034629822 -0.10637721419334412 0.6698578596115112
0.34433019161224365 -0.10674896836280823 0.6695342063903809
0.34605535864830017 -0.10697595030069351 0.6692482233047485
0.34836044907569885 -0.10712242871522903 0.6687372326850891
0.3500947654247284 -0.10736384242773056 0.6684607267379761
0.35125425457954407 -0.10714131593704224 0.6679603457450867
0.35241568088531494 -0.10722601413726807 0.6677117943763733
0.35417068004608154 -0.10661422461271286 0.6667284965515137
0.35604047775268555 -0.10005408525466919 0.6608266234397888
0.3614467978477478 -0.10007694363594055 0.6593647003173828
0.3620506227016449 -0.10008766502141953 0.6592081189155579
0.3644666075706482 -0.10027055442333221 0.6586968302726746
0.3662935197353363 -0.1002054512500763 0.6581428647041321
0.3669047951698303 -0.10016964375972748 0.6579459309577942
0.3681167960166931 -0.10034804046154022 0.6577607989311218
0.3705592453479767 -0.10046887397766113 0.6571910977363586
0.3718931972980499 -0.09877827763557434 0.655436635017395
0.37255871295928955 -0.09804278612136841 0.6546503305435181
0.37629392743110657 -0.09800852835178375 0.6535990238189697
0.3781518340110779 -0.09823641926050186 0.6532775163650513
0.3818103075027466 -0.09240398555994034 0.6474835872650146
0.38246774673461914 -0.09221713989973068 0.6471498608589172
0.38439446687698364 -0.09222128242254257 0.6466256976127625
0.38698750734329224 -0.09209539741277695 0.6458122134208679
0.3195762634277344 -0.10023266822099686 0.670174777507782
0.3299359083175659 -0.10414589196443558 0.6705537438392639
0.3356668949127197 -0.10602445155382156 0.6705275177955627
0.3362363576889038 -0.10611803829669952 0.6704483032226562
0.338520348072052 -0.10658998787403107 0.6702097654342651
0.3465440571308136 -0.10812908411026001 0.6692742109298706
0.34827014803886414 -0.10838465392589569 0.6690106391906738
0.3505766689777374 -0.10857845842838287 0.6685367822647095
0.3523111343383789 -0.10882101953029633 0.668260395526886
0.3534710705280304 -0.1088050976395607 0.6679286956787109
0.35405397415161133 -0.1086399257183075 0.6676326394081116
0.35638704895973206 -0.10855022817850113 0.6669178605079651
0.35759150981903076 -0.10699112713336945 0.6653026342391968
0.3581754267215729 -0.10718580335378647 0.6653026342391968
0.3589194118976593 -0.10112863034009933 0.6601077318191528
0.35952287912368774 -0.10100497305393219 0.6598399877548218
0.3730796277523041 -0.09833099693059921 0.653913676738739
0.37557557225227356 -0.09822780638933182 0.6531431078910828
0.37876254320144653 -0.09749924391508102 0.651667594909668
0.37958693504333496 -0.09515706449747086 0.6495115756988525
0.38020336627960205 -0.09536253660917282 0.6495115756988525
0.38557109236717224 -0.09262023866176605 0.6457778811454773
0.3166126012802124 -0.09957069158554077 0.6696574687957764
0.31834280490875244 -0.10023589432239532 0.6697304248809814
0.32007601857185364 -0.10094612836837769 0.6698399782180786
0.3223801255226135 -0.10183162987232208 0.669937014579773
0.32295599579811096 -0.10205337405204773 0.6699616312980652
0.32410478591918945 -0.10246379673480988 0.6699844002723694
0.3338698148727417 -0.10610381513834 0.6703025102615356
0.3395848572254181 -0.1076265200972557 0.6699866056442261
0.34129995107650757 -0.10800562798976898 0.6698275804519653
0.3424433469772339 -0.10821093618869781 0.6696821451187134
0.34416279196739197 -0.10864807665348053 0.669569730758667
0.35220983624458313 -0.11003215610980988 0.6684970855712891
0.3545245826244354 -0.11010798811912537 0.66792231798172
0.3562653958797455 -0.1102418377995491 0.6675535440444946
0.3580138087272644 -0.11024927347898483 0.6670780181884766
0.35918956995010376 -0.1099981740117073 0.6665468215942383
0.35979488492012024 -0.10932354629039764 0.6658226251602173
0.36060193181037903 -0.10212885588407516 0.6596558094024658
0.362408310174942 -0.10208173841238022 0.6591193675994873
0.3654543161392212 -0.10153718292713165 0.6578304767608643
0.3709791600704193 -0.10098720341920853 0.6558545827865601
0.3165363669395447 -0.10004793852567673 0.6692867279052734
0.32172393798828125 -0.10206897556781769 0.6695284843444824
0.3263210654258728 -0.10376656800508499 0.6696653366088867
0.32747048139572144 -0.10420464724302292 0.6697109341621399
0.328045129776001 -0.10442367196083069 0.6697337031364441
0.3303409814834595 -0.10527120530605316 0.6698018312454224
0.332061767578125 -0.10589968413114548 0.6698471307754517
0.332635760307312 -0.10611846297979355 0.6698698997497559
0.33435702323913574 -0.10677427798509598 0.6699379682540894
0.33607637882232666 -0.10740233212709427 0.6699835658073425
0.3377951383590698 -0.10802976042032242 0.6700287461280823
0.33836522698402405 -0.10816051065921783 0.6699795722961426
0.34694093465805054 -0.1100933849811554 0.6692126393318176
0.3480876684188843 -0.11031965166330338 0.6690833568572998
0.35038456320762634 -0.11068987101316452 0.6687557101249695
0.3544175922870636 -0.11128823459148407 0.6681376695632935
0.3602539598941803 -0.11069507151842117 0.6660343408584595
0.3614518940448761 -0.10997387021780014 0.6651058793067932
0.3641030788421631 -0.10281723737716675 0.6584438681602478
0.365345299243927 -0.10207048058509827 0.6574822664260864
0.3671709895133972 -0.10201332718133926 0.6569305658340454
0.3702242076396942 -0.10200510919094086 0.6560805439949036
0.37158626317977905 -0.09979771822690964 0.6538754105567932
0.37942618131637573 -0.09525355696678162 0.647944986820221
0.38004350662231445 -0.09545932710170746 0.647944986820221
0.3827356696128845 -0.09385733306407928 0.6458742022514343
0.38335710763931274 -0.09406451880931854 0.6458742022514343
0.3256656527519226 -0.10402906686067581 0.6692785024642944
0.3314040005207062 -0.10616093128919601 0.6694604754447937
0.33656197786331177 -0.10807166248559952 0.6696196794509888
0.3434213399887085 -0.11016345024108887 0.669457733631134
0.3445628881454468 -0.1103573888540268 0.6693028807640076
0.35258641839027405 -0.11206232011318207 0.6684973239898682
0.35431304574012756 -0.11232072114944458 0.6682336330413818
0.3560411036014557 -0.1126849502325058 0.6680575609207153
0.35661911964416504 -0.11273432523012161 0.6679386496543884
0.3583538234233856 -0.11296054720878601 0.6676461100578308
0.3601242005825043 -0.11211787164211273 0.6664556860923767
0.3613508641719818 -0.11041257530450821 0.6646990776062012
0.3620074689388275 -0.10848581790924072 0.6629163026809692
0.36267217993736267 -0.10653410106897354 0.661110520362854
0.3639613687992096 -0.10418829321861267 0.6588044762611389
0.3682868182659149 -0.10239118337631226 0.6561132669448853
0.36889928579330444 -0.10235212743282318 0.6559112071990967
0.3701123893260956 -0.10252215713262558 0.6557164788246155
0.3714778423309326 -0.10023826360702515 0.6534407138824463
0.37520092725753784 -0.10015008598566055 0.6523362994194031
0.3764127194881439 -0.10058955103158951 0.6523659229278564
0.37770894169807434 -0.09995880722999573 0.6514828205108643
0.3785213530063629 -0.09764696657657623 0.6493366956710815
0.3819619119167328 -0.09450890123844147 0.6457763910293579
0.3845277428627014 -0.09447737038135529 0.6450399160385132
0.3864527940750122 -0.09452564269304276 0.6445466876029968
0.31926479935646057 -0.10212797671556473 0.6686853170394897
0.3353285491466522 -0.10808563977479935 0.6691878437995911
0.34105184674263 -0.11021164804697037 0.6693696975708008
